# .PCD v0.7 - Point Cloud Data file format
VERSION 0.7
FIELDS x y z
SIZE 4 4 4
TYPE F F F
COUNT 1 1 1
WIDTH 847
HEIGHT 1
VIEWPOINT 0 0 0 1 0 0 0
POINTS 847
DATA ascii
-0.028226746 0.0042340159 0.6311844
-0.028226746 0.0028226972 0.6311844
-0.028226826 0.0014113784 0.63118488
-0.028226826 -0 0.63118488
-0.026815407 0.0042340159 0.6311844
-0.026815407 0.0028226972 0.6311844
-0.026890879 0.0014153421 0.63166386
-0.026815407 -0 0.63118434
-0.026815481 -0.0014113188 0.63118488
-0.025404071 0.0056453645 0.6311844
-0.025404071 0.0042340159 0.6311844
-0.026390763 0.0029323399 0.63780129
-0.026938172 0.0014965832 0.64147228
-0.026238151 2.9802322e-08 0.63677782
-0.025404071 -0.0014113188 0.63118434
-0.025404071 -0.0028226972 0.6311844
-0.023992734 0.0098793805 0.6311844
-0.023992734 0.0084680319 0.63118434
-0.023992734 0.0070567131 0.6311844
-0.023992734 0.0056453645 0.6311844
-0.023992734 0.0042340159 0.6311844
-0.026340943 0.0030989349 0.64785814
-0.026691904 0.0015701354 0.65035021
-0.026220042 -0 0.64699972
-0.023992734 -0.0014113188 0.63118434
-0.023992734 -0.0028226972 0.6311844
-0.023992734 -0.0042339861 0.63118434
-0.023992734 -0.0056453347 0.63118434
-0.023992734 -0.0070566833 0.6311844
-0.02258146 0.012702107 0.63118488
-0.022581395 0.011290699 0.6311844
-0.022581395 0.0098793805 0.6311844
-0.022581395 0.0084680319 0.63118434
-0.022581395 0.0070567131 0.6311844
-0.022581395 0.0056453645 0.6311844
-0.02258146 0.0042340457 0.63118482
-0.022581395 0.0028226972 0.6311844
-0.022581395 0.0014113486 0.63118434
-0.022581395 -0 0.63118434
-0.022581395 -0.0014113188 0.63118434
-0.022581395 -0.0028226972 0.6311844
-0.022581395 -0.0042339861 0.63118434
-0.022581395 -0.0056453347 0.63118434
-0.022581395 -0.0070566833 0.6311844
-0.022581395 -0.0084680021 0.63118434
-0.022581395 -0.0098793507 0.6311844
-0.021170059 0.015524745 0.63118434
-0.021170059 0.014113396 0.6311844
-0.021170059 0.012702048 0.63118434
-0.021170059 0.011290699 0.6311844
-0.02165742 0.010106832 0.63510633
-0.02214577 0.0088583529 0.6390363
-0.02253996 0.0075133741 0.64220852
-0.022440758 0.0059842169 0.64141017
-0.021300131 0.0042600632 0.63223112
-0.021170059 0.0028226972 0.6311844
-0.021170059 0.0014113486 0.63118434
-0.021170059 -0 0.63118434
-0.021465588 -0.0014310181 0.63356262
-0.022511905 -0.0030016005 0.64198273
-0.02252873 -0.0045057237 0.6421181
-0.022101231 -0.0058936477 0.63867784
-0.021604242 -0.0072014034 0.63467842
-0.021170059 -0.0084680021 0.63118434
-0.021170059 -0.0098793507 0.6311844
-0.021170119 -0.011290759 0.63118488
-0.021170059 -0.012702018 0.6311844
-0.019758722 0.016936064 0.6311844
-0.019758722 0.015524745 0.63118434
-0.019758722 0.014113396 0.6311844
-0.019758722 0.012702048 0.63118434
-0.020868212 0.011924744 0.64075059
-0.021473829 0.010736942 0.64597237
-0.022021649 0.0094378889 0.6506958
-0.022504933 0.0080375075 0.65486276
-0.022595238 0.0064558089 0.65564132
-0.02159038 0.0046265423 0.64697731
-0.020589134 0.0029412806 0.63834435
-0.020342674 0.001453042 0.63621932
-0.020657804 2.9802322e-08 0.63893646
-0.021688309 -0.0015491545 0.64782166
-0.02262304 -0.0032318532 0.65588105
-0.02248846 -0.0048189461 0.65472072
-0.021998413 -0.0062852204 0.65049541
-0.021390159 -0.0076393485 0.64525092
-0.020254621 -0.0086805224 0.63546014
-0.019758778 -0.0098793805 0.63118488
-0.019758778 -0.011290759 0.63118488
-0.019758722 -0.012702018 0.6311844
-0.019758722 -0.014113337 0.63118434
-0.018347435 0.018347442 0.63118488
-0.018347384 0.016936064 0.6311844
-0.018347384 0.015524745 0.63118434
-0.018347384 0.014113396 0.6311844
-0.018347384 0.012702048 0.63118434
-0.018347435 0.011290759 0.63118488
-0.02123992 0.011436909 0.65804285
-0.021860663 0.010089546 0.66380674
-0.022413023 0.0086204112 0.6689356
-0.022752883 0.0070009232 0.67209136
-0.021966528 0.005069226 0.66478968
-0.020727234 0.0031888187 0.65328228
-0.020403326 0.0015694797 0.65027469
-0.020761371 2.9802322e-08 0.65359926
-0.021950888 -0.0016885102 0.66464448
-0.022745086 -0.0034992099 0.67201895
-0.022423994 -0.0051747262 0.66903746
-0.021860002 -0.0067261457 0.66380054
-0.021004802 -0.0080787539 0.65585971
-0.019406009 -0.0089566112 0.64101422
-0.018347384 -0.0098793507 0.6311844
-0.018347384 -0.011290669 0.6311844
-0.018373556 -0.012720138 0.63142741
-0.018347384 -0.014113337 0.63118434
-0.018347435 -0.015524775 0.63118488
-0.016936047 0.019758731 0.6311844
-0.016936047 0.018347412 0.6311844
-0.017166628 0.017166644 0.63350379
-0.017802924 0.016319364 0.6399045
-0.017777465 0.014814585 0.63964838
-0.016936047 0.012702048 0.63118434
-0.017388102 0.01159209 0.6357317
-0.020910574 0.012197852 0.67116499
-0.021667974 0.010833979 0.67878389
-0.022306653 0.0092944801 0.6852085
-0.022783274 0.0075944364 0.69000298
-0.022311626 0.0055779219 0.68525851
-0.020890784 0.0034818351 0.67096591
-0.020474546 0.0017062128 0.66677892
-0.02088359 -0 0.67089355
-0.022265295 -0.001855433 0.68479252
-0.022812881 -0.0038021207 0.69030076
-0.022334283 -0.0055835545 0.68548644
-0.021679554 -0.0072264969 0.67890036
-0.020405658 -0.0085023344 0.66608596
-0.017809261 -0.0089046061 0.63996828
-0.016936047 -0.0098793507 0.6311844
-0.018557804 -0.012371838 0.64749801
-0.017839156 -0.013379335 0.64026892
-0.017078931 -0.014232427 0.63262165
-0.016936047 -0.015524715 0.6311844
-0.016936047 -0.016936034 0.63118434
-0.015524753 0.021170139 0.63118488
-0.01552471 0.019758731 0.6311844
-0.015727757 0.018587351 0.63341254
-0.016473252 0.01797083 0.64159346
-0.017252609 0.017252624 0.65014583
-0.017923547 0.016294152 0.65750849
-0.017332094 0.014180809 0.65101802
-0.017017474 0.012376338 0.64756548
-0.01783463 0.01134932 0.65653276
-0.021404471 0.011675179 0.69570714
-0.022144131 0.010065526 0.70382392
-0.022788025 0.0082865655 0.71088982
-0.022720763 0.0061965883 0.71015173
-0.021087429 0.0038340986 0.69222796
-0.020573037 0.0018702447 0.68658322
-0.021029821 -0 0.69159579
-0.022584181 -0.0020531118 0.70865285
-0.022846103 -0.0041538179 0.71152717
-0.022218684 -0.0060596168 0.70464206
-0.021310573 -0.0077492893 0.6946767
-0.019365905 -0.0088026226 0.67333651
-0.016964551 -0.0092533529 0.6469847
-0.017282024 -0.010997623 0.65046865
-0.018050101 -0.013127357 0.65889728
-0.017209239 -0.014080256 0.64966989
-0.016255388 -0.014777601 0.63920265
-0.01552471 -0.015524715 0.6311844
-0.01552471 -0.016936034 0.63118434
-0.015524753 -0.018347442 0.63118488
-0.014113373 0.022581398 0.6311844
-0.014113373 0.02117011 0.63118434
-0.014113332 0.019758731 0.63118386
-0.014897875 0.019367278 0.64065421
-0.015672056 0.018806487 0.64999938
-0.016490085 0.018139094 0.65987384
-0.017356871 0.017356902 0.67033684
-0.018070536 0.016263485 0.67895156
-0.016981574 0.013585269 0.66580659
-0.017334141 0.012133926 0.67006248
-0.018816631 0.011289984 0.68795776
-0.021944983 0.01097253 0.72572029
-0.022693962 0.0090776086 0.73476124
-0.022971943 0.0068916082 0.7381168
-0.021328256 0.0042656958 0.71827579
-0.020693339 0.0020693541 0.71061158
-0.021207932 2.9802322e-08 0.71682328
-0.022882855 -0.0022882521 0.73704141
-0.022805987 -0.0045611858 0.73611355
-0.022057395 -0.0066171885 0.72707725
-0.02062102 -0.008248359 0.70973861
-0.017564394 -0.0087821782 0.67284191
-0.016785545 -0.010071337 0.66344035
-0.018307569 -0.012815297 0.68181282
-0.017368197 -0.013894528 0.67047358
-0.016307462 -0.01467669 0.65766937
-0.014498735 -0.01449874 0.63583612
-0.014113373 -0.015524715 0.6311844
-0.014113413 -0.016936064 0.63118482
-0.014113413 -0.018347442 0.63118488
-0.012702036 0.022581398 0.6311844
-0.012702036 0.02117011 0.63118434
-0.012702036 0.019758731 0.6311844
-0.012702036 0.018347412 0.6311844
-0.01474853 0.019664764 0.65863258
-0.015597538 0.019063711 0.67001975
-0.016510641 0.018345177 0.68226653
-0.017486092 0.017486125 0.69534957
-0.018231325 0.016205639 0.70534486
-0.01703658 0.013250709 0.68932062
-0.017768279 0.011845529 0.69913435
-0.021646706 0.012025982 0.75115293
-0.02256681 0.010029703 0.76349366
-0.023200685 0.0077335835 0.77199537
-0.021777876 0.0048395395 0.75291234
-0.020842398 0.0023158789 0.74036533
-0.021429662 2.9802322e-08 0.7482419
-0.023161782 -0.0025735199 0.77147365
-0.022733822 -0.0050519109 0.76573366
-0.021735094 -0.0072450638 0.75233847
-0.019307772 -0.0085811913 0.71978247
-0.016937261 -0.0094095767 0.68798852
-0.018629551 -0.012419671 0.71068603
-0.017566582 -0.013662905 0.69642913
-0.016366091 -0.014547616 0.68032777
-0.014437726 -0.014437705 0.65446401
-0.013579071 -0.015087843 0.64294749
-0.013225337 -0.016164273 0.63820302
-0.012907816 -0.017210394 0.63394433
-0.012702036 -0.018347353 0.63118434
-0.012702036 -0.019758701 0.6311844
-0.011290697 0.023992717 0.6311844
-0.011290697 0.022581398 0.6311844
-0.011290697 0.02117011 0.63118434
-0.01129073 0.019758821 0.63118482
-0.01129073 0.018347442 0.63118488
-0.011903416 0.017855138 0.64042956
-0.014514931 0.019958049 0.67983425
-0.015503701 0.019379646 0.69475365
-0.01653648 0.018603593 0.71033716
-0.017650273 0.017650306 0.72714293
-0.018387347 0.016088963 0.73826456
-0.017286684 0.012965024 0.72165686
-0.018624671 0.011640459 0.74184555
-0.022361659 0.011180818 0.79823232
-0.022379035 0.00559479 0.79849452
-0.021031655 0.0026289821 0.77816409
-0.021763368 -0 0.78920478
-0.022614963 -0.0056537092 0.80205429
-0.020952612 -0.0078572035 0.77697134
-0.017425906 -0.0087129176 0.72375751
-0.019003915 -0.011877418 0.74756783
-0.017820949 -0.013365716 0.72971821
-0.016429916 -0.014376163 0.70872915
-0.014378226 -0.01437819 0.67777157
-0.01352924 -0.015220374 0.6649614
-0.013235469 -0.016544342 0.66052872
-0.012731528 -0.017505854 0.65292484
-0.012111371 -0.018167019 0.64356738
-0.011444976 -0.01859808 0.63351226
-0.011290697 -0.019758701 0.6311844
-0.011290697 -0.02117005 0.6311844
-0.0098793609 0.023992717 0.6311844
-0.0098793609 0.022581398 0.6311844
-0.010037887 0.021509796 0.63391805
-0.0098793888 0.019758821 0.63118482
-0.010168797 0.018884897 0.63617551
-0.010763211 0.018451273 0.64642584
-0.011516869 0.018097937 0.65942222
-0.012874463 0.018392116 0.68283308
-0.015384631 0.019780248 0.7261194
-0.016569739 0.018936872 0.74655581
-0.017865948 0.017865956 0.76890814
-0.018502146 0.015859008 0.77987897
-0.017780602 0.012700438 0.76743639
-0.018951552 -0.0081220865 0.78762877
-0.017385125 -0.0099343061 0.7606166
-0.018156009 -0.01296854 0.77390999
-0.016512636 -0.014153659 0.74557114
-0.014310858 -0.014310837 0.70760286
-0.013543968 -0.01547882 0.69437826
-0.013154773 -0.016913235 0.68766683
-0.01246911 -0.017812997 0.675843
-0.011692964 -0.018374622 0.66245884
-0.01096316 -0.018793941 0.64987385
-0.010319074 -0.019163966 0.63876694
-0.0098793609 -0.019758701 0.6311844
-0.0098793609 -0.02117005 0.6311844
-0.0084680235 0.025404096 0.63118434
-0.0084680235 0.023992717 0.6311844
-0.0086137038 0.022969872 0.63411528
-0.0091262739 0.022815734 0.64442736
-0.0096480399 0.022512108 0.65492445
-0.010114078 0.021913856 0.66430044
-0.010008874 0.020017773 0.66218394
-0.010368695 0.019009262 0.66942298
-0.011130996 0.018551707 0.68475926
-0.012155497 0.01823324 0.70537066
-0.015228688 0.020304948 0.76719844
-0.016614202 0.019383252 0.79507285
-0.01657778 -0.013814807 0.79434007
-0.014268855 -0.014268875 0.74788809
-0.013632454 -0.015904516 0.73508465
-0.012948293 -0.017264396 0.72132045
-0.012040829 -0.018061221 0.70306373
-0.011149184 -0.018581927 0.68512517
-0.01038049 -0.019030869 0.66966021
-0.0096931467 -0.019386262 0.65583193
-0.0090856729 -0.019685596 0.64361048
-0.0085498737 -0.019949704 0.63283104
-0.0084680235 -0.02117005 0.6311844
-0.0070566866 0.025404096 0.63118434
-0.0070566866 0.023992717 0.6311844
-0.0073277825 0.023448914 0.63772929
-0.0077933841 0.02338019 0.64896989
-0.0083151134 0.023282349 0.66156554
-0.0089117102 0.023170471 0.67596859
-0.0095674898 0.022961974 0.69180053
-0.010184756 0.022406489 0.70670265
-0.010297311 0.020594627 0.70941997
-0.010662855 0.019193113 0.71824503
-0.01168724 0.018699616 0.74297583
-0.014262797 -0.014262766 0.80515528
-0.013623957 -0.016348749 0.78973228
-0.012550135 -0.017570168 0.76380801
-0.011420483 -0.018272758 0.73653573
-0.010467712 -0.018841833 0.71353382
-0.009634845 -0.019269675 0.69342667
-0.0089232484 -0.019631118 0.67624718
-0.0083055627 -0.019933343 0.66133487
-0.0077563915 -0.020166606 0.64807677
-0.0072753187 -0.020370841 0.63646263
-0.0070567066 -0.02117008 0.63118482
-0.0070566866 -0.022581398 0.6311844
-0.0056453487 0.025404096 0.63118434
-0.0056453487 0.023992717 0.6311844
-0.005964478 0.023857921 0.64081496
-0.0063586454 0.023844957 0.65270996
-0.0068024411 0.023808569 0.66610271
-0.0073120315 0.023764104 0.681481
-0.0079040928 0.023712307 0.69934797
-0.0085871955 0.023614824 0.71996248
-0.0093976445 0.023494154 0.74441987
-0.010264561 0.02309528 0.77058142
-0.010797558 0.02159515 0.7866661
-0.011164738 0.019538313 0.79774666
-0.010595492 -0.018542081 0.78056812
-0.0095487405 -0.019097477 0.74897963
-0.0086893104 -0.01955092 0.72304404
-0.0079529006 -0.019882232 0.70082092
-0.0073315846 -0.020161808 0.68207103
-0.0068002911 -0.020400852 0.66603786
-0.0063281865 -0.020566553 0.6517908
-0.0059109111 -0.020688176 0.63919842
-0.0056453487 -0.02117005 0.6311844
-0.0056453487 -0.022581398 0.6311844
-0.0042340118 0.026815414 0.63118434
-0.0042340118 0.025404096 0.63118434
-0.0042340118 0.023992717 0.6311844
-0.0044946424 0.023971468 0.64167136
-0.004831722 0.024158627 0.65523434
-0.0051940163 0.024238765 0.66981202
-0.0055968743 0.02425313 0.68602169
-0.0060674548 0.024269849 0.70495641
-0.0066243727 0.024289399 0.72736502
-0.0072859302 0.024286479 0.75398409
-0.0080912719 0.024273843 0.78638852
-0.0083035175 -0.019374847 0.79492867
-0.0074272845 -0.019806057 0.75967175
-0.0067054546 -0.020116359 0.7306276
-0.0060973251 -0.020324409 0.70615828
-0.005565003 -0.020405024 0.68473935
-0.0051151128 -0.020460427 0.66663712
-0.0047147302 -0.020430475 0.650527
-0.0043697148 -0.020391971 0.63664466
-0.0042340239 -0.02117008 0.63118482
-0.0042340239 -0.022581458 0.63118488
-0.0042340239 -0.023992777 0.63118494
-0.0028226743 0.029638112 0.63118434
-0.0028226743 0.028226763 0.63118434
-0.0028226743 0.026815414 0.63118434
-0.0028226743 0.025404096 0.63118434
-0.0028226743 0.023992717 0.6311844
-0.0028226743 0.022581398 0.6311844
-0.0028535419 0.021401614 0.63304734
-0.0030890338 0.021623254 0.64726061
-0.0033740078 0.021931082 0.6644603
-0.0037200146 0.022320092 0.68534362
-0.0041682841 0.022925586 0.71239907
-0.0049024024 0.024512053 0.75670707
-0.005549123 0.024971068 0.79574013
-0.0056191371 -0.01966697 0.79996586
-0.0049240403 -0.019696087 0.75801301
-0.0043634861 -0.019635707 0.72418058
-0.0039071445 -0.01953572 0.69663799
-0.0035363408 -0.01944989 0.67425799
-0.003229589 -0.01937753 0.65574384
-0.0029717975 -0.019316673 0.64018476
-0.0028226743 -0.019758701 0.6311844
-0.0028226743 -0.02117005 0.6311844
-0.0028226825 -0.022581458 0.63118488
-0.0028226825 -0.023992777 0.63118494
-0.0028226825 -0.025404125 0.63118488
-0.0014113372 0.029638112 0.63118434
-0.0014113372 0.028226763 0.63118434
-0.0014628101 0.027793437 0.63739771
-0.001545915 0.027826488 0.64742935
-0.0014113372 0.023992717 0.6311844
-0.0014113372 0.022581398 0.6311844
-0.001423471 0.021352082 0.63264906
-0.0015297931 0.021417111 0.64548326
-0.0016532802 0.02149269 0.66038948
-0.0017984539 0.021581471 0.67791349
-0.001971585 0.021687448 0.69881225
-0.0021815908 0.021815926 0.72416222
-0.002441668 0.02197504 0.75555634
-0.0027721636 0.022177339 0.79545069
-0.0025735712 -0.018014997 0.77147841
-0.0022701479 -0.018161148 0.73485202
-0.0020319384 -0.01828742 0.70609754
-0.0018402238 -0.018402219 0.68295556
-0.0016815612 -0.018497139 0.66380328
-0.0015480866 -0.018577009 0.64769149
-0.0014342429 -0.018645138 0.63394934
-0.0014113412 -0.019758731 0.63118488
-0.0014113412 -0.02117008 0.63118482
-0.0015408165 -0.024653047 0.64681393
-0.0014547592 -0.024730921 0.63642585
-0.0014113412 -0.025404125 0.63118488
-0.0014113372 -0.026815385 0.63118434
0 0.029638112 0.63118434
0 0.028226763 0.63118434
0 0.028106958 0.63938987
0 0.028155684 0.64963681
0 0.026779979 0.65097558
0 0.022581488 0.63118482
0 0.021533459 0.63410825
0 0.021615714 0.64719552
0 0.02171728 0.66247499
0 0.021836907 0.68048263
0 0.021979898 0.70202184
0 0.022154182 0.7282455
0 0.022370905 0.76086533
0 0.022647768 0.80254853
0 -0.017312646 0.80912471
0 -0.017599851 0.76431948
0 -0.017819047 0.72968954
0 -0.017993301 0.70215291
0 -0.01813519 0.67973191
0 -0.01825279 0.66112208
0 -0.018352121 0.64542907
0 -0.018436104 0.63200861
0 -0.019758701 0.6311844
0 -0.023623645 0.65092945
0 -0.024953723 0.64908242
0 -0.025017262 0.63845921
0 -0.025404036 0.63118434
0 -0.026815385 0.63118434
0.0014113372 0.029638112 0.63118434
0.0014113372 0.028226763 0.63118434
0.0014289754 0.027150571 0.63331342
0.0015016088 0.027028948 0.64208114
0.0014113372 0.023992717 0.6311844
0.0014113372 0.022581398 0.6311844
0.0014634391 0.021951616 0.63747358
0.0015797988 0.022117198 0.65151948
0.0017162607 0.022311419 0.66799188
0.0018806093 0.022567332 0.68783057
0.0020883696 0.022972077 0.71290946
0.0023477355 0.023477376 0.74421763
0.0026790251 0.024111241 0.78420788
0.002807535 -0.019652724 0.79972035
0.0022902859 -0.018322229 0.73728287
0.002007127 -0.018064141 0.70310253
0.0018011406 -0.018011361 0.6782378
0.0016418335 -0.018060178 0.65900779
0.001512064 -0.018144727 0.64334315
0.0014113412 -0.018347442 0.63118488
0.0014113412 -0.019758731 0.63118488
0.0014113412 -0.02117008 0.63118482
0.0014935231 -0.023896337 0.64110506
0.0014215782 -0.024166822 0.63242054
0.0014113412 -0.025404125 0.63118488
0.0014113412 -0.026815444 0.63118482
0.0028226743 0.028226763 0.63118434
0.0028226743 0.026815414 0.63118434
0.0028226743 0.025404096 0.63118434
0.0028226743 0.023992717 0.6311844
0.002854421 0.022835404 0.63310045
0.0030865662 0.023149282 0.64711165
0.0033595657 0.023516983 0.66358864
0.0036606833 0.023794442 0.6817627
0.0040144473 0.024086684 0.70311427
0.0044167358 0.024292052 0.72739452
0.0048852428 0.024426222 0.75567144
0.005436054 0.024462253 0.78891575
0.005584456 -0.019545585 0.7978726
0.0049931277 -0.019972503 0.76218283
0.0045083254 -0.020287424 0.73292243
0.0041093174 -0.020546526 0.70884013
0.0037585206 -0.020671815 0.68766773
0.0033591711 -0.020155042 0.66356486
0.0029441866 -0.019137204 0.63851827
0.0028226743 -0.019758701 0.6311844
0.0028226743 -0.02117005 0.6311844
0.0028226743 -0.022581398 0.6311844
0.0028226743 -0.023992717 0.6311844
0.0028226825 -0.025404125 0.63118488
0.0042340118 0.026815414 0.63118434
0.0042340118 0.025404096 0.63118434
0.0042340118 0.023992717 0.6311844
0.0044523282 0.023745775 0.63996875
0.0047738375 0.023869216 0.65290529
0.005131287 0.023946017 0.66728795
0.005531902 0.023971617 0.68340743
0.0059801447 0.023920596 0.70144331
0.0065021906 0.023841411 0.72244883
0.0071215993 0.023738682 0.74737191
0.0078504086 0.023551226 0.77669692
0.0086379489 -0.01727587 0.80838513
0.0080117667 -0.018694133 0.78318948
0.0072432137 -0.019315213 0.75226533
0.0065842452 -0.019752711 0.72575051
0.0060253935 -0.02008462 0.703264
0.0055532064 -0.020361751 0.68426466
0.0051447055 -0.020578831 0.66782784
0.0047908104 -0.020760179 0.65358824
0.0044824556 -0.020918101 0.64118099
0.0042340118 -0.02117005 0.6311844
0.0042340118 -0.022581398 0.6311844
0.0042340118 -0.023992717 0.6311844
0.0056453487 0.025404096 0.63118434
0.0056453487 0.023992717 0.6311844
0.0059198798 0.023679495 0.63946909
0.0062951851 0.023606956 0.65079492
0.0067212982 0.023524582 0.66365397
0.0072091557 0.023429781 0.67837644
0.0077598155 0.023279458 0.69499403
0.008397148 0.023092151 0.71422726
0.0091304677 0.022826195 0.73635721
0.0099820215 0.022459596 0.76205504
0.010999074 0.021998167 0.79274732
0.011580238 -0.014475286 0.81028545
0.0096932594 -0.014539838 0.75334084
0.0089035379 -0.015581191 0.72950894
0.0089484807 -0.01789692 0.73086518
0.0084340191 -0.018976539 0.7153399
0.007808527 -0.019521326 0.69646406
0.007223988 -0.01986593 0.67882401
0.0067191096 -0.020157337 0.66358793
0.0062730275 -0.020387322 0.65012622
0.0058824881 -0.020588696 0.63834071
0.0056453487 -0.02117005 0.6311844
0.0056453487 -0.022581398 0.6311844
0.0070566866 0.025404096 0.63118434
0.0070566866 0.023992717 0.6311844
0.0072612343 0.023235977 0.63612258
0.0077059097 0.023117721 0.64685804
0.0082007991 0.022962242 0.65880573
0.0087633394 0.02278468 0.67238665
0.009387522 0.022530079 0.68745571
0.010095938 0.022211075 0.70455843
0.010925961 0.021851927 0.72459692
0.012654177 0.022777528 0.76631975
0.012908155 0.020653069 0.77245134
0.014091124 0.019727588 0.80101073
0.014415744 -0.014415741 0.80884773
0.013145959 -0.015775144 0.7781924
0.010352192 -0.014493048 0.71074498
0.0095146205 -0.015223354 0.69052416
0.0090371286 -0.016266793 0.67899644
0.009145787 -0.018291563 0.68161976
0.0087095546 -0.019160986 0.6710881
0.0081865229 -0.019647628 0.65846103
0.0076711765 -0.019945025 0.64601946
0.0072124796 -0.020194888 0.63494557
0.0070567066 -0.02117008 0.63118482
0.0070566866 -0.022581398 0.6311844
0.0084680235 0.023992717 0.6311844
0.0085237296 0.022729963 0.63230509
0.0090257702 0.022564441 0.64240539
0.0095682759 0.022325993 0.65331972
0.010179858 0.022056401 0.66562378
0.010873817 0.021747619 0.67958522
0.012225788 0.022413939 0.70678478
0.015304146 0.020405531 0.76871651
0.015630027 0.018235087 0.77527273
0.016850505 0.016850531 0.79982686
0.015700405 0.013083696 0.77668869
0.015899887 -0.0079499185 0.78070199
0.016407989 -0.010938644 0.79092419
0.015889704 -0.01324141 0.78049707
0.014688642 -0.014688611 0.75633359
0.013589075 -0.015853912 0.73421204
0.010898251 -0.014530987 0.68007678
0.010058572 -0.015087873 0.66318375
0.0094387988 -0.015731305 0.65071487
0.0092034079 -0.016872913 0.64597917
0.0092822015 -0.018564373 0.64756435
0.008903495 -0.019290894 0.63994539
0.0084680235 -0.019758701 0.6311844
0.0084680235 -0.02117005 0.6311844
0.0098793609 0.023992717 0.6311844
0.0098793609 0.022581398 0.6311844
0.010241347 0.021945775 0.63742661
0.010836841 0.021673679 0.64769554
0.011486352 0.021331817 0.65889597
0.017761577 0.017761588 0.76710832
0.015578696 0.013353139 0.7294659
0.017972291 0.01283738 0.77074194
0.020030152 0.01144582 0.80622852
0.020247141 0.005784899 0.80997038
0.018984629 0.0027121305 0.78819907
0.019684002 -0 0.80025941
0.020283842 -0.0057953596 0.81060326
0.01698797 -0.0072805583 0.75376797
0.015732009 -0.0089896917 0.73210973
0.016725218 -0.011946559 0.74923694
0.015939996 -0.013662845 0.73569632
0.014889919 -0.014889896 0.71758842
0.013914645 -0.01590243 0.70077038
0.011411133 -0.014671475 0.65759885
0.010495167 -0.014993072 0.64180362
0.0098793888 -0.015524775 0.63118488
0.0098793888 -0.016936064 0.63118482
0.0098793888 -0.018347442 0.63118488
0.0098793609 -0.019758701 0.6311844
0.0098793609 -0.02117005 0.6311844
0.011290697 0.022581398 0.6311844
0.011372206 0.021322906 0.63241422
0.012797672 0.022395909 0.65392292
0.015722807 0.013757467 0.69805974
0.016586706 0.012440056 0.71109498
0.019449443 0.01215595 0.75429034
0.020601071 0.010300547 0.77166712
0.02122773 0.0079604089 0.78112268
0.020062402 0.0050156116 0.7635392
0.019147176 0.0023934245 0.74972945
0.01971974 2.9802322e-08 0.75836879
0.02121041 -0.0026512742 0.78086126
0.020762209 -0.0051905215 0.7740984
0.019918645 -0.0074694753 0.76137006
0.016354399 -0.008177191 0.70758975
0.015868345 -0.0099177063 0.70025575
0.016817015 -0.01261276 0.71457005
0.015977988 -0.013980746 0.7019102
0.015044536 -0.01504451 0.68782544
0.014169249 -0.015940398 0.67461836
0.012226644 -0.015283287 0.64530671
0.01129073 -0.015524775 0.63118488
0.011290697 -0.016936034 0.63118434
0.01129073 -0.018347442 0.63118488
0.01129073 -0.019758731 0.63118488
0.01271843 0.022610545 0.63140428
0.017569872 0.015617669 0.69647324
0.016130889 0.012546271 0.6771732
0.018643435 0.012428969 0.71087223
0.020243507 0.011246413 0.73233283
0.021013767 0.0093395114 0.74266374
0.021359527 0.0071198344 0.74730122
0.019920589 0.0044268072 0.72800177
0.019287923 0.0021431148 0.71951628
0.019747538 -0 0.72568077
0.021290354 -0.0023655891 0.74637341
0.021112779 -0.00469172 0.74399179
0.020415863 -0.0068052709 0.73464453
0.0172149 -0.007651031 0.69171226
0.016130254 -0.0089612603 0.67716467
0.016694264 -0.011129469 0.68472934
0.016833553 -0.013092756 0.68659753
0.016007664 -0.014229 0.67552048
0.015167081 -0.015167058 0.66424632
0.014373807 -0.015970886 0.65360665
0.013590014 -0.016610026 0.64309418
0.012702071 -0.016936064 0.63118482
0.012702036 -0.018347353 0.63118434
0.012702036 -0.019758701 0.6311844
0.015977578 0.012782067 0.65368736
0.017534234 0.012273997 0.67247784
0.019718103 0.011830896 0.69883949
0.020725483 0.010362774 0.71099961
0.021334076 0.0085336566 0.718346
0.021367693 0.0064103305 0.71875179
0.019903922 0.0039807856 0.70108253
0.019407213 0.001940757 0.69508666
0.019805597 2.9802322e-08 0.69989562
0.021255409 -0.0021255016 0.71739644
0.021401692 -0.0042802989 0.71916211
0.020791018 -0.0062372684 0.71179068
0.020082628 -0.0080330074 0.70323968
0.016650038 -0.0083250105 0.66180468
0.01605566 -0.0096333623 0.65462989
0.017067883 -0.011947513 0.66684854
0.016805729 -0.013444573 0.66368401
0.016031431 -0.014428258 0.65433741
0.015266517 -0.015266508 0.64510405
0.014541756 -0.01599592 0.63635546
0.014113413 -0.016936064 0.63118482
0.014113373 -0.018347353 0.63118434
0.015974762 0.013070256 0.63612312
0.016660091 0.012116462 0.64364374
0.01905033 0.012122959 0.66987348
0.020381661 0.01111728 0.68448311
0.021069186 0.0095769167 0.69202781
0.021567777 0.0078428388 0.69749922
0.021285767 0.0058052242 0.69440448
0.019899724 0.0036181509 0.67919445
0.019505847 0.001773268 0.67487216
0.019861808 5.9604645e-08 0.67877835
0.0212036 -0.0019275844 0.69350284
0.021587402 -0.0039249659 0.69771457
0.021108214 -0.0057567656 0.69245613
0.020480558 -0.0074474514 0.68556839
0.017367532 -0.0078943372 0.65140694
0.016420372 -0.0089565516 0.64101315
0.016162498 -0.010285199 0.6381833
0.017191339 -0.012502789 0.64947343
0.016774181 -0.013724297 0.64489573
0.016050978 -0.014591783 0.63695949
0.01552471 -0.015524715 0.6311844
0.01552471 -0.016936034 0.63118434
0.016965285 0.014137775 0.63147849
0.016936047 0.012702048 0.63118434
0.01825621 0.012170821 0.64446419
0.019901307 0.011609107 0.66101259
0.020809332 0.010404706 0.67014664
0.021347877 0.00889498 0.67556393
0.021721749 0.0072405934 0.67932487
0.021096082 0.0052740574 0.67303109
0.019896163 0.0033160448 0.66096085
0.019588875 0.0016324222 0.6578697
0.019908961 2.9802322e-08 0.66108954
0.021073427 -0.0017561316 0.67280322
0.021729374 -0.0036215782 0.67940152
0.021351142 -0.0053378046 0.67559677
0.020807602 -0.0069358051 0.67012918
0.020193528 -0.0084139705 0.66395211
0.016936047 -0.0084680021 0.63118434
0.016936047 -0.0098793507 0.6311844
0.016936047 -0.011290669 0.6311844
0.01723537 -0.012926519 0.63419533
0.016936047 -0.014113337 0.63118434
0.016936047 -0.015524715 0.6311844
0.016935999 -0.016935945 0.63118386
0.018396212 0.015566051 0.63163775
0.018347384 0.014113396 0.6311844
0.018347384 0.012702048 0.63118434
0.019319898 0.01188916 0.64021456
0.020478418 0.011026859 0.65097195
0.021100536 0.0097387433 0.65674865
0.021573693 0.0082975924 0.66114205
0.021760182 0.0066954792 0.66287363
0.020908454 0.0048250258 0.65496504
0.01989321 0.0030604899 0.64553809
0.019659624 0.0015123188 0.64336914
0.019949034 -0 0.64605641
0.020964453 -0.0016126633 0.65548503
0.021763459 -0.0033482015 0.66290408
0.021558819 -0.0049750507 0.66100395
0.021074625 -0.0064845085 0.65650803
0.020524101 -0.0078938603 0.65139616
0.018347384 -0.0084680021 0.63118434
0.018347384 -0.0098793507 0.6311844
0.018347384 -0.011290669 0.6311844
0.018347384 -0.012702018 0.6311844
0.018347435 -0.014113396 0.63118482
0.018347384 -0.015524715 0.6311844
0.019758722 0.015524745 0.63118434
0.019758778 0.014113456 0.63118488
0.019758778 0.012702107 0.63118488
0.020034205 0.011448115 0.63355964
0.020848462 0.010424256 0.6405803
0.021344211 0.0091475546 0.64485472
0.021766754 0.0077738464 0.64849806
0.021775687 0.0062216222 0.64857501
0.02074701 0.0044457912 0.63970554
0.019890623 0.0028415322 0.63232166
0.019758722 0.0014113486 0.63118434
0.019983511 -0 0.63312256
0.020837236 -0.0014883578 0.6404835
0.021788487 -0.0031126142 0.6486854
0.021740071 -0.0046585798 0.64826792
0.02130902 -0.0060882866 0.64455134
0.020816121 -0.0074343085 0.64030147
0.020273555 -0.0086886287 0.6356234
0.019758722 -0.0098793507 0.6311844
0.019758722 -0.011290669 0.6311844
0.019758722 -0.012702018 0.6311844
0.021170119 0.014113456 0.63118488
0.021170059 0.012702048 0.63118434
0.021170059 0.011290699 0.6311844
0.021170059 0.0098793805 0.6311844
0.021553492 0.0086214244 0.63427001
0.021878636 0.0072929263 0.63688654
0.021693036 0.0057848394 0.63539296
0.021170059 0.0042340159 0.6311844
0.021170059 0.0028226972 0.6311844
0.021170059 0.0014113486 0.63118434
0.021170059 -0 0.63118434
0.021170059 -0.0014113188 0.63118434
0.021766141 -0.0029021502 0.63598132
0.021857802 -0.0043715239 0.63671893
0.021496698 -0.0057324469 0.63381296
0.021170119 -0.0070567131 0.63118488
0.021170059 -0.0084680021 0.63118434
0.021170059 -0.0098793507 0.6311844
0.021170059 -0.011290669 0.6311844
0.022581395 0.011290699 0.6311844
0.02258146 0.0098794401 0.63118488
0.022581395 0.0084680319 0.63118434
0.022581395 0.0070567131 0.6311844
0.022581395 0.0056453645 0.6311844
0.02258146 0.0042340457 0.63118482
0.025120927 0.0031401217 0.65034366
0.02517876 0.0015736818 0.65077996
0.022581395 -0 0.63118434
0.022581395 -0.0014113188 0.63118434
0.022581395 -0.0028226972 0.6311844
0.022581395 -0.0042339861 0.63118434
0.022581395 -0.0056453347 0.63118434
0.022581395 -0.0070566833 0.6311844
0.022581395 -0.0084680021 0.63118434
0.023992734 0.0070567131 0.6311844
0.023992734 0.0056453645 0.6311844
0.023992734 0.0042340159 0.6311844
0.025646651 0.0030172467 0.64292824
0.02620744 0.0015416443 0.64691019
0.025532639 2.9802322e-08 0.64211869
0.023992734 -0.0014113188 0.63118434
0.023992734 -0.0028226972 0.6311844
0.023992734 -0.0042339861 0.63118434
0.025404071 0.0056453645 0.6311844
0.025404071 0.0042340159 0.6311844
0.025786437 0.0028651953 0.63374853
0.026255744 0.0014586747 0.63689578
0.025624299 2.9802322e-08 0.63266128
0.025404142 -0.0014113188 0.63118488
0.025404071 -0.0028226972 0.6311844
0.026815407 0.0042340159 0.6311844
0.026815407 0.0028226972 0.6311844
0.026815407 0.0014113486 0.63118434
0.026815407 -0 0.63118434
0.026815407 -0.0014113188 0.63118434
0.028226746 0.0028226972 0.6311844
0.028226746 0.0014113486 0.63118434
0.028226746 -0 0.63118434
