# .PCD v0.7 - Point Cloud Data file format
VERSION 0.7
FIELDS x y z
SIZE 4 4 4
TYPE F F F
COUNT 1 1 1
WIDTH 1339
HEIGHT 1
VIEWPOINT 0 0 0 1 0 0 0
POINTS 1339
DATA ascii
-0.011753418 0.045054793 0.69728148
-0.011753418 0.043095887 0.69728148
-0.011753418 0.04113698 0.69728148
-0.011753418 0.039178073 0.69728142
-0.011753418 0.037219167 0.69728142
-0.011753418 0.03526029 0.69728142
-0.011753418 0.033301383 0.69728142
-0.011753418 0.031342477 0.69728136
-0.011753418 0.0293836 0.69728136
-0.011753418 0.027424663 0.69728136
-0.011753418 0.025465757 0.69728142
-0.011753418 0.02350685 0.69728142
-0.011753418 0.021547973 0.69728142
-0.011753418 0.019589067 0.69728142
-0.011753418 0.01763016 0.69728142
-0.011753418 0.015671253 0.69728142
-0.011753418 0.013712317 0.69728142
-0.011753418 0.01175344 0.69728148
-0.011753418 0.0097945333 0.69728148
-0.011753418 0.0078356266 0.69728142
-0.011753418 0.0058767498 0.69728142
-0.011753418 0.0039177835 0.69728136
-0.011753418 0.0019589365 0.69728142
-0.011753418 2.9802322e-08 0.69728142
-0.011753418 -0.0019588768 0.69728136
-0.011753418 -0.0039177537 0.69728142
-0.011753418 -0.0058766603 0.69728136
-0.011753418 -0.0078355968 0.69728148
-0.011753418 -0.0097945035 0.69728142
-0.011753418 -0.01175341 0.69728142
-0.011753418 -0.013712287 0.69728142
-0.011753418 -0.015671194 0.69728142
-0.011753418 -0.0176301 0.69728148
-0.011753418 -0.019589037 0.69728148
-0.011753418 -0.021547943 0.69728142
-0.011753418 -0.02350682 0.69728148
-0.011753418 -0.025465727 0.69728142
-0.011753418 -0.027424604 0.69728142
-0.011753418 -0.02938351 0.69728142
-0.011753418 -0.031342447 0.69728142
-0.011753418 -0.033301353 0.69728142
-0.011753418 -0.03526023 0.69728136
-0.011753418 -0.037219137 0.69728142
-0.011753418 -0.039178014 0.69728136
-0.011770423 -0.041196465 0.69762349
-0.011770376 -0.043157995 0.69762254
-0.011770376 -0.045119762 0.6976226
-0.011770376 -0.04708147 0.6976226
-0.011770376 -0.049043208 0.6976226
-0.01177033 -0.051004767 0.69762164
-0.01177033 -0.052966475 0.69762158
-0.01177033 -0.054928154 0.69762164
-0.01177033 -0.056889892 0.69762164
-0.01177033 -0.058851629 0.6976217
-0.01177033 -0.060813338 0.6976217
-0.01177033 -0.062775105 0.6976217
-0.01177033 -0.064736813 0.69762158
-0.011770376 -0.06669879 0.6976226
-0.011770376 -0.068660498 0.69762254
-0.011770376 -0.070622265 0.69762254
-0.011770376 -0.072583973 0.6976226
-0.011770376 -0.074545711 0.6976226
-0.011770376 -0.076507419 0.6976226
-0.011770423 -0.078469455 0.69762349
-0.011770423 -0.080431193 0.69762349
-0.011770423 -0.082392931 0.69762349
-0.011770423 -0.084354699 0.69762349
-0.011770423 -0.086316422 0.69762349
-0.011770423 -0.088278174 0.69762349
-0.0097576128 0.087818533 0.69639051
-0.0097576128 0.085866988 0.69639051
-0.0097576128 0.083915472 0.69639051
-0.0097576128 0.081963956 0.69639051
-0.0097576128 0.08001247 0.69639051
-0.0097576128 0.078060955 0.69639057
-0.0097576128 0.07610938 0.69639051
-0.0097576128 0.074157894 0.69639051
-0.0097576128 0.072206378 0.69639051
-0.0097576128 0.070254833 0.69639051
-0.0097576128 0.068303317 0.69639051
-0.0097576128 0.066351771 0.69639051
-0.0097576128 0.064400256 0.69639051
-0.0097576128 0.06244874 0.69639051
-0.0097576128 0.060497224 0.69639051
-0.0097576128 0.058545709 0.69639051
-0.0097576128 0.056594193 0.69639051
-0.0097576128 0.054642648 0.69639051
-0.0097576128 0.052691132 0.69639051
-0.0097576128 0.050739616 0.69639051
-0.0097576128 0.0487881 0.69639051
-0.0097576128 0.046836585 0.69639051
-0.0097576128 0.044885039 0.69639051
-0.0097576128 0.042933524 0.69639051
-0.0097576128 0.040982008 0.69639051
-0.0097576128 0.039030463 0.69639051
-0.0097576128 0.037078947 0.69639051
-0.0097576128 0.035127401 0.69639057
-0.0097576128 0.033175915 0.69639051
-0.0097576128 0.0312244 0.69639051
-0.0097576128 0.029272884 0.69639051
-0.0097576128 0.027321368 0.69639051
-0.0097576128 0.025369823 0.69639051
-0.0097576128 0.023418248 0.69639057
-0.0097576128 0.021466762 0.69639051
-0.0097576128 0.019515246 0.69639057
-0.0097576128 0.01756376 0.69639051
-0.0097576128 0.015612185 0.69639057
-0.0097576128 0.013660699 0.69639051
-0.0097576128 0.011709154 0.69639057
-0.0097576128 0.0097576082 0.69639051
-0.0097576128 0.0078060925 0.69639051
-0.0097576128 0.0058545768 0.69639057
-0.0097576128 0.0039030612 0.69639057
-0.0097576128 0.0019515157 0.69639051
-0.0097576128 -0 0.69639051
-0.0097576128 -0.0019514859 0.69639057
-0.0097576128 -0.0039030015 0.69639057
-0.0097576128 -0.005854547 0.69639051
-0.0097576128 -0.0078060925 0.69639051
-0.0097576128 -0.0097576082 0.69639057
-0.0097576128 -0.011709124 0.69639057
-0.0097576128 -0.01366064 0.69639051
-0.0097576128 -0.015612155 0.69639051
-0.0097576128 -0.017563671 0.69639057
-0.0097576128 -0.019515216 0.69639051
-0.0097576128 -0.021466732 0.69639051
-0.0097576128 -0.023418248 0.69639051
-0.0097576128 -0.025369763 0.69639057
-0.0097576128 -0.027321309 0.69639051
-0.0097576128 -0.029272825 0.69639051
-0.0097576128 -0.03122434 0.69639051
-0.0097576128 -0.033175856 0.69639051
-0.0097576128 -0.035127372 0.69639051
-0.0097576128 -0.037078917 0.69639051
-0.0097576128 -0.039030433 0.69639051
-0.0097712185 -0.041039109 0.69671899
-0.0097712185 -0.042993367 0.69671899
-0.0097711803 -0.044947386 0.6967181
-0.0097711803 -0.046901643 0.6967181
-0.0097711803 -0.048855871 0.69671804
-0.0097711803 -0.050810099 0.6967181
-0.0097711422 -0.052764148 0.69671714
-0.0097711422 -0.054718375 0.69671714
-0.0097711422 -0.056672603 0.69671714
-0.009771104 -0.058626592 0.69671619
-0.009771104 -0.06058085 0.69671625
-0.009771104 -0.062535018 0.69671625
-0.009771104 -0.064489245 0.69671619
-0.0097710658 -0.066443235 0.69671524
-0.0097710658 -0.068397433 0.6967153
-0.0097710658 -0.07035169 0.69671535
-0.0097710276 -0.07230559 0.6967144
-0.0097710658 -0.074260116 0.69671535
-0.0097710658 -0.076214314 0.6967153
-0.0097710658 -0.078168511 0.6967153
-0.0097710658 -0.080122739 0.6967153
-0.009771104 -0.082077235 0.69671619
-0.009771104 -0.084031492 0.69671619
-0.009771104 -0.08598569 0.69671625
-0.009771104 -0.087939933 0.69671619
-0.0098198503 -0.090342626 0.69789308
-0.0077830506 0.087559342 0.69569522
-0.0077830506 0.085613579 0.69569522
-0.0077830506 0.083667815 0.69569528
-0.0077830506 0.081722051 0.69569528
-0.0077830506 0.079776287 0.69569522
-0.0077830506 0.077830523 0.69569522
-0.0077830506 0.075884759 0.69569522
-0.0077830506 0.073939025 0.69569516
-0.0077830506 0.071993232 0.69569528
-0.0077830506 0.070047438 0.69569522
-0.0077830506 0.068101704 0.69569522
-0.0077830506 0.06615591 0.69569528
-0.0077830506 0.064210176 0.69569522
-0.0077830506 0.062264413 0.69569522
-0.0077830506 0.060318649 0.69569522
-0.0077830506 0.058372885 0.69569522
-0.0077830506 0.056427151 0.69569516
-0.0077830506 0.054481387 0.69569528
-0.0077830506 0.052535623 0.69569528
-0.0077830506 0.050589859 0.69569522
-0.0077830506 0.048644096 0.69569522
-0.0077830506 0.046698332 0.69569528
-0.0077830506 0.044752568 0.69569522
-0.0077830506 0.042806834 0.69569522
-0.0077830506 0.04086104 0.69569522
-0.0077830506 0.038915277 0.69569516
-0.0077830506 0.036969543 0.69569516
-0.0077830506 0.035023719 0.69569522
-0.0077830506 0.033078015 0.69569522
-0.0077830506 0.031132162 0.69569528
-0.0077830506 0.029186457 0.69569516
-0.0077830506 0.027240694 0.69569522
-0.0077830506 0.02529493 0.69569522
-0.0077830506 0.023349196 0.69569522
-0.0077830506 0.021403402 0.69569522
-0.0077830506 0.019457638 0.69569528
-0.0077830506 0.017511874 0.69569528
-0.0077830506 0.01556614 0.69569522
-0.0077830506 0.013620347 0.69569522
-0.0077830506 0.011674583 0.69569528
-0.0077830506 0.0097288489 0.69569522
-0.0077830506 0.0077830851 0.69569522
-0.0077830506 0.0058373511 0.69569522
-0.0077830506 0.0038915277 0.69569522
-0.0077830506 0.0019457936 0.69569522
-0.0077830506 -0 0.69569522
-0.0077830506 -0.001945734 0.69569522
-0.0077830204 -0.0038914979 0.69569433
-0.0077830204 -0.0058372319 0.69569433
-0.0077830204 -0.0077829957 0.69569433
-0.0077830204 -0.0097287297 0.69569433
-0.0077830204 -0.011674523 0.69569433
-0.0077830204 -0.013620257 0.69569433
-0.0077830204 -0.015566021 0.69569433
-0.0077830204 -0.017511755 0.69569433
-0.0077830204 -0.019457519 0.69569433
-0.0077830204 -0.021403313 0.69569439
-0.0077830204 -0.023349077 0.69569433
-0.0077830204 -0.025294811 0.69569433
-0.0077830204 -0.027240574 0.69569433
-0.0077830204 -0.029186308 0.69569433
-0.0077830204 -0.031132042 0.69569433
-0.0077830204 -0.033077806 0.69569433
-0.0077830204 -0.03502354 0.69569433
-0.0077830204 -0.036969334 0.69569433
-0.0077830204 -0.038915038 0.69569427
-0.0077933851 -0.040915251 0.69600713
-0.0077935969 -0.04286477 0.69601357
-0.0077935671 -0.044812977 0.69601262
-0.0077935671 -0.046761394 0.69601262
-0.0077935671 -0.04870975 0.69601256
-0.0077935369 -0.050657988 0.69601166
-0.0077935369 -0.052606344 0.69601166
-0.0077935369 -0.054554731 0.69601172
-0.0077935066 -0.056502908 0.69601077
-0.0077935066 -0.058451265 0.69601077
-0.0077935066 -0.060399681 0.69601083
-0.0077934759 -0.0623478 0.69600987
-0.0077934759 -0.064296186 0.69600987
-0.0077934759 -0.066244513 0.69600987
-0.0077934456 -0.068192631 0.69600892
-0.0077934456 -0.070141017 0.69600892
-0.0077934456 -0.072089374 0.69600892
-0.0077934456 -0.074037701 0.69600892
-0.0077934153 -0.075985789 0.69600797
-0.0077934153 -0.077934146 0.69600809
-0.0077934153 -0.079882473 0.69600803
-0.0077933851 -0.081830531 0.69600713
-0.0077933851 -0.083778858 0.69600707
-0.0077933851 -0.08572723 0.69600713
-0.0077933851 -0.087675571 0.69600707
-0.0078234524 -0.089969695 0.69691443
-0.0058245813 0.089310288 0.69518393
-0.0058245813 0.087368697 0.69518399
-0.0058245813 0.085427195 0.69518393
-0.0058245813 0.083485693 0.69518399
-0.0058245813 0.081544131 0.69518393
-0.0058245813 0.079602599 0.69518393
-0.0058245813 0.077661097 0.69518399
-0.0058245813 0.075719595 0.69518393
-0.0058245813 0.073778063 0.69518393
-0.0058245813 0.071836531 0.69518393
-0.0058245813 0.069895029 0.69518393
-0.0058245813 0.067953467 0.69518393
-0.0058245813 0.066011935 0.69518399
-0.0058245813 0.064070404 0.69518399
-0.0058245813 0.062128901 0.69518393
-0.0058245813 0.06018734 0.69518399
-0.0058245813 0.058245838 0.69518393
-0.0058245813 0.056304336 0.69518393
-0.0058245813 0.054362774 0.69518399
-0.0058245813 0.052421242 0.69518399
-0.0058245813 0.05047971 0.69518399
-0.0058245813 0.048538238 0.69518393
-0.0058245813 0.046596617 0.69518399
-0.0058245813 0.044655174 0.69518393
-0.0058245813 0.042713612 0.69518393
-0.0058245813 0.04077208 0.69518393
-0.0058245813 0.038830549 0.69518399
-0.0058245813 0.036889017 0.69518393
-0.0058245813 0.034947544 0.69518393
-0.0058245813 0.033005983 0.69518393
-0.0058245813 0.031064451 0.69518393
-0.0058245813 0.029122949 0.69518393
-0.0058245813 0.027181387 0.69518393
-0.0058245813 0.025239855 0.69518393
-0.0058245813 0.023298323 0.69518393
-0.0058245813 0.021356851 0.69518387
-0.0058245813 0.019415259 0.69518399
-0.0058245813 0.017473757 0.69518393
-0.0058245813 0.015532255 0.69518399
-0.0058245813 0.013590723 0.69518399
-0.0058245584 0.011649162 0.69518304
-0.0058245584 0.0097076297 0.69518304
-0.0058245584 0.0077660978 0.69518304
-0.0058245584 0.0058245957 0.69518298
-0.0058245584 0.0038830936 0.69518304
-0.0058245584 0.0019415319 0.69518304
-0.0058245584 2.9802322e-08 0.69518304
-0.0058245584 -0.0019415319 0.69518304
-0.0058245584 -0.0038830042 0.69518304
-0.0058245584 -0.0058245659 0.69518304
-0.0058245584 -0.0077660382 0.69518304
-0.0058245584 -0.0097075701 0.69518304
-0.0058245584 -0.011649072 0.6951831
-0.0058245584 -0.013590634 0.69518298
-0.0058245584 -0.015532136 0.69518304
-0.0058245584 -0.017473668 0.69518304
-0.0058245584 -0.01941517 0.69518304
-0.0058245584 -0.021356732 0.69518304
-0.0058245584 -0.023298174 0.69518298
-0.0058245584 -0.025239706 0.69518304
-0.0058245584 -0.027181238 0.69518304
-0.0058245584 -0.02912277 0.6951831
-0.0058245584 -0.031064272 0.69518304
-0.0058245584 -0.033005804 0.69518298
-0.0058245584 -0.034947336 0.6951831
-0.0058245584 -0.036888868 0.69518304
-0.0058245584 -0.03883037 0.69518304
-0.0058316411 -0.040821433 0.69546801
-0.0058321618 -0.042769194 0.69548899
-0.0058321618 -0.044713229 0.69548899
-0.0058321846 -0.046657473 0.69548994
-0.0058321846 -0.048601538 0.69548988
-0.0058321846 -0.050545573 0.69548988
-0.0058322074 -0.052489877 0.69549084
-0.0058322074 -0.054433942 0.69549084
-0.0058322302 -0.056378216 0.69549179
-0.0058322302 -0.058322281 0.69549173
-0.005832253 -0.060266584 0.69549263
-0.005832253 -0.062210679 0.69549263
-0.005832253 -0.064154774 0.69549263
-0.0058322754 -0.066099107 0.69549358
-0.0058322754 -0.068043172 0.69549358
-0.0058322982 -0.069987565 0.69549441
-0.0058322982 -0.07193166 0.69549447
-0.005832321 -0.073876053 0.69549537
-0.005832321 -0.075820178 0.69549537
-0.0058323438 -0.077764571 0.69549632
-0.0058323438 -0.079708666 0.69549626
-0.0058323438 -0.08165279 0.69549632
-0.0058323666 -0.083597243 0.69549716
-0.0058323666 -0.085541382 0.69549721
-0.0058323885 -0.08748582 0.69549811
-0.0058500273 -0.089700431 0.69620788
-0.003877427 0.089180827 0.69484431
-0.003877427 0.087242156 0.69484437
-0.003877427 0.085303396 0.69484431
-0.003877427 0.083364725 0.69484437
-0.003877427 0.081425995 0.69484431
-0.003877427 0.079487294 0.69484431
-0.003877427 0.077548563 0.69484431
-0.003877427 0.075609833 0.69484437
-0.003877427 0.073671103 0.69484437
-0.003877427 0.071732402 0.69484437
-0.003877427 0.069793701 0.69484437
-0.003877427 0.067854971 0.69484437
-0.003877427 0.06591627 0.69484437
-0.003877427 0.06397754 0.69484437
-0.003877427 0.062038869 0.69484437
-0.003877427 0.060100108 0.69484431
-0.003877427 0.058161438 0.69484437
-0.003877427 0.056222677 0.69484431
-0.003877427 0.054284006 0.69484437
-0.0038774421 0.052345514 0.6948452
-0.0038774421 0.050406784 0.6948452
-0.0038774421 0.048468024 0.69484526
-0.0038774421 0.046529353 0.69484532
-0.0038774421 0.044590592 0.69484526
-0.0038774421 0.042651892 0.69484526
-0.0038774421 0.040713131 0.6948452
-0.0038774421 0.038774431 0.69484526
-0.0038774421 0.0368357 0.69484526
-0.0038774421 0.03489697 0.6948452
-0.0038774421 0.032958269 0.6948452
-0.0038774421 0.031019539 0.6948452
-0.0038774421 0.029080838 0.6948452
-0.0038774421 0.027142107 0.6948452
-0.0038774421 0.025203407 0.6948452
-0.0038774421 0.023264647 0.6948452
-0.0038774421 0.021325916 0.69484526
-0.0038774421 0.019387215 0.69484526
-0.0038774421 0.017448485 0.6948452
-0.0038774421 0.015509784 0.69484526
-0.0038774421 0.013571054 0.6948452
-0.0038774421 0.011632323 0.69484526
-0.0038774421 0.0096935928 0.69484526
-0.0038774421 0.0077548921 0.69484526
-0.0038774421 0.0058161616 0.69484526
-0.0038774421 0.0038774312 0.69484526
-0.0038774421 0.0019387305 0.69484526
-0.0038774421 -0 0.6948452
-0.0038774421 -0.0019387007 0.6948452
-0.0038774421 -0.0038774312 0.6948452
-0.0038774421 -0.0058161318 0.69484526
-0.0038774421 -0.0077548921 0.69484532
-0.0038774421 -0.0096935928 0.69484526
-0.0038774421 -0.011632323 0.69484526
-0.0038774421 -0.013571024 0.69484526
-0.0038774421 -0.015509754 0.69484526
-0.0038774421 -0.017448485 0.6948452
-0.0038774421 -0.019387215 0.6948452
-0.0038774421 -0.021325916 0.6948452
-0.0038774421 -0.023264617 0.69484526
-0.0038774421 -0.025203347 0.6948452
-0.0038774421 -0.027142078 0.69484526
-0.0038774421 -0.029080808 0.69484526
-0.0038774421 -0.031019509 0.69484526
-0.0038774421 -0.032958269 0.6948452
-0.0038774421 -0.03489697 0.6948452
-0.0038774421 -0.0368357 0.6948452
-0.0038774421 -0.038774401 0.6948452
-0.0038815932 -0.040756732 0.69509572
-0.0038824363 -0.042706788 0.69514668
-0.0038824363 -0.044647992 0.69514668
-0.0038824212 -0.046589017 0.69514573
-0.0038824212 -0.048530251 0.69514573
-0.0038824063 -0.050471246 0.69514483
-0.0038824063 -0.05241245 0.69514483
-0.0038824063 -0.054353684 0.69514483
-0.0038824063 -0.056294888 0.69514483
-0.0038824212 -0.058236331 0.69514579
-0.0038824212 -0.060177535 0.69514573
-0.0038824363 -0.062118948 0.69514668
-0.0038824363 -0.064060181 0.69514668
-0.0038824363 -0.066001445 0.69514668
-0.0038824514 -0.067942888 0.69514757
-0.0038824514 -0.069884092 0.69514757
-0.0038824666 -0.071825594 0.69514847
-0.0038824666 -0.073766828 0.69514847
-0.0038824817 -0.075708359 0.69514942
-0.0038824817 -0.077649623 0.69514942
-0.0038824817 -0.079590857 0.69514942
-0.0038824966 -0.081532419 0.69515032
-0.0038824966 -0.083473653 0.69515032
-0.0038825118 -0.085415199 0.69515121
-0.0038825118 -0.087356508 0.69515121
-0.0038924182 -0.08952558 0.6957491
-0.0019371674 0.089109719 0.69465768
-0.0019371674 0.087172538 0.69465768
-0.0019371674 0.085235357 0.69465768
-0.0019371674 0.083298206 0.69465768
-0.0019371674 0.081361055 0.69465762
-0.0019371674 0.079423904 0.69465768
-0.0019371674 0.077486724 0.69465768
-0.0019371674 0.075549543 0.69465768
-0.0019371674 0.073612422 0.69465768
-0.0019371674 0.071675211 0.69465768
-0.0019371674 0.06973806 0.69465768
-0.0019371674 0.067800879 0.69465768
-0.0019371674 0.065863669 0.69465768
-0.0019371674 0.063926518 0.69465768
-0.0019371674 0.061989367 0.69465768
-0.0019371674 0.060052186 0.69465768
-0.0019371674 0.058115035 0.69465768
-0.0019371674 0.056177855 0.69465768
-0.0019371674 0.054240733 0.69465768
-0.0019371674 0.052303523 0.69465762
-0.0019371674 0.050366372 0.69465768
-0.0019371674 0.048429221 0.69465768
-0.0019371674 0.04649201 0.69465768
-0.0019371674 0.044554889 0.69465768
-0.0019371674 0.042617738 0.69465768
-0.0019371674 0.040680528 0.69465768
-0.0019371674 0.038743377 0.69465768
-0.0019371674 0.036806166 0.69465768
-0.0019371674 0.034869045 0.69465768
-0.0019371674 0.032931864 0.69465762
-0.0019371674 0.030994684 0.69465768
-0.0019371674 0.029057533 0.69465774
-0.0019371674 0.027120352 0.69465768
-0.0019371674 0.025183201 0.69465768
-0.0019371674 0.02324605 0.69465768
-0.0019371674 0.021308839 0.69465768
-0.0019371674 0.019371688 0.69465768
-0.0019371674 0.017434537 0.69465768
-0.0019371674 0.015497386 0.69465768
-0.0019371674 0.013560176 0.69465768
-0.0019371674 0.011623025 0.69465768
-0.0019371674 0.009685874 0.69465768
-0.0019371674 0.0077486634 0.69465768
-0.0019371674 0.0058115125 0.69465762
-0.0019371674 0.0038743615 0.69465774
-0.0019371674 0.0019371808 0.69465768
-0.0019371674 2.9802322e-08 0.69465768
-0.0019371674 -0.001937151 0.69465768
-0.0019371674 -0.0038743317 0.69465768
-0.0019371674 -0.0058114827 0.69465768
-0.0019371674 -0.0077486336 0.69465768
-0.0019371674 -0.0096857846 0.69465768
-0.0019371674 -0.011622995 0.69465768
-0.0019371674 -0.013560146 0.69465768
-0.0019371674 -0.015497297 0.69465762
-0.0019371674 -0.017434508 0.69465768
-0.0019371674 -0.019371688 0.69465768
-0.0019371674 -0.021308839 0.69465768
-0.0019371674 -0.02324602 0.69465768
-0.0019371674 -0.025183141 0.69465768
-0.0019371674 -0.027120322 0.69465768
-0.0019371674 -0.029057533 0.69465768
-0.0019371674 -0.030994654 0.69465768
-0.0019371674 -0.032931805 0.69465768
-0.0019371674 -0.034868956 0.69465768
-0.0019371674 -0.036806166 0.69465768
-0.0019371674 -0.038743317 0.69465768
-0.0019390892 -0.04072088 0.69488972
-0.0019396454 -0.042672157 0.69495678
-0.0019396454 -0.044611871 0.69495684
-0.0019396378 -0.046551287 0.69495589
-0.0019396378 -0.048490942 0.69495589
-0.0019396305 -0.050430357 0.69495499
-0.0019396305 -0.052370012 0.69495499
-0.0019396305 -0.054309607 0.69495499
-0.0019396229 -0.056249052 0.69495416
-0.0019396229 -0.058188677 0.69495416
-0.0019396154 -0.060128063 0.6949532
-0.0019396154 -0.062067688 0.6949532
-0.0019396079 -0.064007044 0.69495231
-0.0019396154 -0.065946877 0.69495314
-0.0019396154 -0.067886502 0.69495314
-0.0019396229 -0.069826424 0.6949541
-0.0019396229 -0.071766019 0.6949541
-0.0019396229 -0.073705673 0.69495404
-0.0019396305 -0.075645596 0.69495505
-0.0019396305 -0.077585191 0.69495505
-0.0019396378 -0.079525143 0.69495595
-0.0019396378 -0.081464767 0.69495595
-0.0019396454 -0.08340475 0.69495684
-0.0019396454 -0.085344359 0.69495684
-0.001939653 -0.087284356 0.69495773
-0.0019440843 -0.089427844 0.69549263
0 0.089094549 0.69461787
0 0.087157667 0.69461787
0 0.085220903 0.69461787
0 0.08328402 0.69461787
0 0.081347197 0.69461787
0 0.079410344 0.69461787
0 0.077473521 0.69461787
0 0.075536668 0.69461787
0 0.073599845 0.69461787
0 0.071663022 0.69461787
0 0.069726169 0.69461787
0 0.067789346 0.69461787
0 0.065852523 0.69461787
0 0.06391564 0.69461787
0 0.061978817 0.69461787
0 0.060042024 0.69461787
0 0.058105141 0.69461787
0 0.056168288 0.69461787
0 0.054231465 0.69461787
0 0.052294612 0.69461787
0 0.050357759 0.69461787
0 0.048420966 0.69461787
0 0.046484113 0.69461787
0 0.04454726 0.69461787
0 0.042610437 0.69461787
0 0.040673614 0.69461787
0 0.038736761 0.69461787
0 0.036799967 0.69461787
0 0.034863085 0.69461787
0 0.032926232 0.69461787
0 0.030989438 0.69461787
0 0.029052615 0.69461787
0 0.027115732 0.69461787
0 0.025178879 0.69461787
0 0.023242086 0.69461787
0 0.021305203 0.69461787
0 0.01936841 0.69461787
0 0.017431557 0.69461787
0 0.015494734 0.69461787
0 0.013557881 0.69461781
0 0.011621058 0.69461787
0 0.0096841753 0.69461787
0 0.0077473819 0.69461787
0 0.0058105588 0.69461787
0 0.0038737059 0.69461787
0 0.0019368231 0.69461787
0 -0 0.69461787
0 -0.0019368529 0.69461787
0 -0.0038736761 0.69461787
0 -0.0058104992 0.69461787
0 -0.0077473223 0.69461787
0 -0.0096841455 0.69461787
0 -0.011621028 0.69461787
0 -0.013557822 0.69461787
0 -0.015494704 0.69461787
0 -0.017431498 0.69461781
0 -0.019368351 0.69461787
0 -0.021305174 0.69461787
0 -0.023242056 0.69461787
0 -0.02517885 0.69461787
0 -0.027115732 0.69461787
0 -0.029052556 0.69461793
0 -0.030989379 0.69461787
0 -0.032926202 0.69461787
0 -0.034863055 0.69461787
0 -0.036799878 0.69461787
0 -0.038736761 0.69461787
0 -0.04071328 0.69484609
0 -0.042664886 0.6949169
0 -0.044604033 0.69491595
0 -0.04654333 0.69491601
0 -0.048482478 0.69491506
0 -0.050421774 0.69491506
0 -0.052360892 0.69491416
0 -0.054300159 0.69491416
0 -0.056239218 0.69491327
0 -0.058178276 0.69491237
0 -0.060117573 0.69491243
0 -0.062056601 0.69491148
0 -0.063995868 0.69491142
0 -0.065934867 0.69491059
0 -0.067874163 0.69491053
0 -0.069813132 0.69490963
0 -0.071752369 0.69490963
0 -0.073691338 0.69490874
0 -0.075630635 0.69490874
0 -0.077569872 0.69490874
0 -0.079509437 0.69490969
0 -0.081448644 0.69490957
0 -0.083388269 0.69491053
0 -0.085327521 0.69491059
0 -0.087267116 0.69491148
0 -0.089404941 0.69543248
0.0019355413 0.089034915 0.69446141
0.0019355413 0.087099373 0.69446135
0.0019355486 0.08516416 0.6944623
0.0019355486 0.083228618 0.6944623
0.0019355562 0.081293374 0.69446319
0.0019355562 0.079357833 0.69446325
0.0019355637 0.077422559 0.69446409
0.0019355637 0.075486988 0.69446415
0.0019355711 0.073551774 0.69446498
0.0019355711 0.071616143 0.69446504
0.0019355711 0.069680542 0.69446498
0.0019355786 0.067745239 0.69446594
0.0019355786 0.065809727 0.69446588
0.0019355862 0.063874394 0.69446677
0.0019355862 0.061938792 0.69446683
0.0019355936 0.06000343 0.69446772
0.0019355936 0.058067799 0.69446772
0.0019356011 0.056132466 0.69446862
0.0019356011 0.054196835 0.69446862
0.0019356011 0.052261233 0.69446862
0.0019356087 0.050325841 0.69446951
0.0019356087 0.048390239 0.69446957
0.0019356087 0.046454668 0.69446951
0.0019356087 0.044519037 0.69446957
0.001935616 0.042583585 0.69447041
0.001935616 0.040647954 0.69447041
0.001935616 0.038712353 0.69447041
0.001935616 0.036776692 0.69447047
0.0019356236 0.034841269 0.69447136
0.0019356236 0.032905608 0.6944713
0.0019356236 0.030970007 0.6944713
0.0019356236 0.029034406 0.69447136
0.0019356312 0.027098864 0.69447225
0.0019356312 0.025163233 0.69447225
0.0019356312 0.023227602 0.69447225
0.0019356312 0.021291941 0.69447225
0.0019356385 0.0193564 0.69447315
0.0019356385 0.017420739 0.69447315
0.0019356385 0.015485168 0.69447315
0.0019356385 0.013549477 0.69447315
0.0019356461 0.011613876 0.6944741
0.0019356461 0.0096782446 0.69447404
0.0019356461 0.0077425838 0.69447404
0.0019356461 0.0058069527 0.6944741
0.0019356536 0.0038712919 0.694475
0.0019356536 0.0019356906 0.69447494
0.0019356536 -0 0.69447494
0.0019356536 -0.0019356012 0.69447494
0.001935661 -0.0038713217 0.69447589
0.001935661 -0.0058069527 0.69447589
0.001935661 -0.0077426136 0.69447589
0.001935661 -0.0096782446 0.69447589
0.0019356685 -0.011613995 0.69447672
0.0019356685 -0.013549656 0.69447672
0.0019356685 -0.015485346 0.69447678
0.0019356685 -0.017421007 0.69447678
0.0019356761 -0.019356757 0.69447768
0.0019356761 -0.021292418 0.69447768
0.0019356761 -0.023228079 0.69447768
0.0019356761 -0.02516374 0.69447762
0.0019356834 -0.02709958 0.69447857
0.0019356834 -0.02903524 0.69447857
0.0019356834 -0.030970901 0.69447857
0.0019356834 -0.032906592 0.69447857
0.001935691 -0.034842402 0.69447947
0.001935691 -0.036778092 0.69447947
0.001935691 -0.038713813 0.69447953
0.0019394049 -0.040727496 0.69492781
0.0019401418 -0.042683125 0.69501674
0.0019401418 -0.044623226 0.69501674
0.0019401342 -0.046563238 0.69501585
0.0019401342 -0.048503309 0.69501585
0.0019401342 -0.0504435 0.69501585
0.0019401342 -0.052383631 0.69501579
0.0019401342 -0.054323733 0.69501585
0.0019401269 -0.056263626 0.69501489
0.0019401269 -0.058203816 0.69501489
0.0019401269 -0.060143858 0.69501495
0.0019401269 -0.062084049 0.69501495
0.0019401269 -0.06402415 0.69501489
0.0019401193 -0.065964043 0.69501406
0.0019401193 -0.067904145 0.695014
0.0019401193 -0.069844246 0.695014
0.0019401193 -0.071784377 0.695014
0.0019401193 -0.073724508 0.69501406
0.0019401193 -0.075664639 0.695014
0.0019401117 -0.077604473 0.69501317
0.0019401117 -0.079544574 0.69501311
0.0019401117 -0.081484675 0.69501317
0.0019401117 -0.083424777 0.69501311
0.0019401117 -0.085364893 0.69501311
0.0019401193 -0.087305337 0.695014
0.001944719 -0.089457065 0.69556928
0.0038480842 0.088505983 0.69307333
0.0038480842 0.086581916 0.69307339
0.0038480842 0.084657907 0.69307333
0.0038480842 0.08273381 0.69307333
0.0038480842 0.080809742 0.69307333
0.0038480842 0.078885734 0.69307333
0.0038480842 0.076961696 0.69307333
0.0038480842 0.075037628 0.69307333
0.0038480842 0.07311362 0.69307333
0.0038480842 0.071189612 0.69307327
0.0038480842 0.069265544 0.69307327
0.0038480842 0.067341506 0.69307333
0.0038480842 0.065417469 0.69307327
0.0038480842 0.063493431 0.69307333
0.0038480842 0.061569393 0.69307333
0.0038480842 0.059645325 0.69307327
0.0038480842 0.057721287 0.69307333
0.0038480842 0.055797249 0.69307339
0.0038480842 0.053873211 0.69307333
0.0038480842 0.051949173 0.69307333
0.0038480842 0.050025105 0.69307333
0.0038480842 0.048101068 0.69307327
0.0038480842 0.04617703 0.69307333
0.0038480842 0.044252992 0.69307333
0.0038480842 0.042328954 0.69307333
0.0038480842 0.040404916 0.69307333
0.0038480842 0.038480878 0.69307339
0.0038480842 0.03655684 0.69307333
0.0038480842 0.034632772 0.69307333
0.0038480842 0.032708764 0.69307333
0.0038480842 0.030784696 0.69307333
0.0038480842 0.028860658 0.69307333
0.0038480842 0.02693662 0.69307333
0.0038480842 0.025012553 0.69307333
0.0038480842 0.023088515 0.69307333
0.0038480842 0.021164477 0.69307333
0.0038480842 0.019240409 0.69307333
0.0038480842 0.017316401 0.69307327
0.0038480842 0.015392333 0.69307333
0.0038480842 0.013468295 0.69307333
0.0038480842 0.011544287 0.69307327
0.0038480842 0.0096202195 0.69307333
0.0038480842 0.0076961815 0.69307333
0.0038480842 0.0057721734 0.69307333
0.0038480842 0.0038480759 0.69307333
0.0038480842 0.0019240379 0.69307333
0.0038480842 2.9802322e-08 0.69307333
0.0038480842 -0.0019240379 0.69307333
0.0038480842 -0.0038480759 0.69307339
0.0038480842 -0.005772084 0.69307333
0.0038480842 -0.0076961815 0.69307339
0.0038480842 -0.0096202195 0.69307339
0.0038480842 -0.011544228 0.69307333
0.0038480842 -0.013468295 0.69307333
0.0038480842 -0.015392333 0.69307333
0.0038480842 -0.017316341 0.69307333
0.0038480842 -0.019240379 0.69307327
0.0038480842 -0.021164417 0.69307333
0.0038480842 -0.023088485 0.69307333
0.0038480842 -0.025012523 0.69307333
0.0038480842 -0.026936561 0.69307333
0.0038480842 -0.028860629 0.69307339
0.0038480842 -0.030784637 0.69307327
0.0038480842 -0.032708704 0.69307327
0.0038480842 -0.034632772 0.69307333
0.0038480842 -0.03655678 0.69307327
0.0038480842 -0.038480818 0.69307333
0.0038480842 -0.040404886 0.69307333
0.0038847122 -0.042731792 0.69528401
0.0038847122 -0.044674158 0.69528401
0.0038847122 -0.046616524 0.69528401
0.0038847122 -0.048558861 0.69528401
0.0038846971 -0.050501019 0.69528317
0.0038847122 -0.052443594 0.69528407
0.0038847122 -0.05438596 0.69528401
0.0038847122 -0.056328297 0.69528401
0.0038847122 -0.058270663 0.69528401
0.0038847122 -0.060213029 0.69528407
0.0038847122 -0.062155396 0.69528401
0.0038847122 -0.064097762 0.69528407
0.0038847122 -0.066040099 0.69528401
0.0038847122 -0.067982435 0.69528401
0.0038847122 -0.069924802 0.69528401
0.0038847122 -0.071867138 0.69528407
0.0038847122 -0.073809505 0.69528401
0.0038847122 -0.075751871 0.69528407
0.0038847122 -0.077694207 0.69528401
0.0038847122 -0.079636574 0.69528401
0.0038847122 -0.08157897 0.69528401
0.0038847122 -0.083521277 0.69528407
0.0038847122 -0.085463643 0.69528401
0.0038847122 -0.087406009 0.69528401
0.0038954336 -0.089594916 0.69593114
0.0057485178 0.088143975 0.69212341
0.0057485178 0.086227775 0.69212341
0.0057485178 0.084311575 0.69212341
0.0057485178 0.082395464 0.69212341
0.0057485178 0.080479294 0.69212341
0.0057485178 0.078563094 0.69212341
0.0057485178 0.076646924 0.69212341
0.0057485178 0.074730754 0.69212341
0.0057485178 0.072814584 0.69212341
0.0057485178 0.070898414 0.69212341
0.0057485178 0.068982244 0.69212341
0.0057485178 0.067066103 0.69212341
0.0057485178 0.065149903 0.69212341
0.0057485178 0.063233733 0.69212341
0.0057485178 0.061317533 0.69212341
0.0057485178 0.059401333 0.69212341
0.0057485178 0.057485253 0.69212341
0.0057485178 0.055569023 0.69212341
0.0057485178 0.053652853 0.69212341
0.0057485178 0.051736683 0.69212341
0.0057485178 0.049820513 0.69212347
0.0057485178 0.047904342 0.69212341
0.0057485178 0.045988172 0.69212341
0.0057485178 0.044072002 0.69212341
0.0057485178 0.042155832 0.69212341
0.0057485178 0.040239662 0.69212341
0.0057485178 0.038323462 0.69212341
0.0057485178 0.036407322 0.69212341
0.0057485178 0.034491092 0.69212347
0.0057485178 0.032574922 0.69212341
0.0057485178 0.030658782 0.69212341
0.0057485178 0.028742611 0.69212341
0.0057485178 0.026826441 0.69212341
0.0057485178 0.024910241 0.69212347
0.0057485178 0.022994101 0.69212341
0.0057485178 0.021077901 0.69212341
0.0057485178 0.019161761 0.69212341
0.0057485178 0.017245591 0.69212341
0.0057485178 0.015329391 0.69212341
0.0057485178 0.013413221 0.69212341
0.0057485178 0.011497051 0.69212341
0.0057485178 0.0095809102 0.69212341
0.0057485178 0.0076647103 0.69212341
0.0057485178 0.0057485402 0.69212341
0.0057485178 0.00383237 0.69212341
0.0057485178 0.0019161999 0.69212341
0.0057485178 -0 0.69212341
0.0057485178 -0.0019161701 0.69212341
0.0057485178 -0.0038323104 0.69212341
0.0057485178 -0.0057484806 0.69212341
0.0057485178 -0.0076646507 0.69212341
0.0057485178 -0.0095808804 0.69212347
0.0057485178 -0.011497021 0.69212341
0.0057485178 -0.013413191 0.69212341
0.0057485178 -0.015329361 0.69212341
0.0057485178 -0.017245531 0.69212341
0.0057485178 -0.019161701 0.69212347
0.0057485178 -0.021077871 0.69212341
0.0057485178 -0.022994041 0.69212341
0.0057485178 -0.024910271 0.69212341
0.0057485178 -0.026826441 0.69212341
0.0057485178 -0.028742582 0.69212341
0.0057485178 -0.030658722 0.69212341
0.0057485178 -0.032574922 0.69212335
0.0057485178 -0.034491122 0.69212341
0.0057485178 -0.036407262 0.69212341
0.0057485178 -0.038323432 0.69212341
0.0057485178 -0.040239602 0.69212341
0.0058377418 -0.042810082 0.69571352
0.0058377418 -0.044756025 0.69571346
0.0058377194 -0.046701729 0.69571257
0.0058377194 -0.048647642 0.69571263
0.0058376966 -0.050593346 0.69571167
0.0058376966 -0.052539259 0.69571167
0.0058376738 -0.054484934 0.69571078
0.0058376738 -0.056430846 0.69571078
0.0058376738 -0.0583767 0.69571078
0.0058376738 -0.060322613 0.69571078
0.0058376738 -0.062268525 0.69571078
0.0058376738 -0.064214408 0.69571072
0.0058376966 -0.06616056 0.69571173
0.0058376966 -0.068106443 0.69571161
0.0058376966 -0.070052356 0.69571173
0.0058376966 -0.071998239 0.69571167
0.0058377194 -0.07394442 0.69571257
0.0058377194 -0.075890303 0.69571257
0.0058377194 -0.077836245 0.69571257
0.0058377194 -0.079782158 0.69571257
0.0058377418 -0.081728399 0.69571352
0.0058377418 -0.083674252 0.69571352
0.0058377418 -0.085620195 0.69571352
0.0058377418 -0.087566108 0.69571346
0.0058574467 -0.089814141 0.69650638
0.0076628127 0.088122368 0.69206679
0.0076628127 0.086206675 0.69206673
0.0076628127 0.084290981 0.69206673
0.0076628127 0.082375258 0.69206673
0.0076628127 0.080459565 0.69206673
0.0076628127 0.078543872 0.69206673
0.0076628127 0.076628119 0.69206673
0.0076628127 0.074712455 0.69206673
0.0076628127 0.072796732 0.69206673
0.0076628127 0.070881039 0.69206673
0.0076628127 0.068965316 0.69206673
0.0076628127 0.067049623 0.69206673
0.0076628127 0.065133929 0.69206673
0.0076628127 0.063218206 0.69206673
0.0076628127 0.061302513 0.69206673
0.0076628127 0.05938682 0.69206679
0.0076628127 0.057471126 0.69206679
0.0076628127 0.055555433 0.69206679
0.0076628127 0.05363974 0.69206673
0.0076628127 0.051724017 0.69206673
0.0076628127 0.049808323 0.69206673
0.0076628127 0.0478926 0.69206673
0.0076628127 0.045976907 0.69206673
0.0076628127 0.044061184 0.69206679
0.0076628127 0.04214552 0.69206673
0.0076628127 0.040229768 0.69206673
0.0076628127 0.038314074 0.69206673
0.0076628127 0.036398381 0.69206673
0.0076628127 0.034482658 0.69206673
0.0076628127 0.032566994 0.69206673
0.0076628127 0.030651271 0.69206673
0.0076628127 0.028735578 0.69206673
0.0076628127 0.026819855 0.69206679
0.0076628127 0.024904191 0.69206673
0.0076628127 0.022988468 0.69206679
0.0076628127 0.021072775 0.69206667
0.0076628127 0.019157082 0.69206679
0.0076628127 0.017241329 0.69206673
0.0076628127 0.015325636 0.69206673
0.0076628127 0.013409942 0.69206679
0.0076628127 0.011494219 0.69206673
0.0076628127 0.009578526 0.69206673
0.0076628127 0.0076628327 0.69206673
0.0076628127 0.0057471097 0.69206679
0.0076628127 0.0038314164 0.69206673
0.0076628127 0.0019157529 0.69206673
0.0076628127 -0 0.69206673
0.0076628127 -0.0019156933 0.69206679
0.0076628127 -0.0038313866 0.69206673
0.0076628127 -0.0057471097 0.69206679
0.0076628127 -0.0076627731 0.69206673
0.0076628127 -0.0095784962 0.69206679
0.0076628127 -0.01149416 0.69206673
0.0076628127 -0.013409883 0.69206673
0.0076628127 -0.015325636 0.69206679
0.0076628127 -0.017241299 0.69206667
0.0076628127 -0.019157022 0.69206673
0.0076628127 -0.021072716 0.69206679
0.0076628127 -0.022988468 0.69206673
0.0076628127 -0.024904102 0.69206667
0.0076628127 -0.026819855 0.69206673
0.0076628127 -0.028735518 0.69206673
0.0076628127 -0.030651242 0.69206673
0.0076628127 -0.032566965 0.69206679
0.0076628127 -0.034482628 0.69206673
0.0076628127 -0.036398351 0.69206679
0.0076628127 -0.038314015 0.69206673
0.0076628127 -0.040229738 0.69206679
0.0078035952 -0.042919755 0.69631523
0.0078035644 -0.044870496 0.69631428
0.0078035342 -0.046821207 0.69631338
0.0078035342 -0.048772067 0.69631332
0.0078035039 -0.050722748 0.69631243
0.0078034732 -0.052673429 0.69631153
0.0078034732 -0.054624289 0.69631159
0.0078034429 -0.056574941 0.69631064
0.0078034122 -0.058525592 0.69630975
0.0078034122 -0.060476422 0.69630969
0.0078033819 -0.062427044 0.69630879
0.0078033516 -0.064377636 0.69630784
0.0078033516 -0.066328496 0.6963079
0.0078033209 -0.068279028 0.69630694
0.0078033209 -0.070229858 0.69630694
0.0078033516 -0.072180986 0.69630784
0.0078033516 -0.074131817 0.69630778
0.0078033516 -0.076082677 0.6963079
0.0078033819 -0.078033805 0.69630873
0.0078033819 -0.079984635 0.69630873
0.0078033819 -0.081935465 0.69630879
0.0078034122 -0.083886653 0.69630969
0.0078034122 -0.085837528 0.69630969
0.0078034429 -0.087788716 0.69631064
0.0078368085 -0.090123266 0.69731748
0.0096189901 0.088494748 0.69304383
0.0096189901 0.086570948 0.69304389
0.0096189901 0.084647179 0.69304383
0.0096189901 0.08272332 0.69304389
0.0096189901 0.08079949 0.69304389
0.0096189901 0.078875721 0.69304389
0.0096189901 0.076951951 0.69304383
0.0096189901 0.075028092 0.69304383
0.0096189529 0.073104084 0.69304299
0.0096189529 0.071180254 0.69304299
0.0096189529 0.069256485 0.69304299
0.0096189529 0.067332685 0.69304299
0.0096189529 0.065408885 0.69304299
0.0096189529 0.063485116 0.69304299
0.0096189529 0.061561286 0.69304299
0.0096189529 0.059637517 0.69304299
0.0096189529 0.057713747 0.69304293
0.0096189529 0.055789948 0.69304299
0.0096189529 0.053866148 0.69304293
0.0096189529 0.051942378 0.69304299
0.0096189529 0.050018579 0.69304299
0.0096189529 0.048094809 0.69304293
0.0096189529 0.04617098 0.69304299
0.0096189529 0.04424721 0.69304293
0.0096189529 0.042323381 0.69304299
0.0096189529 0.040399641 0.69304299
0.0096189529 0.038475841 0.69304293
0.0096189529 0.036552042 0.69304299
0.0096189529 0.034628242 0.69304299
0.0096189529 0.032704473 0.69304299
0.0096189529 0.030780703 0.69304293
0.0096189529 0.028856903 0.69304293
0.0096189529 0.026933074 0.69304299
0.0096189529 0.025009304 0.69304293
0.0096189529 0.023085505 0.69304299
0.0096189529 0.021161735 0.69304293
0.0096189529 0.019237906 0.69304299
0.0096189529 0.017314136 0.69304299
0.0096189529 0.015390337 0.69304299
0.0096189529 0.013466567 0.69304299
0.0096189529 0.011542797 0.69304299
0.0096189165 0.0096189678 0.69304204
0.0096189165 0.0076951683 0.6930421
0.0096189165 0.0057713687 0.69304204
0.0096189165 0.0038475692 0.6930421
0.0096189165 0.0019237995 0.6930421
0.0096189165 2.9802322e-08 0.69304204
0.0096189165 -0.0019237995 0.6930421
0.0096189165 -0.0038475692 0.6930421
0.0096189165 -0.0057713091 0.6930421
0.0096189165 -0.0076951087 0.69304216
0.0096189165 -0.0096188784 0.69304204
0.0096189165 -0.011542678 0.69304204
0.0096189165 -0.013466477 0.6930421
0.0096189165 -0.015390247 0.6930421
0.0096189165 -0.017314017 0.6930421
0.0096189165 -0.019237846 0.69304204
0.0096189165 -0.021161586 0.69304204
0.0096189165 -0.023085356 0.69304204
0.0096189165 -0.025009125 0.69304204
0.0096189165 -0.026932955 0.6930421
0.0096189165 -0.028856725 0.6930421
0.0096189165 -0.030780524 0.6930421
0.0096189165 -0.032704294 0.69304204
0.0096189165 -0.034628063 0.69304204
0.0096189165 -0.036551863 0.69304204
0.0096189165 -0.038475633 0.69304204
0.0096189165 -0.040399432 0.6930421
0.0097872736 -0.043063998 0.6971066
0.0097872345 -0.045021266 0.69710565
0.0097871963 -0.046978533 0.69710475
0.0097871581 -0.048935771 0.69710386
0.0097871581 -0.050893217 0.6971038
0.0097871199 -0.052850455 0.6971029
0.0097870817 -0.054807633 0.69710195
0.0097870436 -0.056764841 0.697101
0.0097870054 -0.058721989 0.6971001
0.0097870054 -0.060679436 0.69710016
0.0097869672 -0.062636614 0.69709921
0.009786929 -0.064593703 0.69709826
0.0097868908 -0.066550851 0.69709736
0.0097868517 -0.06850794 0.69709641
0.0097868517 -0.070465326 0.69709641
0.0097868135 -0.072422385 0.69709545
0.0097867753 -0.074379504 0.69709456
0.0097867372 -0.076336533 0.69709361
0.009786699 -0.078293562 0.69709265
0.009786699 -0.080250919 0.69709277
0.0097866608 -0.082207948 0.69709182
0.0097866226 -0.084164917 0.69709086
0.0097865844 -0.086121917 0.69708991
0.0097865844 -0.088079274 0.69708997
0.011761107 0.088208318 0.69743609
0.011761107 0.086248159 0.69743609
0.011761107 0.084287971 0.69743609
0.011761154 0.082328081 0.69743705
0.011761154 0.080367893 0.69743705
0.011761154 0.078407675 0.69743705
0.011761154 0.076447517 0.69743705
0.0117612 0.074487656 0.697438
0.0117612 0.072527409 0.697438
0.0117612 0.07056725 0.697438
0.0117612 0.068607032 0.697438
0.011761245 0.066647083 0.6974389
0.011761245 0.064686894 0.6974389
0.011761245 0.062726676 0.69743896
0.011761245 0.060766459 0.6974389
0.011761293 0.058806509 0.69743985
0.011761293 0.056846261 0.69743985
0.011761293 0.054886013 0.69743985
0.011761293 0.052925825 0.69743985
0.011761338 0.050965846 0.69744074
0.011761338 0.049005568 0.69744074
0.011761338 0.04704541 0.69744074
0.011761338 0.045085162 0.69744074
0.011761385 0.043125093 0.6974417
0.011761385 0.041164875 0.6974417
0.011761385 0.039204627 0.6974417
0.011761385 0.037244439 0.69744164
0.011761431 0.03528434 0.69744259
0.011761431 0.033324093 0.69744259
0.011761431 0.031363815 0.69744259
0.011761476 0.029403746 0.69744349
0.011761476 0.027443469 0.69744349
0.011761476 0.025483221 0.69744349
0.011761476 0.023522973 0.69744354
0.011761523 0.021562815 0.69744444
0.011761523 0.019602537 0.6974445
0.011761523 0.017642289 0.6974445
0.011761523 0.015682042 0.69744444
0.011761568 0.013721824 0.69744539
0.011761568 0.011761546 0.69744539
0.011761568 0.009801358 0.69744539
0.011761568 0.0078410804 0.69744539
0.011761614 0.0058808327 0.69744635
0.011761614 0.0039205849 0.69744635
0.011761614 0.0019603074 0.69744635
0.011761614 -0 0.69744635
0.011761662 -0.0019602776 0.69744724
0.011761662 -0.0039205253 0.6974473
0.011761662 -0.0058808327 0.69744724
0.011761662 -0.0078411102 0.6974473
0.011761707 -0.0098013878 0.69744825
0.011761707 -0.011761695 0.69744813
0.011761707 -0.013721973 0.69744813
0.011761707 -0.01568225 0.69744813
0.011761753 -0.017642587 0.69744909
0.011761753 -0.019602895 0.69744909
0.011761753 -0.021563232 0.69744915
0.011761753 -0.02352351 0.69744909
0.011761799 -0.025483876 0.69745004
0.011761799 -0.027444184 0.69745004
0.011761799 -0.029404491 0.69744998
0.011761845 -0.031364888 0.697451
0.011761845 -0.033325195 0.69745094
0.011761845 -0.035285532 0.69745094
0.011761845 -0.03724581 0.69745094
0.011761845 -0.039206147 0.697451
0.011794747 -0.041281611 0.69811291
0.011794701 -0.043247223 0.69811189
0.011794654 -0.045212835 0.698111
0.011794654 -0.047178626 0.69811106
0.011794607 -0.049144179 0.69811004
0.011794562 -0.051109761 0.69810915
0.011794514 -0.053075314 0.6981082
0.011794468 -0.055040836 0.69810736
0.011794514 -0.057006806 0.69810826
0.011794514 -0.058972567 0.6981082
0.011794562 -0.060938567 0.69810915
0.011794607 -0.062904567 0.6981101
0.011794607 -0.064870328 0.69811004
0.011794654 -0.066836357 0.698111
0.011794701 -0.068802416 0.69811195
0.011794701 -0.070768178 0.69811195
0.011794747 -0.072734267 0.69811291
0.011794793 -0.074700356 0.6981138
0.011794793 -0.076666117 0.6981138
0.011794839 -0.078632236 0.69811481
0.011794839 -0.080597997 0.69811475
0.011794886 -0.082564205 0.69811571
0.011794931 -0.084530324 0.6981166
0.011794931 -0.086496159 0.69811666
0.011794979 -0.088462338 0.69811749
0.013815849 0.088816196 0.6990667
0.013815793 0.08684212 0.69906569
0.013815738 0.084868163 0.69906479
0.013815685 0.082894146 0.69906384
0.01381563 0.08092013 0.69906294
0.013815575 0.078946173 0.69906193
0.013815575 0.076972485 0.69906199
0.013815466 0.07499826 0.69906008
0.013815466 0.073024601 0.69906014
0.013815413 0.071050733 0.69905913
0.013815357 0.069076806 0.69905823
0.013815302 0.067102969 0.69905728
0.013815249 0.065129042 0.69905633
0.013815194 0.063155174 0.69905543
0.013815139 0.061181366 0.69905448
0.013815085 0.059207529 0.69905353
0.01381503 0.057233691 0.69905257
0.013814976 0.055259943 0.69905168
0.013814921 0.053286135 0.69905072
0.013814867 0.051312417 0.69904971
0.013814813 0.049338639 0.69904882
0.013814759 0.047364861 0.69904792
0.013814704 0.045391202 0.69904697
0.01381465 0.043417513 0.69904602
0.013814595 0.041443825 0.69904506
0.01381454 0.039470136 0.69904411
0.013814486 0.037496477 0.69904315
0.013814431 0.035522848 0.69904226
0.013814378 0.033549219 0.69904131
0.013814323 0.03157562 0.69904041
0.013814268 0.029602051 0.69903946
0.013814214 0.027628422 0.69903851
0.013814159 0.025654882 0.69903755
0.013814104 0.023681343 0.6990366
0.01381405 0.021707833 0.69903564
0.013813995 0.019734293 0.69903469
0.013813942 0.017760783 0.6990338
0.013813887 0.015787333 0.69903284
0.013813832 0.013813883 0.69903189
0.013813778 0.011840403 0.69903094
0.013813723 0.0098669827 0.69903004
0.013813668 0.0078935325 0.69902909
0.013813614 0.0059201121 0.69902819
0.013813559 0.0039467514 0.69902724
0.013813506 0.0019733608 0.69902623
0.013813451 2.9802322e-08 0.69902533
0.013813396 -0.0019733012 0.69902438
0.013813342 -0.0039466321 0.69902349
0.013813342 -0.0059199929 0.69902349
0.013813287 -0.0078932941 0.69902253
0.013813232 -0.0098665953 0.69902158
0.013813178 -0.011839837 0.69902062
0.013813123 -0.013813108 0.69901967
0.01381307 -0.01578635 0.69901872
0.013813015 -0.017759532 0.69901782
0.013813015 -0.019732833 0.69901776
0.013813015 -0.021706134 0.69901782
0.013813015 -0.023679435 0.69901776
0.013813015 -0.025652707 0.69901776
0.013813015 -0.027626008 0.69901782
0.013813015 -0.029599309 0.69901776
0.013813015 -0.03157258 0.69901782
0.013813015 -0.033545882 0.69901776
0.013813015 -0.035519153 0.69901782
0.013813015 -0.037492424 0.69901782
0.013813015 -0.039465725 0.69901776
0.013835222 -0.041505635 0.69940078
0.013835222 -0.043482125 0.69940078
0.013835168 -0.045458406 0.69939983
0.013835113 -0.047434658 0.69939888
0.013835058 -0.049410909 0.69939798
0.013835004 -0.051387131 0.69939697
0.013834949 -0.053363353 0.69939607
0.013834894 -0.055339575 0.69939512
0.013834839 -0.057315767 0.69939417
0.013834839 -0.059292167 0.69939417
0.013834785 -0.0612683 0.69939321
0.01383473 -0.063244462 0.69939232
0.013834675 -0.065220594 0.69939137
0.01383462 -0.067196697 0.69939041
0.01383462 -0.069173068 0.69939035
0.01383462 -0.071149439 0.69939041
0.013834675 -0.073126107 0.69939137
0.01383473 -0.075102776 0.69939226
0.013834785 -0.077079505 0.69939327
0.013834785 -0.079055876 0.69939327
0.013834839 -0.081032604 0.69939423
0.013834894 -0.083009362 0.69939518
0.013834894 -0.084985733 0.69939506
0.013834949 -0.086962491 0.69939601
0.013861558 -0.089110002 0.69985497
0.015894685 0.089407623 0.7006532
0.015894622 0.087420464 0.70065224
0.015894558 0.085433275 0.70065129
0.015894495 0.083446085 0.70065033
0.015894432 0.081459016 0.70064938
0.015894368 0.079471856 0.70064837
0.015894305 0.077484757 0.70064747
0.015894243 0.075497687 0.70064652
0.01589418 0.073510617 0.70064557
0.015894117 0.071523517 0.70064461
0.015894054 0.069536477 0.70064366
0.01589399 0.067549467 0.7006427
0.015893927 0.065562487 0.70064169
0.015893864 0.063575447 0.7006408
0.0158938 0.061588496 0.70063984
0.015893737 0.059601516 0.70063889
0.015893674 0.057614595 0.70063794
0.015893612 0.055627674 0.70063698
0.015893549 0.053640723 0.70063603
0.015893485 0.051653832 0.70063508
0.015893422 0.049666971 0.70063412
0.015893359 0.04768011 0.70063317
0.015893295 0.045693249 0.70063221
0.015893232 0.043706417 0.70063126
0.015893171 0.041719615 0.70063031
0.015893107 0.039732784 0.70062935
0.015893044 0.037745982 0.7006284
0.015892981 0.03575924 0.70062745
0.015892917 0.033772469 0.70062649
0.015892854 0.031785756 0.70062554
0.015892792 0.029799044 0.70062459
0.015892792 0.027812392 0.70062459
0.015892729 0.025825709 0.70062363
0.015892729 0.023839116 0.70062363
0.015892729 0.021852493 0.70062369
0.015892664 0.019865841 0.70062268
0.015892664 0.017879277 0.70062268
0.015892664 0.015892684 0.70062268
0.015892601 0.013906062 0.70062172
0.015892601 0.011919498 0.70062172
0.015892601 0.0099328756 0.70062172
0.015892539 0.0079462528 0.70062077
0.015892539 0.0059597492 0.70062083
0.015892539 0.0039731562 0.70062077
0.015892476 0.001986593 0.70061988
0.015892476 2.9802322e-08 0.70061982
0.015892476 -0.0019865632 0.70061982
0.015892413 -0.0039730966 0.70061886
0.015892413 -0.00595963 0.70061886
0.015892413 -0.0079461932 0.70061886
0.015892413 -0.0099327266 0.70061886
0.015892349 -0.01191923 0.70061797
0.015892349 -0.013905764 0.70061797
0.015892349 -0.015892327 0.70061797
0.015892286 -0.017878801 0.70061696
0.015892286 -0.019865334 0.70061696
0.015892286 -0.021851867 0.70061696
0.015892223 -0.023838341 0.70061606
0.015892223 -0.025824815 0.700616
0.015892223 -0.027811348 0.700616
0.015892159 -0.029797792 0.70061505
0.015892159 -0.031784296 0.70061505
0.015892159 -0.0337708 0.70061505
0.015892098 -0.035757184 0.70061415
0.015892098 -0.037743717 0.70061409
0.015892098 -0.039730221 0.70061409
0.015920034 -0.041790068 0.70103562
0.01591997 -0.04377991 0.70103472
