# .PCD v0.7 - Point Cloud Data file format
VERSION 0.7
FIELDS x y z
SIZE 4 4 4
TYPE F F F
COUNT 1 1 1
WIDTH 1336
HEIGHT 1
VIEWPOINT 0 0 0 1 0 0 0
POINTS 1336
DATA ascii
-0.016045736 0.05730623 0.73751974
-0.016045736 0.055013984 0.73751968
-0.016045736 0.052721709 0.73751968
-0.016045736 0.050429493 0.73751974
-0.016045736 0.048137248 0.73751968
-0.016045736 0.045845002 0.73751968
-0.016045736 0.043552727 0.73751974
-0.016045736 0.041260511 0.73751974
-0.016045736 0.038968205 0.73751974
-0.016045736 0.03667599 0.73751968
-0.016045736 0.034383714 0.73751974
-0.016045736 0.032091498 0.73751968
-0.016045736 0.029799223 0.73751974
-0.016045736 0.027507007 0.73751974
-0.016045736 0.025214761 0.73751974
-0.016045736 0.022922486 0.73751974
-0.016045736 0.0206303 0.73751974
-0.016045736 0.018338025 0.73751974
-0.016045736 0.016045779 0.73751974
-0.016045736 0.013753533 0.73751968
-0.016045736 0.011461258 0.73751974
-0.016045736 0.0091690123 0.73751974
-0.016045736 0.0068767667 0.73751974
-0.016045736 0.0045845211 0.73751968
-0.016045736 0.0022922754 0.73751968
-0.016045736 -0 0.73751974
-0.016045736 -0.0022922158 0.73751968
-0.016045736 -0.0045844913 0.73751974
-0.016045736 -0.0068767369 0.73751968
-0.016045736 -0.0091689825 0.73751974
-0.016045736 -0.011461198 0.73751968
-0.016045736 -0.013753474 0.73751968
-0.016045736 -0.016045719 0.73751974
-0.016045736 -0.018337965 0.73751974
-0.016045736 -0.020630181 0.73751974
-0.016045736 -0.022922456 0.73751974
-0.016045736 -0.025214702 0.73751974
-0.016045736 -0.027506948 0.73751974
-0.016045736 -0.029799223 0.73751974
-0.016045736 -0.032091439 0.73751974
-0.016045736 -0.034383714 0.73751974
-0.016045736 -0.03667593 0.73751968
-0.016045736 -0.038968235 0.73751974
-0.016045664 -0.041260272 0.73751849
-0.016045664 -0.043552518 0.73751849
-0.016045664 -0.045844734 0.73751843
-0.016045664 -0.048136979 0.73751843
-0.016045664 -0.050429195 0.73751843
-0.016045664 -0.052721441 0.73751843
-0.016045664 -0.055013657 0.73751843
-0.016045664 -0.057305932 0.73751843
-0.016045664 -0.059598148 0.73751849
-0.016045664 -0.061890393 0.73751843
-0.016045664 -0.064182639 0.73751843
-0.016045664 -0.066474885 0.73751849
-0.016045664 -0.06876713 0.73751843
-0.016045664 -0.071059316 0.73751843
-0.016045664 -0.073351562 0.73751843
-0.016045664 -0.075643778 0.73751843
-0.016045664 -0.077936083 0.73751843
-0.016045664 -0.080228299 0.73751849
-0.016045664 -0.082520545 0.73751849
-0.016045664 -0.08481276 0.73751843
-0.011759312 0.092114657 0.69739997
-0.011729035 0.089922637 0.69679081
-0.011728989 0.087967426 0.69678998
-0.011728989 0.086012602 0.69678998
-0.011728989 0.084057778 0.69678998
-0.011728989 0.082103014 0.69678992
-0.011728989 0.080148101 0.69678998
-0.011728989 0.078193277 0.69678998
-0.011728989 0.076238453 0.69678998
-0.011728989 0.07428363 0.69678998
-0.011728989 0.072328806 0.69678992
-0.011728989 0.070373982 0.69678998
-0.011728989 0.068419099 0.69678998
-0.011728989 0.066464305 0.69678998
-0.011728989 0.064509481 0.69678992
-0.011728989 0.062554598 0.69678998
-0.011728989 0.060599774 0.69678998
-0.011728989 0.05864498 0.69678998
-0.011728989 0.056690127 0.69678998
-0.011728989 0.054735333 0.69678992
-0.011728989 0.052780479 0.69678992
-0.011728989 0.050825626 0.69678998
-0.013830153 0.057625622 0.73906213
-0.013830153 0.05532065 0.73906207
-0.013830153 0.05301559 0.73906207
-0.013830153 0.050710589 0.73906207
-0.013830153 0.048405528 0.73906207
-0.013830153 0.046100527 0.73906207
-0.013830153 0.043795496 0.73906207
-0.013830153 0.041490465 0.73906207
-0.013830153 0.039185435 0.73906207
-0.013830153 0.036880434 0.73906207
-0.013830153 0.034575433 0.73906213
-0.013830153 0.032270372 0.73906207
-0.013830153 0.029965341 0.73906207
-0.013830153 0.02766034 0.73906207
-0.013830153 0.025355309 0.73906207
-0.013830153 0.023050249 0.73906213
-0.013830153 0.020745248 0.73906207
-0.013830153 0.018440247 0.73906213
-0.013830153 0.016135156 0.73906207
-0.013830153 0.013830155 0.73906207
-0.013830153 0.011525154 0.73906207
-0.013830153 0.0092201233 0.73906207
-0.013830153 0.0069150925 0.73906207
-0.013830153 0.0046100914 0.73906207
-0.013830153 0.0023050606 0.73906207
-0.013830153 -0 0.73906207
-0.013830153 -0.002305001 0.73906207
-0.013830153 -0.004610002 0.73906213
-0.013830153 -0.0069150329 0.73906207
-0.013830153 -0.0092200935 0.73906207
-0.013830153 -0.011525095 0.73906207
-0.013830153 -0.013830125 0.73906207
-0.013830153 -0.016135156 0.73906201
-0.013830153 -0.018440187 0.73906207
-0.013830153 -0.020745188 0.73906207
-0.013830088 -0.023050129 0.73906076
-0.013830088 -0.02535516 0.73906082
-0.013830088 -0.027660161 0.73906076
-0.013830088 -0.029965192 0.73906082
-0.013830088 -0.032270193 0.73906076
-0.013830088 -0.034575224 0.73906082
-0.013830088 -0.036880225 0.73906088
-0.013830088 -0.039185226 0.73906082
-0.013830088 -0.041490287 0.73906088
-0.013830088 -0.043795258 0.73906076
-0.013830088 -0.046100289 0.73906082
-0.013830088 -0.04840526 0.73906082
-0.013830088 -0.05071032 0.73906082
-0.013830088 -0.053015292 0.73906082
-0.013830088 -0.055320293 0.73906076
-0.013830088 -0.057625324 0.73906082
-0.013830088 -0.059930354 0.73906082
-0.013830088 -0.062235385 0.73906076
-0.013830088 -0.064540356 0.73906076
-0.013830088 -0.066845417 0.73906082
-0.013830088 -0.069150388 0.73906076
-0.013830088 -0.071455449 0.73906076
-0.013830088 -0.07376042 0.73906076
-0.013830088 -0.076065481 0.73906088
-0.013830088 -0.078370482 0.73906076
-0.013830088 -0.080675513 0.73906088
-0.013830088 -0.082980484 0.73906082
-0.013830088 -0.085285544 0.73906088
-0.0097548356 0.091695458 0.69632345
-0.0097416928 0.0896236 0.69600618
-0.009741731 0.087675631 0.69600707
-0.009741731 0.085727245 0.69600713
-0.0097417692 0.083779246 0.69600803
-0.0097417692 0.081830859 0.69600803
-0.0097418074 0.07988283 0.69600892
-0.0097418074 0.077934474 0.69600892
-0.0097418455 0.075986385 0.69600987
-0.0097418455 0.074038059 0.69600987
-0.0097418828 0.07208997 0.69601083
-0.0097418828 0.070141584 0.69601077
-0.009741921 0.068193465 0.69601166
-0.009741921 0.066245049 0.69601172
-0.0097419582 0.064296961 0.69601262
-0.0097419582 0.062348574 0.69601262
-0.0097419582 0.060400158 0.69601256
-0.0097419582 0.058451772 0.69601262
-0.0097419582 0.056503415 0.69601256
-0.0097419582 0.054554999 0.69601262
-0.0097419582 0.052606583 0.69601262
-0.0097419582 0.050658196 0.69601262
-0.0097419582 0.04870981 0.69601262
-0.0097419582 0.046761453 0.69601256
-0.0097418455 0.0448125 0.69600981
-0.0097285109 0.042805433 0.69568795
-0.0097285109 0.040859759 0.69568795
-0.0097285109 0.038914055 0.69568795
-0.0097284727 0.036968201 0.69568706
-0.0097284727 0.035022527 0.695687
-0.0097284727 0.033076793 0.695687
-0.0097284727 0.031131119 0.69568706
-0.0097284345 0.029185325 0.6956861
-0.0097284345 0.027239621 0.6956861
-0.0097284345 0.025293946 0.6956861
-0.0097284345 0.023348272 0.6956861
-0.0097283972 0.021402478 0.69568515
-0.0097283972 0.019456804 0.69568521
-0.0097283972 0.017511129 0.69568521
-0.0097283591 0.015565395 0.69568425
-0.0097283591 0.013619721 0.69568425
-0.0097283591 0.011674017 0.69568425
-0.0097283591 0.0097284019 0.69568425
-0.0097283218 0.0077826381 0.69568336
-0.0097283218 0.0058370233 0.69568336
-0.0097283218 0.0038913488 0.69568336
-0.0097283218 0.0019456744 0.69568336
-0.0097282836 2.9802322e-08 0.69568247
-0.0097282836 -0.0019456744 0.69568247
-0.0097282836 -0.003891319 0.69568247
-0.0097282454 -0.0058369339 0.69568157
-0.0097282454 -0.0077825487 0.69568157
-0.0097282454 -0.0097282231 0.69568157
-0.0097282454 -0.011673868 0.69568151
-0.0097282073 -0.013619453 0.69568062
-0.0097282073 -0.015565097 0.69568062
-0.0097282073 -0.017510772 0.69568062
-0.0097282073 -0.019456416 0.69568062
-0.00972817 -0.021401942 0.69567972
-0.00972817 -0.023347557 0.69567972
-0.00972817 -0.025293201 0.69567972
-0.0097281327 -0.027238727 0.69567877
-0.0097281327 -0.029184371 0.69567883
-0.0097281327 -0.031129986 0.69567877
-0.0097281327 -0.033075601 0.69567877
-0.0097280946 -0.035021126 0.69567788
-0.0097280946 -0.036966741 0.69567788
-0.0097280946 -0.038912356 0.69567788
-0.0097280946 -0.040857971 0.69567788
-0.0097280564 -0.042803437 0.69567698
-0.0097280564 -0.044749022 0.69567692
-0.0097280564 -0.046694666 0.69567698
-0.0097280564 -0.048640251 0.69567692
-0.0097280182 -0.050585657 0.69567609
-0.0097280182 -0.052531272 0.69567609
-0.0097280182 -0.054476887 0.69567609
-0.0097279809 -0.056422293 0.69567513
-0.0097279809 -0.058367848 0.69567513
-0.0097279809 -0.060313493 0.69567519
-0.0097279809 -0.062259048 0.69567513
-0.0097279437 -0.064204425 0.69567424
-0.0097279437 -0.06614998 0.69567418
-0.0097279437 -0.068095595 0.69567424
-0.0097279055 -0.070040882 0.69567335
-0.0097279055 -0.071986467 0.69567335
-0.0097279055 -0.073932052 0.69567329
-0.0097279055 -0.075877666 0.69567329
-0.0097279055 -0.077823222 0.69567323
-0.0097279055 -0.079768807 0.69567329
-0.0097279055 -0.081714362 0.69567329
-0.0097279055 -0.083659977 0.69567323
-0.0097278673 -0.085605204 0.69567239
-0.0077778478 0.091389745 0.69553822
-0.0077735884 0.089396268 0.69540972
-0.0077735884 0.087452888 0.69540966
-0.0077735884 0.085509509 0.69540966
-0.0077735884 0.083566099 0.69540972
-0.0077735884 0.08162269 0.69540972
-0.0077735884 0.07967931 0.69540966
-0.0077735884 0.077735901 0.69540972
-0.0077735581 0.075792223 0.69540876
-0.0077735581 0.073848814 0.69540882
-0.0077735581 0.071905434 0.69540882
-0.0077735581 0.069962084 0.69540876
-0.0077735581 0.068018615 0.69540876
-0.0077735581 0.066075265 0.69540876
-0.0077735884 0.064132124 0.69540966
-0.0077735884 0.062188715 0.69540966
-0.0077735884 0.060245335 0.69540972
-0.0077735884 0.058301955 0.69540972
-0.0077736187 0.056358755 0.69541061
-0.0077736187 0.054415345 0.69541061
-0.0077736187 0.052471966 0.69541061
-0.0077736489 0.050528735 0.6954115
-0.0077736489 0.048585355 0.6954115
-0.0077736489 0.046641916 0.6954115
-0.0077736792 0.044698656 0.6954124
-0.0077632768 0.042698026 0.69509852
-0.0077632768 0.040757209 0.69509852
-0.0077633061 0.038816541 0.69509941
-0.0077633061 0.036875755 0.69509935
-0.0077633364 0.034935027 0.69510031
-0.0077633667 0.0329943 0.69510126
-0.0077633667 0.031053483 0.6951012
-0.0077633969 0.029112756 0.6951021
-0.0077633969 0.02717188 0.6951021
-0.0077634272 0.025231183 0.69510305
-0.0077634272 0.023290306 0.69510305
-0.007763457 0.021349549 0.69510394
-0.007763457 0.019408673 0.69510394
-0.0077634873 0.017467827 0.69510484
-0.0077634873 0.01552698 0.69510484
-0.0077635176 0.013586193 0.69510579
-0.0077635176 0.011645287 0.69510579
-0.0077635478 0.0097044706 0.69510669
-0.0077635781 0.0077635944 0.69510758
-0.0077635781 0.0058227181 0.69510758
-0.0077636079 0.0038818419 0.69510847
-0.0077636079 0.001940906 0.69510853
-0.0077636377 2.9802322e-08 0.69510937
-0.0077636377 -0.001940906 0.69510943
-0.0077636675 -0.0038818121 0.69511032
-0.0077636675 -0.0058227479 0.69511032
-0.0077636978 -0.0077636838 0.69511122
-0.007763728 -0.0097046196 0.69511211
-0.007763728 -0.011645585 0.69511211
-0.0077637583 -0.013586551 0.69511306
-0.0077637583 -0.015527487 0.695113
-0.0077637886 -0.017468482 0.6951139
-0.0077637886 -0.019409448 0.6951139
-0.0077638184 -0.021350503 0.69511485
-0.0077638486 -0.023291528 0.6951158
-0.0077638486 -0.025232524 0.6951158
-0.0077638789 -0.027173549 0.6951167
-0.0077638789 -0.029114515 0.6951167
-0.0077639092 -0.031055629 0.69511759
-0.0077639394 -0.032996744 0.69511849
-0.0077639394 -0.03493768 0.69511849
-0.0077639688 -0.036878854 0.69511944
-0.0077639688 -0.038819849 0.69511938
-0.007763999 -0.040760964 0.69512033
-0.007763999 -0.04270196 0.69512028
-0.0077640293 -0.044643134 0.69512117
-0.0077640591 -0.046584338 0.69512212
-0.0077640591 -0.048525333 0.69512212
-0.0077640894 -0.050466567 0.69512302
-0.0077640894 -0.052407593 0.69512302
-0.0077641197 -0.054348826 0.69512391
-0.0077641197 -0.056289822 0.69512391
-0.0077641499 -0.058231115 0.69512486
-0.0077641802 -0.060172379 0.69512576
-0.0077641802 -0.062113434 0.69512576
-0.00776421 -0.064054728 0.69512671
-0.00776421 -0.065995812 0.69512671
-0.0077642403 -0.067937136 0.69512761
-0.0077642705 -0.069878399 0.6951285
-0.0077642705 -0.071819454 0.69512844
-0.0077643008 -0.073760837 0.69512945
-0.0077643008 -0.075701922 0.69512939
-0.0077643301 -0.077643275 0.69513035
-0.0077643604 -0.079584688 0.69513124
-0.0077643604 -0.081525773 0.69513118
-0.0077643907 -0.083467185 0.69513208
-0.0077643907 -0.0854083 0.69513214
-0.0058195004 0.091172189 0.69497949
-0.0058195004 0.089232355 0.69497955
-0.0058194776 0.087292165 0.69497859
-0.0058194776 0.085352361 0.69497859
-0.0058194776 0.083412528 0.69497859
-0.0058194776 0.081472695 0.69497859
-0.0058194776 0.079532862 0.69497865
-0.0058194548 0.077592731 0.6949777
-0.0058194548 0.075652927 0.6949777
-0.0058194776 0.073713422 0.69497859
-0.0058194776 0.071773589 0.69497859
-0.0058195004 0.069834024 0.69497949
-0.0058195004 0.06789422 0.69497955
-0.0058195228 0.065954626 0.69498044
-0.0058195228 0.064014763 0.69498044
-0.0058195456 0.062075198 0.69498128
-0.0058195456 0.060135305 0.69498134
-0.0058195675 0.058195651 0.69498223
-0.0058195675 0.056255847 0.69498223
-0.0058195903 0.054316223 0.69498312
-0.0058195903 0.05237633 0.69498312
-0.0058195903 0.050436467 0.69498318
-0.0058196131 0.048496813 0.69498408
-0.0058196131 0.04655692 0.69498408
-0.0058196355 0.044617236 0.69498497
-0.0058119292 0.042620867 0.69467485
-0.0058119292 0.040683508 0.69467491
-0.0058119074 0.038746059 0.69467396
-0.0058119074 0.036808759 0.69467402
-0.0058119074 0.034871429 0.69467402
-0.0058119074 0.032934159 0.69467402
-0.0058118845 0.03099674 0.69467306
-0.0058118845 0.02905944 0.69467306
-0.0058118845 0.02712217 0.69467306
-0.0058118845 0.02518484 0.69467306
-0.0058118617 0.02324751 0.69467211
-0.0058118617 0.02131018 0.69467217
-0.0058118617 0.01937288 0.69467223
-0.0058118617 0.01743561 0.69467217
-0.0058118617 0.01549831 0.69467211
-0.0058118394 0.013560981 0.69467133
-0.0058118394 0.01162371 0.69467127
-0.0058118394 0.0096864402 0.69467127
-0.0058118394 0.0077491403 0.69467127
-0.0058118165 0.0058118403 0.69467032
-0.0058118165 0.0038745701 0.69467044
-0.0058118165 0.0019372702 0.69467038
-0.0058118165 5.9604645e-08 0.69467032
-0.0058118165 -0.0019372702 0.69467038
-0.0058117947 -0.0038745105 0.69466949
-0.0058117947 -0.0058117807 0.69466949
-0.0058117947 -0.0077490509 0.69466943
-0.0058117947 -0.0096862912 0.69466949
-0.0058117718 -0.011623532 0.69466859
-0.0058117718 -0.013560772 0.69466853
-0.0058117947 -0.015498102 0.69466949
-0.0058117947 -0.017435342 0.69466943
-0.0058118165 -0.019372731 0.69467038
-0.0058118394 -0.021310061 0.69467127
-0.0058118394 -0.023247331 0.69467127
-0.0058118617 -0.025184691 0.69467217
-0.0058118845 -0.02712208 0.69467306
-0.0058119074 -0.0290595 0.69467402
-0.0058119074 -0.030996829 0.69467402
-0.0058119292 -0.032934248 0.69467491
-0.0058119521 -0.034871697 0.6946758
-0.0058119744 -0.036809146 0.6946767
-0.0058119744 -0.038746476 0.6946767
-0.0058119972 -0.040683985 0.69467759
-0.0058120191 -0.042621464 0.69467854
-0.0058120191 -0.044558823 0.69467854
-0.0058120419 -0.046496302 0.69467944
-0.0058120643 -0.04843384 0.69468027
-0.0058120871 -0.050371408 0.69468123
-0.0058120871 -0.052308768 0.69468123
-0.0058121099 -0.054246336 0.69468218
-0.0058121318 -0.056183904 0.69468302
-0.0058121546 -0.058121532 0.69468397
-0.0058121546 -0.060058922 0.69468391
-0.005812177 -0.061996549 0.69468486
-0.0058121998 -0.063934177 0.69468576
-0.0058121998 -0.065871596 0.69468576
-0.0058122217 -0.067809254 0.69468665
-0.0058122445 -0.069746912 0.69468755
-0.0058122668 -0.071684599 0.6946885
-0.0058122668 -0.073622018 0.6946885
-0.0058122897 -0.075559765 0.69468939
-0.0058123125 -0.077497482 0.69469029
-0.0058123344 -0.079435229 0.69469118
-0.0058123344 -0.081372708 0.69469124
-0.0058123572 -0.083310425 0.69469208
-0.0058123795 -0.085248217 0.69469303
-0.0038751599 0.091066301 0.69470751
-0.0038751448 0.089128375 0.69470656
-0.0038751448 0.087190807 0.69470656
-0.0038751448 0.085253209 0.69470656
-0.0038751448 0.083315641 0.69470656
-0.0038751599 0.0813784 0.69470751
-0.003875175 0.07944113 0.69470835
-0.003875175 0.077503502 0.69470841
-0.0038751897 0.075566232 0.6947093
-0.0038751897 0.073628634 0.6947093
-0.0038752048 0.071691304 0.6947102
-0.0038752048 0.069753736 0.6947102
-0.00387522 0.067816377 0.69471109
-0.0038752349 0.065879017 0.69471204
-0.0038752349 0.063941419 0.69471198
-0.0038752498 0.062004 0.69471294
-0.0038752498 0.060066372 0.69471294
-0.0038752649 0.058128983 0.69471383
-0.0038752798 0.056191564 0.69471473
-0.0038752798 0.054253936 0.69471478
-0.0038752949 0.052316517 0.69471562
-0.0038752949 0.050378829 0.69471562
-0.0038753098 0.04844141 0.69471657
-0.0038753247 0.046503931 0.69471747
-0.0038753247 0.044566274 0.69471741
-0.0038701992 0.0425722 0.69440812
-0.0038702141 0.040637255 0.69440895
-0.0038702141 0.03870213 0.69440901
-0.0038702141 0.036767036 0.69440901
-0.0038702141 0.034831941 0.69440895
-0.0038702141 0.032896847 0.69440895
-0.003870229 0.030961871 0.69440991
-0.003870229 0.029026777 0.69440985
-0.003870229 0.027091593 0.69440991
-0.003870229 0.025156528 0.69440991
-0.003870229 0.023221374 0.69440991
-0.0038702441 0.021286368 0.6944108
-0.0038702441 0.019351214 0.6944108
-0.0038702441 0.01741612 0.6944108
-0.0038702441 0.015480995 0.6944108
-0.003870259 0.013545901 0.6944117
-0.003870259 0.011610806 0.6944117
-0.003870259 0.0096756816 0.69441175
-0.003870259 0.0077405274 0.6944117
-0.003870259 0.0058053732 0.6944117
-0.0038702739 0.0038703084 0.69441259
-0.0038702739 0.0019351244 0.69441259
-0.0038702739 -0 0.69441259
-0.0038702739 -0.0019350946 0.69441259
-0.0038702739 -0.0038702488 0.69441259
-0.0038702891 -0.005805403 0.69441354
-0.0038702891 -0.0077405572 0.69441354
-0.0038702891 -0.0096757412 0.69441354
-0.0038702891 -0.011610866 0.69441348
-0.003870304 -0.01354605 0.69441438
-0.003870304 -0.015481174 0.69441438
-0.003870304 -0.017416358 0.69441438
-0.003870304 -0.019351512 0.69441444
-0.003870304 -0.021286637 0.69441438
-0.0038703189 -0.02322188 0.69441527
-0.0038703189 -0.025157064 0.69441527
-0.0038703189 -0.027092189 0.69441533
-0.0038703189 -0.029027402 0.69441533
-0.0038703338 -0.030962616 0.69441617
-0.0038703338 -0.0328978 0.69441617
-0.0038703338 -0.034833014 0.69441622
-0.0038703338 -0.036768168 0.69441622
-0.0038703338 -0.038703293 0.69441622
-0.0038703489 -0.040638655 0.69441712
-0.0038703489 -0.04257381 0.69441712
-0.0038703489 -0.044508964 0.69441712
-0.0038703489 -0.046444178 0.69441712
-0.0038703489 -0.048379332 0.69441712
-0.0038703638 -0.050314695 0.69441801
-0.0038703638 -0.052249879 0.69441807
-0.0038703787 -0.054185301 0.69441891
-0.0038703936 -0.056120694 0.69441986
-0.0038703936 -0.058055907 0.6944198
-0.0038704087 -0.05999133 0.69442075
-0.0038704237 -0.061926782 0.69442165
-0.0038704386 -0.063862205 0.69442254
-0.0038704386 -0.065797418 0.69442254
-0.0038704537 -0.06773293 0.69442344
-0.0038704686 -0.069668412 0.69442439
-0.0038704835 -0.071603924 0.69442528
-0.0038704835 -0.073539168 0.69442523
-0.0038704986 -0.075474709 0.69442618
-0.0038705135 -0.077410251 0.69442707
-0.0038705284 -0.079345793 0.69442797
-0.0038705284 -0.081281096 0.69442797
-0.0038705433 -0.083216667 0.69442886
-0.0038705585 -0.085152268 0.69442976
-0.0019366575 0.091022938 0.69459617
-0.00193665 0.089085877 0.69459522
-0.00193665 0.087149262 0.69459522
-0.0019366425 0.08521229 0.69459432
-0.001936635 0.083275318 0.69459343
-0.001936635 0.081338704 0.69459343
-0.0019366274 0.079401731 0.69459248
-0.0019366274 0.077465117 0.69459254
-0.001936635 0.0755288 0.69459343
-0.0019366425 0.073592424 0.69459432
-0.0019366425 0.07165575 0.69459438
-0.00193665 0.069719404 0.69459522
-0.0019366575 0.067783058 0.69459611
-0.0019366575 0.065846384 0.69459617
-0.0019366649 0.063909948 0.69459707
-0.0019366725 0.061973512 0.69459796
-0.0019366725 0.060036838 0.69459796
-0.0019366798 0.058100432 0.69459885
-0.0019366798 0.056163728 0.69459885
-0.0019366874 0.054227263 0.69459975
-0.001936695 0.052290797 0.6946007
-0.001936695 0.050354064 0.6946007
-0.0019367025 0.048417598 0.69460154
-0.0019367099 0.046481103 0.69460249
-0.0019367099 0.044544369 0.69460249
-0.0019341271 0.042550832 0.6942907
-0.0019341271 0.040616691 0.6942907
-0.0019341346 0.038682699 0.69429159
-0.0019341346 0.036748558 0.69429159
-0.0019341422 0.034814596 0.69429243
-0.0019341495 0.032880574 0.69429338
-0.0019341571 0.030946553 0.69429433
-0.0019341644 0.029012471 0.69429523
-0.0019341644 0.027078271 0.69429523
-0.001934172 0.025144249 0.69429612
-0.0019341796 0.023210168 0.69429708
-0.0019341869 0.021276057 0.69429791
-0.0019341945 0.019341946 0.6942988
-0.0019341945 0.017407775 0.6942988
-0.0019342018 0.015473634 0.69429976
-0.0019342094 0.013539463 0.69430065
-0.0019342169 0.011605293 0.69430155
-0.0019342169 0.009671092 0.69430155
-0.0019342243 0.0077368915 0.69430244
-0.0019342318 0.005802691 0.69430333
-0.0019342393 0.0038685203 0.69430423
-0.0019342467 0.0019342303 0.69430518
-0.0019342467 2.9802322e-08 0.69430512
-0.0019342543 -0.0019342601 0.69430602
-0.0019342616 -0.0038685203 0.69430697
-0.0019342692 -0.0058027804 0.69430786
-0.0019342692 -0.0077370703 0.6943078
-0.0019342767 -0.0096713901 0.6943087
-0.0019342841 -0.01160565 0.69430959
-0.0019342917 -0.01354003 0.69431055
-0.0019342991 -0.015474379 0.69431144
-0.0019342991 -0.017408669 0.69431144
-0.0019343066 -0.019343048 0.69431233
-0.001934314 -0.021277428 0.69431329
-0.0019343216 -0.023211807 0.69431412
-0.0019343216 -0.025146186 0.69431418
-0.001934329 -0.027080625 0.69431508
-0.0019343365 -0.029015034 0.69431597
-0.0019343441 -0.030949503 0.69431686
-0.0019343514 -0.032883972 0.69431776
-0.0019343514 -0.034818321 0.69431782
-0.001934359 -0.03675279 0.69431865
-0.0019343664 -0.038687289 0.69431961
-0.0019343739 -0.040621817 0.69432044
-0.0019343814 -0.042556375 0.69432139
-0.0019343814 -0.044490755 0.69432139
-0.0019343889 -0.046425313 0.69432223
-0.0019343963 -0.048359871 0.69432318
-0.0019344039 -0.050294489 0.69432414
-0.0019344039 -0.052228898 0.69432414
-0.0019344112 -0.054163486 0.69432497
-0.0019344188 -0.056098133 0.69432592
-0.0019344264 -0.058032781 0.69432676
-0.0019344337 -0.059967428 0.69432771
-0.0019344337 -0.061901897 0.69432771
-0.0019344413 -0.063836545 0.69432861
-0.0019344486 -0.065771222 0.6943295
-0.0019344562 -0.067705959 0.69433039
-0.0019344562 -0.069640398 0.69433045
-0.0019344637 -0.071575105 0.69433129
-0.0019344711 -0.073509872 0.69433224
-0.0019344786 -0.075444639 0.69433308
-0.001934486 -0.077379405 0.69433397
-0.001934486 -0.079313934 0.69433409
-0.0019344935 -0.08124873 0.69433492
-0.0019345011 -0.083183527 0.69433582
-0.0019345084 -0.085118338 0.69433677
0 0.091039836 0.69463956
0 0.089102834 0.69463956
0 0.087165475 0.69463867
0 0.085228115 0.69463778
0 0.083291143 0.69463772
0 0.081353813 0.69463682
0 0.079416811 0.69463688
0 0.077479511 0.69463599
0 0.075542241 0.69463503
0 0.073605269 0.69463503
0 0.071667999 0.69463414
0 0.069731027 0.69463414
0 0.067793787 0.69463325
0 0.065856576 0.69463235
0 0.063919604 0.69463235
0 0.061982661 0.69463235
0 0.060045928 0.69463325
0 0.058109194 0.69463414
0 0.056172222 0.6946342
0 0.054235458 0.69463503
0 0.052298665 0.69463593
0 0.050361723 0.69463599
0 0.0484249 0.69463682
0 0.046488076 0.69463778
0 0.044551045 0.69463778
0 0.042555124 0.69431412
0 0.040620744 0.69431418
0 0.038686454 0.69431418
0 0.036752164 0.69431418
0 0.034817815 0.69431418
0 0.032883495 0.69431418
0 0.030949175 0.69431418
0 0.029014856 0.69431424
0 0.027080417 0.69431329
0 0.025146097 0.69431329
0 0.023211777 0.69431329
0 0.021277487 0.69431329
0 0.019343168 0.69431329
0 0.017408848 0.69431329
0 0.015474528 0.69431329
0 0.013540238 0.69431323
0 0.011605889 0.69431329
0 0.0096715987 0.69431329
0 0.0077372789 0.69431329
0 0.0058029592 0.69431329
0 0.0038686395 0.69431329
0 0.0019343495 0.69431329
0 -0 0.69431329
0 -0.0019342899 0.69431329
0 -0.0038685799 0.69431329
0 -0.0058029294 0.69431329
0 -0.0077372491 0.69431329
0 -0.0096715391 0.69431329
0 -0.011605859 0.69431329
0 -0.013540179 0.69431329
0 -0.015474498 0.69431329
0 -0.017408818 0.69431323
0 -0.019343108 0.69431323
0 -0.021277428 0.69431329
0 -0.023211747 0.69431329
0 -0.025146067 0.69431329
0 -0.027080357 0.69431329
0 -0.029014677 0.69431323
0 -0.030948997 0.69431329
0 -0.032883316 0.69431329
0 -0.034817636 0.69431329
0 -0.036751956 0.69431329
0 -0.038686246 0.69431329
0 -0.040620565 0.69431323
0 -0.042554915 0.69431329
0 -0.044489175 0.69431323
0 -0.046423525 0.69431329
0 -0.048357815 0.69431329
0 -0.050292134 0.69431329
0 -0.052226454 0.69431323
0 -0.054160774 0.69431329
0 -0.056095064 0.69431329
0 -0.058029413 0.69431329
0 -0.059963703 0.69431329
0 -0.061898023 0.69431329
0 -0.063832343 0.69431329
0 -0.065766662 0.69431323
0 -0.067700982 0.69431329
0 -0.069635272 0.69431323
0 -0.071569592 0.69431329
0 -0.073503911 0.69431329
0 -0.075438231 0.69431329
0 -0.077372551 0.69431329
0 -0.079306841 0.69431329
0 -0.081241161 0.69431329
0 -0.08317551 0.69431329
0 -0.08510977 0.69431323
0.0019386084 0.091114581 0.69483167
0.0019386084 0.089175969 0.69483167
0.0019386008 0.08723703 0.69483078
0.0019386008 0.085298449 0.69483072
0.0019385933 0.08335954 0.69482982
0.0019385858 0.08142063 0.69482893
0.0019385858 0.079482019 0.69482893
0.0019385783 0.077543169 0.69482803
0.0019385783 0.075604588 0.69482803
0.0019385709 0.073665679 0.69482714
0.0019385633 0.071726859 0.69482625
0.0019385633 0.069788307 0.69482613
0.0019385557 0.067849457 0.69482529
0.0019385557 0.065910935 0.69482529
0.0019385482 0.063972116 0.6948244
0.0019385482 0.062033564 0.6948244
0.0019385408 0.060094774 0.6948235
0.0019385333 0.058156043 0.69482255
0.0019385333 0.056217492 0.69482261
0.0019385257 0.054278731 0.69482166
0.0019385257 0.052340209 0.69482166
0.0019385333 0.050401866 0.69482255
0.0019385333 0.048463345 0.69482255
0.0019385408 0.046525002 0.6948235
0.0019385482 0.044586629 0.69482434
0.0019283949 0.042424709 0.69359875
0.0019283949 0.040496349 0.69359875
0.0019283949 0.03856793 0.69359875
0.0019283949 0.036639512 0.69359875
0.0019283949 0.034711123 0.69359875
0.0019283949 0.032782704 0.69359875
0.0019283949 0.030854344 0.69359875
0.0019283949 0.028925955 0.69359881
0.0019283949 0.026997536 0.69359875
0.0019283949 0.025069147 0.69359875
0.0019283949 0.023140788 0.69359875
0.0019283949 0.021212339 0.69359875
0.0019283949 0.01928398 0.69359875
0.0019283949 0.017355591 0.69359881
0.0019283949 0.015427142 0.69359875
0.0019283949 0.013498753 0.69359875
0.0019283949 0.011570394 0.69359875
0.0019283949 0.0096419752 0.69359881
0.0019283949 0.0077136159 0.69359875
0.0019283949 0.005785197 0.69359875
0.0019283949 0.0038568079 0.69359875
0.0019283949 0.0019283891 0.69359875
0.0019283949 2.9802322e-08 0.69359875
0.0019283949 -0.0019283891 0.69359881
0.0019283949 -0.0038567781 0.69359875
0.0019283949 -0.0057851672 0.69359875
0.0019283949 -0.0077135563 0.69359875
0.0019283949 -0.0096419454 0.69359881
0.0019283949 -0.011570334 0.69359875
0.0019283949 -0.013498724 0.69359875
0.0019283949 -0.015427142 0.69359875
0.0019283949 -0.017355531 0.69359875
0.0019283949 -0.019283921 0.69359875
0.0019283949 -0.02121231 0.69359875
0.0019283949 -0.023140699 0.69359875
0.0019283949 -0.025069088 0.69359875
0.0019283949 -0.026997507 0.69359875
0.0019283949 -0.028925896 0.69359875
0.0019283949 -0.030854315 0.69359875
0.0019283949 -0.032782704 0.69359875
0.0019283949 -0.034711093 0.69359875
0.0019283949 -0.036639482 0.69359875
0.0019283949 -0.038567901 0.69359875
0.0019283949 -0.04049626 0.69359875
0.0019283949 -0.042424649 0.69359881
0.0019283949 -0.044353068 0.69359869
0.0019283949 -0.046281457 0.69359875
0.0019283949 -0.048209876 0.69359881
0.0019283949 -0.050138265 0.69359875
0.0019283949 -0.052066624 0.69359869
0.0019283949 -0.053995043 0.69359875
0.0019283949 -0.055923462 0.69359881
0.0019283949 -0.057851851 0.69359875
0.0019283949 -0.05978024 0.69359875
0.0019283949 -0.061708629 0.69359875
0.0019283949 -0.063637018 0.69359881
0.0019283949 -0.065565407 0.69359875
0.0019283949 -0.067493796 0.69359875
0.0019283949 -0.069422215 0.69359875
0.0019283949 -0.071350574 0.69359875
0.0019283949 -0.073278964 0.69359875
0.0019283949 -0.075207382 0.69359875
0.0019283949 -0.077135772 0.69359881
0.0019283949 -0.079064161 0.69359875
0.0019283949 -0.080992579 0.69359875
0.0019283949 -0.082920939 0.69359875
0.0019283949 -0.084849343 0.69359875
0.0019283949 -0.086777747 0.69359875
0.0038838831 0.091271251 0.69523394
0.0038829185 0.089307159 0.69517577
0.0038829185 0.087365657 0.69517577
0.0038829034 0.085423887 0.69517487
0.0038829034 0.083482444 0.69517487
0.0038828882 0.081540674 0.69517398
0.0038828882 0.079599231 0.69517398
0.0038828731 0.077657461 0.69517303
0.0038828731 0.075716048 0.69517303
0.0038828582 0.073774278 0.69517213
0.0038828582 0.071832865 0.69517213
0.0038828431 0.069891185 0.69517124
0.0038828431 0.067949772 0.69517124
0.0038828279 0.066008061 0.69517028
0.0038828279 0.064066648 0.69517028
0.0038828128 0.062125057 0.69516945
0.0038828128 0.060183644 0.69516939
0.0038827977 0.058241993 0.6951685
0.0038827828 0.056300372 0.6951676
0.0038827828 0.054358959 0.6951676
0.0038827679 0.052417397 0.69516665
0.0038827679 0.050476015 0.69516671
0.003882753 0.048534453 0.69516575
0.003882753 0.04659304 0.69516575
0.0038827378 0.044651479 0.69516486
0.0038315824 0.042147428 0.69207734
0.0038315824 0.040231645 0.69207734
0.0038315824 0.038315833 0.6920774
0.0038315824 0.03640008 0.6920774
0.0038315824 0.034484267 0.6920774
0.0038315824 0.032568485 0.69207734
0.0038315824 0.030652702 0.69207734
0.0038315824 0.028736889 0.69207734
0.0038315824 0.026821107 0.6920774
0.0038315824 0.024905324 0.6920774
0.0038315824 0.022989511 0.6920774
0.0038315824 0.021073699 0.69207734
0.0038315824 0.019157916 0.6920774
0.0038315824 0.017242134 0.6920774
0.0038315824 0.015326351 0.69207734
0.0038315824 0.013410568 0.69207734
0.0038315824 0.011494786 0.6920774
0.0038315824 0.0095789731 0.6920774
0.0038315824 0.0076631904 0.6920774
0.0038315824 0.0057474077 0.6920774
0.0038315824 0.003831625 0.69207734
0.0038315824 0.0019158125 0.69207734
0.0038315824 2.9802322e-08 0.6920774
0.0038315824 -0.0019157529 0.69207734
0.0038315824 -0.0038315654 0.69207734
0.0038315824 -0.0057473481 0.6920774
0.0038315824 -0.0076631606 0.6920774
0.0038315824 -0.0095789731 0.6920774
0.0038315824 -0.011494696 0.6920774
0.0038315824 -0.013410538 0.6920774
0.0038315824 -0.015326321 0.69207734
0.0038315824 -0.017242104 0.6920774
0.0038315679 -0.019157827 0.6920765
0.0038315679 -0.02107358 0.69207644
0.0038315679 -0.022989362 0.6920765
0.0038315679 -0.024905175 0.6920765
0.0038315679 -0.026820928 0.69207644
0.0038315679 -0.028736711 0.6920765
0.0038315679 -0.030652523 0.69207644
0.0038315679 -0.032568276 0.69207644
0.0038315679 -0.034484118 0.69207644
0.0038315679 -0.036399901 0.6920765
0.0038315679 -0.038315624 0.69207644
0.0038315679 -0.040231466 0.6920765
0.0038315679 -0.042147219 0.6920765
0.0038315679 -0.044063032 0.69207644
0.0038315679 -0.045978814 0.69207644
0.0038315679 -0.047894537 0.69207644
0.0038315679 -0.04981035 0.69207644
0.0038315679 -0.051726162 0.69207644
0.0038315679 -0.053641945 0.6920765
0.0038315679 -0.055557728 0.6920765
0.0038315679 -0.057473511 0.69207644
0.0038315679 -0.059389293 0.69207644
0.0038315679 -0.061305076 0.69207644
0.0038315679 -0.063220859 0.69207644
0.0038315679 -0.065136641 0.6920765
0.0038315679 -0.067052394 0.69207644
0.0038315679 -0.068968207 0.69207644
0.0038315679 -0.070883989 0.6920765
0.0038315679 -0.072799772 0.6920765
0.0038315679 -0.074715525 0.6920765
0.0038315679 -0.076631367 0.69207656
0.0038315679 -0.07854712 0.69207644
0.0038315679 -0.080462903 0.69207644
0.0038315679 -0.0823787 0.6920765
0.0038315679 -0.084294453 0.69207644
0.0038315679 -0.086210236 0.69207644
0.0058421497 0.091527075 0.69589084
0.0058369022 0.089499146 0.69567972
0.0058369022 0.087553561 0.69567966
0.0058369022 0.085607886 0.69567972
0.0058368794 0.083661944 0.69567877
0.0058368794 0.081716299 0.69567883
0.0058368566 0.079770416 0.69567788
0.0058368566 0.077824771 0.69567788
0.0058368566 0.075879157 0.69567788
0.0058368337 0.073933244 0.69567698
0.0058368566 0.071987927 0.69567788
0.0058368566 0.070042312 0.69567788
0.0058368794 0.068096936 0.69567877
0.0058368794 0.066151291 0.69567883
0.0058369022 0.064205945 0.69567972
0.0058369022 0.06226033 0.69567966
0.005836925 0.060314924 0.69568062
0.005836925 0.058369249 0.69568062
0.005836925 0.056423604 0.69568062
0.0058369478 0.054478198 0.69568151
0.0058369478 0.052532524 0.69568151
0.0058369697 0.050587118 0.69568247
0.0058369697 0.048641413 0.69568241
0.0058369925 0.046695977 0.69568336
0.0058369925 0.044750303 0.69568336
0.0057379268 0.042078108 0.69169724
0.0057379268 0.040165514 0.69169724
0.0057379268 0.03825286 0.69169724
0.0057379268 0.036340207 0.69169724
0.0057379268 0.034427583 0.69169724
0.0057379268 0.03251493 0.69169724
0.0057379268 0.030602306 0.69169724
0.0057379268 0.028689682 0.69169724
0.0057379268 0.026776999 0.69169724
0.0057379268 0.024864405 0.69169724
0.0057379268 0.022951722 0.69169724
0.0057379268 0.021039069 0.69169724
0.0057379268 0.019126445 0.69169724
0.0057379268 0.017213821 0.69169724
0.0057379268 0.015301198 0.69169724
0.0057379268 0.013388544 0.69169724
0.0057379268 0.011475831 0.69169724
0.0057379268 0.0095632374 0.69169724
0.0057379268 0.007650584 0.69169724
0.0057379268 0.0057379603 0.69169724
0.0057379268 0.0038253367 0.69169724
0.0057379268 0.0019126236 0.6916973
0.0057379268 2.9802322e-08 0.69169724
0.0057379268 -0.0019125938 0.69169724
0.0057379268 -0.0038253069 0.69169724
0.0057379268 -0.0057379007 0.69169724
0.0057379268 -0.0076505542 0.6916973
0.0057379268 -0.0095632076 0.69169724
0.0057379268 -0.011475831 0.6916973
0.0057379268 -0.013388485 0.69169724
0.0057379268 -0.015301108 0.69169724
0.0057379268 -0.017213732 0.69169724
0.0057379268 -0.019126415 0.69169724
0.0057379268 -0.021039039 0.69169724
0.0057379268 -0.022951692 0.69169724
0.0057379268 -0.024864346 0.69169724
0.0057379268 -0.02677694 0.69169724
0.0057379268 -0.028689593 0.69169724
0.0057379268 -0.030602247 0.69169724
0.0057379487 -0.032514989 0.69169813
0.0057379268 -0.034427553 0.69169724
0.0057379268 -0.036340177 0.69169724
0.0057379268 -0.038252831 0.69169724
0.0057379268 -0.040165454 0.69169724
0.0057379268 -0.042078078 0.69169724
0.0057379268 -0.043990761 0.69169724
0.0057379268 -0.045903385 0.69169724
0.0057379268 -0.047816038 0.69169724
0.0057379268 -0.049728692 0.69169724
0.0057379268 -0.051641315 0.69169724
0.0057379268 -0.053553969 0.69169724
0.0057379268 -0.055466622 0.69169724
0.0057379268 -0.057379246 0.69169724
0.0057379268 -0.059291899 0.69169724
0.0057379268 -0.061204523 0.69169724
0.0057379268 -0.063117176 0.69169724
0.0057379268 -0.0650298 0.69169724
0.0057379268 -0.066942453 0.69169724
0.0057379268 -0.068855107 0.69169724
0.0057379268 -0.07076773 0.69169718
0.0057379268 -0.072680354 0.69169724
0.0057379268 -0.074593037 0.69169724
0.0057379268 -0.076505691 0.6916973
0.0057379268 -0.078418344 0.69169724
0.0057379268 -0.080330938 0.69169724
0.0057379268 -0.082243592 0.69169724
0.0057379268 -0.08415623 0.69169724
0.0057379268 -0.086068869 0.69169724
0.0078207012 0.091893286 0.69683146
0.0078057256 0.089765877 0.69637948
0.0078057256 0.08781448 0.69637948
0.0078057256 0.085862994 0.69637948
0.0078057256 0.083911568 0.69637948
0.0078056944 0.081959814 0.69637859
0.0078057256 0.080008686 0.69637954
0.0078057256 0.078057259 0.69637954
0.0078057256 0.076105833 0.69637948
0.0078057558 0.074154705 0.69638044
0.0078057558 0.072203249 0.69638038
0.0078057558 0.070251822 0.69638038
0.0078057866 0.068300664 0.69638133
0.0078057866 0.066349208 0.69638133
0.0078057866 0.064397752 0.69638133
0.0078058168 0.062446564 0.69638222
0.0078058168 0.060495108 0.69638228
0.0078058168 0.058543652 0.69638228
0.0078058168 0.056592137 0.69638228
0.0078058466 0.054640949 0.69638318
0.0078058466 0.052689493 0.69638318
0.0078058466 0.050738037 0.69638318
0.0078058778 0.048786759 0.69638407
0.0078058778 0.046835274 0.69638407
0.0078058778 0.044883817 0.69638407
0.0076650139 0.04215759 0.69213319
0.0076650139 0.040241331 0.69213319
0.0076650139 0.038325071 0.69213319
0.0076650139 0.036408812 0.69213319
0.0076650139 0.034492552 0.69213319
0.0076650139 0.032576323 0.69213319
0.0076650139 0.030660063 0.69213319
0.0076650139 0.028743804 0.69213319
0.0076649846 0.026827455 0.69213229
0.0076649846 0.024911255 0.69213223
0.0076649846 0.022994995 0.69213223
0.0076649846 0.021078736 0.69213229
0.0076649846 0.019162476 0.69213223
0.0076649846 0.017246246 0.69213223
0.0076649846 0.015329987 0.69213229
0.0076649846 0.013413727 0.69213229
0.0076649846 0.011497498 0.69213229
0.0076649846 0.009581238 0.69213229
0.0076649846 0.0076650083 0.69213223
0.0076649846 0.0057487488 0.69213223
0.0076649846 0.0038325191 0.69213223
0.0076649846 0.0019162893 0.69213229
0.0076649846 2.9802322e-08 0.69213229
0.0076649846 -0.0019162595 0.69213223
0.0076649846 -0.0038324893 0.69213229
0.0076649846 -0.005748719 0.69213235
0.0076649846 -0.0076649487 0.69213229
0.0076649846 -0.0095812082 0.69213223
0.0076649846 -0.011497468 0.69213223
0.0076649846 -0.013413697 0.69213229
0.0076649846 -0.015329987 0.69213223
0.0076649846 -0.017246187 0.69213229
0.0076649846 -0.019162416 0.69213223
0.0076649846 -0.021078676 0.69213223
0.0076649846 -0.022994936 0.69213223
0.0076649846 -0.024911195 0.69213223
0.0076649846 -0.026827395 0.69213229
0.0076649846 -0.028743654 0.69213223
0.0076649846 -0.030659944 0.69213223
0.0076649846 -0.032576174 0.69213229
0.0076649846 -0.034492433 0.69213235
0.0076649846 -0.036408693 0.69213229
0.0076649846 -0.038324922 0.69213229
0.0076649846 -0.040241152 0.69213223
0.0076649846 -0.042157412 0.69213223
0.0076649846 -0.044073641 0.69213223
0.0076649846 -0.045989901 0.69213229
0.0076649846 -0.047906131 0.69213229
0.0076649846 -0.04982239 0.69213229
0.0076649846 -0.05173862 0.69213223
0.0076649846 -0.053654879 0.69213223
0.0076649846 -0.055571109 0.69213229
0.0076649846 -0.057487339 0.69213223
0.0076649846 -0.059403598 0.69213229
0.0076649846 -0.061319888 0.69213229
0.0076649846 -0.063236117 0.69213223
0.0076649846 -0.065152377 0.69213229
0.0076649846 -0.067068577 0.69213223
0.0076649846 -0.068984836 0.69213229
0.0076649846 -0.070901096 0.69213223
0.0076649846 -0.072817326 0.69213229
0.0076649846 -0.074733585 0.69213229
0.0076649846 -0.076649815 0.69213223
0.0076649846 -0.078566045 0.69213223
0.0076649846 -0.080482304 0.69213223
0.0076649846 -0.082398549 0.69213229
0.0076649846 -0.084314823 0.69213223
0.0076649846 -0.086231023 0.69213223
0.0098270634 0.092374444 0.69806719
0.0097946301 0.09011063 0.69728422
0.0097946301 0.088151693 0.69728422
0.0097946301 0.086192757 0.69728422
0.0097946301 0.08423385 0.69728422
0.0097946301 0.082274914 0.69728422
0.0097946301 0.080315948 0.69728422
0.0097946301 0.078357041 0.69728416
0.0097946301 0.076398134 0.69728422
0.0097946301 0.074439198 0.69728422
0.0097946301 0.072480291 0.69728422
0.0097946301 0.070521384 0.69728422
0.0097946301 0.068562448 0.69728422
0.0097946301 0.066603512 0.69728422
0.0097946683 0.064644843 0.69728512
0.0097946683 0.062685937 0.69728512
0.0097946683 0.06072697 0.69728512
0.0097946683 0.058768034 0.69728512
0.0097947065 0.056809336 0.69728607
0.0097947065 0.05485037 0.69728607
0.0097947065 0.052891433 0.69728607
0.0097947065 0.050932527 0.69728601
0.0097947456 0.048973739 0.69728696
0.0097947456 0.047014803 0.69728696
0.0097947456 0.045055836 0.69728702
0.0096623441 0.042514324 0.69409055
0.0096623441 0.040581822 0.69409049
0.0096623441 0.03864938 0.69409055
0.0096623441 0.036716938 0.69409055
0.0096623441 0.034784466 0.69409055
0.0096623441 0.032851994 0.69409055
0.0096623441 0.030919522 0.69409055
0.0096623441 0.02898705 0.69409055
0.0096623441 0.027054578 0.69409055
0.0096623441 0.025122106 0.69409055
0.0096623441 0.023189634 0.69409055
0.0096623441 0.021257192 0.69409049
0.0096623441 0.01932469 0.69409055
0.0096623441 0.017392248 0.69409049
0.0096623441 0.015459776 0.69409049
0.0096623441 0.013527334 0.69409049
0.0096623441 0.011594832 0.69409055
0.0096623441 0.00966236 0.69409049
0.0096623441 0.007729888 0.6940906
0.0096623441 0.0057974458 0.69409049
0.0096623441 0.003864944 0.69409049
0.0096623441 0.0019325018 0.69409049
0.0096623441 2.9802322e-08 0.69409055
0.0096623441 -0.001932472 0.69409049
0.0096623441 -0.0038649142 0.69409049
0.0096623441 -0.0057973862 0.69409055
0.0096623441 -0.0077298582 0.69409049
0.0096623441 -0.0096623003 0.69409049
0.0096623441 -0.011594772 0.69409055
0.0096623441 -0.013527274 0.69409049
0.0096623441 -0.015459746 0.69409055
0.0096623441 -0.017392218 0.69409055
0.0096623441 -0.01932469 0.69409049
0.0096623441 -0.021257132 0.6940906
0.0096623441 -0.023189604 0.69409055
0.0096623441 -0.025122106 0.69409049
0.0096623441 -0.027054548 0.6940906
0.0096623441 -0.02898702 0.69409055
0.0096623441 -0.030919462 0.69409049
0.0096623441 -0.032851964 0.6940906
0.0096623441 -0.034784406 0.69409049
0.0096623441 -0.036716938 0.69409055
0.0096623441 -0.03864935 0.69409049
0.0096623441 -0.040581852 0.69409055
0.0096623441 -0.042514294 0.69409049
0.0096623441 -0.044446737 0.69409055
0.0096623441 -0.046379209 0.69409049
0.0096623441 -0.04831171 0.69409055
0.0096623441 -0.050244153 0.69409055
0.0096623441 -0.052176625 0.69409049
0.0096623441 -0.054109126 0.69409055
0.0096623441 -0.056041569 0.69409055
0.0096623441 -0.05797407 0.69409049
0.0096623441 -0.059906542 0.69409055
0.0096623441 -0.061838984 0.69409055
0.0096623441 -0.063771456 0.69409049
0.0096623441 -0.065703928 0.69409055
0.0096623441 -0.067636371 0.69409055
0.0096623441 -0.069568872 0.69409049
0.0096623441 -0.071501344 0.69409055
0.0096623441 -0.073433816 0.69409055
0.0096623441 -0.075366288 0.69409049
0.0096623441 -0.07729876 0.69409055
0.0096623441 -0.079231173 0.69409049
0.0096623441 -0.081163704 0.69409049
0.0096623441 -0.083096147 0.69409049
0.0096623441 -0.085028619 0.69409055
0.011874851 0.093019694 0.69972444
0.011809594 0.09054023 0.69841158
0.011809594 0.088571995 0.69841158
0.011809547 0.086603373 0.69841063
0.011809547 0.084635109 0.69841069
0.011809547 0.082666814 0.69841063
0.011809594 0.080698907 0.69841158
0.01180964 0.078730941 0.69841254
0.01180964 0.076762676 0.69841254
0.011809686 0.07479471 0.69841343
0.011809734 0.072826713 0.69841439
0.011809734 0.070858389 0.69841444
0.011809778 0.068890393 0.69841528
0.011809826 0.066922337 0.69841623
0.011809826 0.064954072 0.69841629
0.011809872 0.062986016 0.69841719
0.011809918 0.061017931 0.69841814
0.011809918 0.059049636 0.69841808
0.011809966 0.057081521 0.69841909
0.011810012 0.055113435 0.69841993
0.011810058 0.05314526 0.69842088
0.011810058 0.051176935 0.69842094
0.011810104 0.04920879 0.69842184
0.011810152 0.047240615 0.69842279
0.011810152 0.045272291 0.69842279
0.011798779 0.043262184 0.69819403
0.011791688 0.041270941 0.69805133
0.011791736 0.039305776 0.69805229
0.011791736 0.037340492 0.69805229
0.011791736 0.035375208 0.69805229
0.011791736 0.033409953 0.69805229
0.011791736 0.031444639 0.69805229
0.011791736 0.029479355 0.69805229
0.011791736 0.02751407 0.69805235
0.011791736 0.025548786 0.69805229
0.011791736 0.023583502 0.69805229
0.011791736 0.021618217 0.69805229
0.011791736 0.019652933 0.69805229
0.011791736 0.017687619 0.69805229
0.011791736 0.015722305 0.69805229
0.011791736 0.01375702 0.69805229
0.011791736 0.011791766 0.69805229
0.011791736 0.0098264515 0.69805235
0.011791736 0.0078611374 0.69805229
0.011791736 0.0058959126 0.69805229
0.011791736 0.0039305985 0.69805229
0.011791736 0.0019653141 0.69805223
0.011791736 2.9802322e-08 0.69805229
0.011791736 -0.0019652545 0.69805229
0.011791736 -0.0039305687 0.69805235
0.011791736 -0.005895853 0.69805229
0.011791736 -0.0078611374 0.69805229
0.011791736 -0.0098263919 0.69805229
0.011791736 -0.011791706 0.69805229
0.011791736 -0.01375702 0.69805229
0.011791736 -0.015722275 0.69805229
0.011791736 -0.017687589 0.69805229
0.011791736 -0.019652873 0.69805229
0.011791736 -0.021618187 0.69805235
0.011791736 -0.023583442 0.69805229
0.011791782 -0.025548846 0.69805324
0.011791782 -0.02751413 0.69805324
0.011791782 -0.029479444 0.69805324
0.011791782 -0.031444728 0.69805318
0.011791782 -0.033410043 0.69805324
0.011791782 -0.035375327 0.69805318
0.011791782 -0.037340611 0.69805324
0.011791782 -0.039305896 0.69805324
0.011791782 -0.04127121 0.69805324
0.011791782 -0.043236494 0.69805324
0.011791782 -0.045201808 0.69805324
0.011791782 -0.047167152 0.69805324
0.011791782 -0.049132407 0.69805324
0.011791782 -0.051097691 0.69805318
0.011791782 -0.053063005 0.69805324
0.011791782 -0.055028319 0.69805324
0.011791782 -0.056993604 0.69805324
0.011791782 -0.058958888 0.69805324
0.011791782 -0.060924172 0.69805324
0.011791782 -0.062889487 0.69805324
0.011791782 -0.064854771 0.69805324
0.011791782 -0.066820055 0.69805318
0.011791782 -0.068785369 0.69805324
0.011791782 -0.070750684 0.69805324
0.011791782 -0.072715938 0.69805324
0.011791782 -0.074681282 0.69805324
0.011791782 -0.076646566 0.69805324
0.011791782 -0.078611881 0.69805324
0.011791782 -0.080577135 0.69805324
0.011791782 -0.082542479 0.69805324
0.011791782 -0.084507763 0.69805324
0.011791782 -0.086473048 0.69805324
0.013862328 0.091095299 0.6998682
0.013862328 0.089114994 0.69986814
0.013862273 0.087134272 0.69986725
0.013862218 0.085153669 0.69986629
0.013862218 0.083173335 0.69986624
0.013862162 0.081192672 0.69986534
0.013862162 0.079212368 0.69986534
0.013862107 0.077231735 0.69986439
0.013862052 0.075251162 0.69986349
0.013862052 0.073270857 0.69986343
0.013861997 0.071290314 0.69986248
0.013861997 0.069310009 0.69986248
0.013861942 0.067329466 0.69986153
0.013861942 0.065349191 0.69986153
0.013861887 0.063368678 0.69986057
0.013861832 0.061388135 0.69985968
0.013861832 0.05940786 0.69985962
0.013861887 0.057427853 0.69986057
0.013861887 0.055447578 0.69986063
0.013861942 0.053467542 0.69986153
0.013861942 0.051487237 0.69986153
0.013861997 0.049507171 0.69986248
0.013862052 0.047527045 0.69986343
0.013862052 0.04554674 0.69986343
0.013861066 0.043563396 0.69984639
0.013839322 0.041518003 0.69947147
0.013839322 0.039540946 0.69947141
0.013839322 0.03756392 0.69947147
0.013839322 0.035586834 0.69947147
0.013839322 0.033609807 0.69947147
0.013839322 0.031632751 0.69947147
0.013839322 0.029655755 0.69947147
0.013839322 0.027678639 0.69947147
0.013839322 0.025701612 0.69947147
0.013839322 0.023724556 0.69947147
0.013839322 0.02174753 0.69947147
0.013839322 0.019770473 0.69947147
0.013839322 0.017793447 0.69947147
0.013839322 0.015816391 0.69947147
0.013839322 0.013839334 0.69947147
0.013839322 0.011862308 0.69947141
0.013839322 0.0098852515 0.69947147
0.013839322 0.0079081953 0.69947147
0.013839322 0.0059311688 0.69947147
0.013839322 0.0039541125 0.69947141
0.013839322 0.0019770563 0.69947147
0.013839322 2.9802322e-08 0.69947153
0.013839322 -0.0019770563 0.69947147
0.013839322 -0.0039540827 0.69947147
0.013839322 -0.005931139 0.69947147
0.013839322 -0.0079081655 0.69947147
0.013839322 -0.0098851919 0.69947147
0.013839322 -0.011862248 0.69947141
0.013839322 -0.013839275 0.69947147
0.013839322 -0.015816331 0.69947147
0.013839322 -0.017793417 0.69947147
0.013839267 -0.019770384 0.69947052
0.013839267 -0.02174741 0.69947052
0.013839267 -0.023724437 0.69947052
0.013839267 -0.025701463 0.69947052
0.013839267 -0.02767849 0.69947052
0.013839267 -0.029655576 0.69947052
0.013839267 -0.031632602 0.69947052
0.013839267 -0.033609599 0.69947046
0.013839267 -0.035586655 0.69947052
0.013839267 -0.037563682 0.69947052
0.013839267 -0.039540768 0.69947052
0.013839267 -0.041517794 0.69947052
0.013839267 -0.043494821 0.69947058
0.013839267 -0.045471847 0.69947052
0.013839267 -0.047448903 0.69947052
0.013839267 -0.04942596 0.69947052
0.013839267 -0.051402986 0.69947052
0.013839267 -0.053380013 0.69947052
0.013839267 -0.055357039 0.69947052
0.013839267 -0.057334065 0.69947052
0.013839267 -0.059311122 0.69947052
0.013839267 -0.061288148 0.69947046
0.013839267 -0.063265175 0.69947052
0.013839267 -0.065242261 0.69947058
