# .PCD v0.7 - Point Cloud Data file format
VERSION 0.7
FIELDS x y z
SIZE 4 4 4
TYPE F F F
COUNT 1 1 1
WIDTH 1347
HEIGHT 1
VIEWPOINT 0 0 0 1 0 0 0
POINTS 1347
DATA ascii
-0.011494615 0.013410389 0.69207472
-0.011523957 0.011523992 0.69266498
-0.01155345 0.0096278787 0.69325835
-0.011583136 0.0077221096 0.69385564
-0.011613067 0.0058065653 0.69445777
-0.011643154 0.003881067 0.69506305
-0.01167335 0.0019455552 0.6956706
-0.01170375 2.9802322e-08 0.69628215
-0.011734308 -0.001955688 0.69689697
-0.011764979 -0.0039216578 0.69751406
-0.011795858 -0.0058979392 0.69813526
-0.011826901 -0.0078845918 0.69875973
-0.011858106 -0.0098817348 0.69938755
-0.01188943 -0.011889368 0.70001775
-0.011920966 -0.01390779 0.70065224
-0.011952671 -0.015936881 0.70129007
-0.011984496 -0.017976731 0.70193034
-0.012016539 -0.020027548 0.70257497
-0.012048756 -0.022089362 0.70322317
-0.012081095 -0.024162143 0.70387375
-0.012113659 -0.02624625 0.70452893
-0.012146397 -0.028341562 0.70518756
-0.012179265 -0.030448139 0.70584881
-0.012212359 -0.032566279 0.70651466
-0.012245636 -0.034695983 0.70718408
-0.012279093 -0.03683725 0.70785719
-0.012312683 -0.03899014 0.70853299
-0.012346509 -0.04115501 0.7092135
-0.01238047 -0.043331623 0.70989668
-0.012414668 -0.045520455 0.71058476
-0.012449057 -0.047721356 0.71127659
-0.012483585 -0.049934328 0.71197116
-0.012518357 -0.052159816 0.7126708
-0.012553323 -0.054397702 0.71337426
-0.012588432 -0.056647927 0.71408057
-0.012623792 -0.058910996 0.71479201
-0.012659297 -0.061186582 0.71550632
-0.012695056 -0.063475251 0.71622574
-0.012731018 -0.065776914 0.71694922
-0.012767131 -0.068091333 0.71767575
-0.012803502 -0.070419282 0.71840751
-0.012840027 -0.072760135 0.71914232
-0.012876817 -0.075114757 0.71988249
-0.012913817 -0.077482879 0.72062683
-0.012950975 -0.079864323 0.72137439
-0.012988403 -0.082259864 0.72212738
-0.013026048 -0.084669322 0.72288477
-0.013063856 -0.08709234 0.72364539
-0.0087203616 0.081971437 0.67134905
-0.0086994078 0.080034584 0.67084318
-0.0087194806 0.078475386 0.67132777
-0.0087396456 0.076908886 0.67181462
-0.0087599028 0.075335175 0.67230368
-0.008780255 0.073754191 0.672795
-0.0088007022 0.072165757 0.67328864
-0.0088212444 0.070569992 0.67378461
-0.0088418834 0.068966717 0.67428291
-0.0088626193 0.067355901 0.67478347
-0.008883452 0.065737545 0.67528641
-0.0089043835 0.064111561 0.67579174
-0.0089254128 0.062477916 0.67629945
-0.0089465752 0.060836703 0.67681032
-0.0089678047 0.059187502 0.67732286
-0.0089891357 0.057530493 0.67783785
-0.0090106009 0.055865735 0.67835605
-0.0090321358 0.054192871 0.67887592
-0.0090537751 0.052511901 0.6793983
-0.0090755504 0.050823063 0.67992407
-0.0090973973 0.049125969 0.68045151
-0.0091193505 0.047420651 0.68098146
-0.0091414424 0.045707256 0.68151486
-0.0091636088 0.043985337 0.68204999
-0.0091858823 0.042255074 0.68258774
-0.0092082648 0.040516406 0.68312806
-0.0092307897 0.038769305 0.68367189
-0.009253392 0.03701359 0.68421757
-0.0092761395 0.035249352 0.68476671
-0.0092855385 0.033427954 0.68499362
-0.0093084443 0.031648725 0.68554664
-0.0093314638 0.029860705 0.68610239
-0.009354597 0.028063804 0.68666089
-0.0093778456 0.026257992 0.68722212
-0.0094012097 0.024443179 0.68778616
-0.0094246902 0.022619277 0.68835306
-0.0094482889 0.020786256 0.68892276
-0.0094719697 0.018943965 0.68949449
-0.0094958059 0.017092496 0.69006991
-0.0095197614 0.015231639 0.69064832
-0.0095438389 0.013361394 0.69122958
-0.0095680384 0.011481673 0.69181383
-0.0095923617 0.0095923543 0.69240105
-0.009616808 0.0076934695 0.69299114
-0.00964138 0.0057848692 0.69358444
-0.0096660778 0.0038664639 0.69418061
-0.009690864 0.001938194 0.69477904
-0.009715816 -0 0.69538146
-0.0097408975 -0.0019481778 0.69598699
-0.0097661074 -0.003906399 0.69659555
-0.0097914487 -0.0058748722 0.69720739
-0.0098169222 -0.007853508 0.69782239
-0.009842528 -0.009842515 0.69844055
-0.0098682689 -0.011841923 0.69906199
-0.0098941429 -0.013851821 0.69968665
-0.0099201547 -0.01587221 0.70031464
-0.0099462634 -0.017903239 0.7009449
-0.009972549 -0.019945085 0.70157957
-0.0099989753 -0.02199769 0.70221746
-0.010025541 -0.024061263 0.70285887
-0.010052249 -0.026135802 0.70350361
-0.01007918 -0.028221667 0.70415384
-0.010106256 -0.030318737 0.70480752
-0.010133478 -0.032427102 0.70546472
-0.010160848 -0.034546882 0.70612544
-0.010188364 -0.036678106 0.70678979
-0.010216031 -0.038820893 0.70745766
-0.010243848 -0.040975362 0.70812929
-0.010271817 -0.043141603 0.70880449
-0.01029994 -0.045319706 0.7094835
-0.010328217 -0.047509789 0.71016616
-0.010356649 -0.049711913 0.7108525
-0.010385239 -0.051926166 0.71154273
-0.010413987 -0.054152697 0.71223676
-0.010442894 -0.056391627 0.71293467
-0.010471962 -0.058642954 0.7136364
-0.010501193 -0.060906857 0.71434212
-0.010530587 -0.063183486 0.71505177
-0.010560147 -0.065472901 0.71576536
-0.010589872 -0.06777513 0.716483
-0.010619765 -0.070090443 0.71720475
-0.010649828 -0.072418779 0.7179305
-0.010680061 -0.074760377 0.71866035
-0.010710467 -0.077115327 0.71939445
-0.010741046 -0.079483718 0.72013271
-0.0107718 -0.081865668 0.7208752
-0.010802731 -0.084261298 0.72162187
-0.01083384 -0.086670727 0.72237295
-0.010865129 -0.089094043 0.72312832
-0.0069578569 0.081754863 0.67079282
-0.0069426275 0.079840213 0.67033327
-0.0069585592 0.078283817 0.67081398
-0.006974563 0.076720208 0.67129695
-0.0069906656 0.075149685 0.67178291
-0.0070068426 0.073571861 0.67227107
-0.00702307 0.071986496 0.67276078
-0.007039398 0.07039398 0.67325354
-0.0070558018 0.068794072 0.67374855
-0.007072282 0.067186713 0.67424583
-0.0070888144 0.065571576 0.67474484
-0.0071054497 0.063949078 0.67524683
-0.0071221632 0.062318981 0.67575115
-0.0071389549 0.060681134 0.67625791
-0.0071558012 0.059035391 0.67676634
-0.0071727522 0.057382017 0.67727786
-0.0071897842 0.055720836 0.67779183
-0.0072068973 0.054051757 0.67830825
-0.0072240918 0.052374691 0.67882717
-0.0072413422 0.050689399 0.67934775
-0.0072587021 0.04899627 0.67987168
-0.0072761453 0.047294974 0.68039799
-0.0072936723 0.045585483 0.68092692
-0.0073112566 0.043867558 0.68145764
-0.0073289541 0.042141497 0.6819917
-0.0073467363 0.040407062 0.68252832
-0.007364606 0.038664192 0.6830675
-0.0073825344 0.03691268 0.68360859
-0.0074005784 0.035152763 0.68415308
-0.0074082762 0.033337265 0.68438542
-0.0074264463 0.031562388 0.68493372
-0.0074447063 0.029778808 0.68548477
-0.0074630552 0.027986467 0.68603855
-0.0074815233 0.026185364 0.68659586
-0.0075000548 0.02437523 0.68715507
-0.0075186789 0.022556067 0.68771714
-0.0075374232 0.020727962 0.68828279
-0.0075562336 0.018890589 0.6888504
-0.007575138 0.017044067 0.68942094
-0.0075941365 0.015188277 0.68999428
-0.0076132603 0.013323247 0.69057131
-0.0076324511 0.011448711 0.69115055
-0.0076517393 0.0095646679 0.69173253
-0.0076711541 0.0076711774 0.69231844
-0.0076906383 0.0057680011 0.69290644
-0.0077102222 0.003855139 0.69349736
-0.007729935 0.0019325018 0.69409239
-0.0077497195 2.9802322e-08 0.69468939
-0.0077696056 -0.0019423962 0.69528949
-0.0077895932 -0.0038948059 0.69589269
-0.0078097153 -0.0058572888 0.69649988
-0.0078299111 -0.0078299046 0.69710934
-0.0078502102 -0.0098127425 0.69772196
-0.0078706481 -0.011805952 0.69833875
-0.0078911595 -0.013809502 0.69895768
-0.007911779 -0.015823543 0.69957995
-0.0079325065 -0.017848134 0.7002055
-0.0079533746 -0.019883394 0.70083517
-0.0079743201 -0.021929353 0.70146728
-0.0079953773 -0.023986131 0.70210278
-0.0080165453 -0.026053756 0.70274156
-0.0080378586 -0.028132468 0.70338476
-0.008059253 -0.030222178 0.70403039
-0.0080807609 -0.032323033 0.70467949
-0.008102417 -0.034435242 0.70533299
-0.0081241569 -0.036558688 0.705989
-0.0081460141 -0.038693547 0.70664865
-0.0081679886 -0.040839881 0.70731175
-0.0081901159 -0.042998075 0.70797956
-0.0082123289 -0.045167804 0.70864987
-0.0082346629 -0.047349304 0.70932388
-0.008257119 -0.049542695 0.71000153
-0.0082797324 -0.051748335 0.71068394
-0.0083024353 -0.053965837 0.71136904
-0.0083252629 -0.056195527 0.71205795
-0.0083482172 -0.058437496 0.71275061
-0.0083713327 -0.060692132 0.71344823
-0.0083945412 -0.062959045 0.71414858
-0.0084178792 -0.065238565 0.71485287
-0.008441383 -0.067531019 0.71556216
-0.0084649818 -0.06983608 0.71627438
-0.0084887138 -0.072154045 0.71699047
-0.0085125789 -0.074485034 0.71771067
-0.0085366517 -0.076829851 0.71843719
-0.0085608605 -0.079187959 0.71916771
-0.0085852072 -0.081559449 0.7199024
-0.0086096926 -0.083944499 0.72064137
-0.0086343186 -0.086343169 0.72138453
-0.0086590471 -0.08875525 0.72213084
-0.005208109 0.081593752 0.67037904
-0.0051976494 0.079697341 0.66995817
-0.0052095186 0.078142792 0.67043579
-0.0052214605 0.076581419 0.67091626
-0.0052334573 0.075012922 0.671399
-0.0052455096 0.073437154 0.67188388
-0.0052576172 0.071854115 0.67237109
-0.0052697808 0.070263773 0.6728605
-0.0052820006 0.068666041 0.67335224
-0.0052942778 0.067060888 0.67384619
-0.0053066118 0.065448195 0.67434251
-0.0053190035 0.063828081 0.67484111
-0.0053314534 0.062200278 0.67534208
-0.0053439615 0.060564905 0.67584532
-0.0053565283 0.058921844 0.67635095
-0.0053691543 0.057271004 0.67685902
-0.0053818403 0.055612385 0.67736942
-0.0053945864 0.053945839 0.67788231
-0.0054073925 0.052271515 0.6783976
-0.0054202601 0.050589114 0.67891526
-0.0054332083 0.048898906 0.67943633
-0.0054461993 0.047200412 0.67995906
-0.0054592523 0.045493811 0.68048429
-0.0054723681 0.043778956 0.68101192
-0.0054855468 0.042055905 0.68154222
-0.0054987893 0.040324479 0.68207508
-0.005512096 0.038584679 0.68261051
-0.005525467 0.036836445 0.6831485
-0.0055389032 0.035079718 0.68368918
-0.0055359411 0.033215672 0.68356997
-0.0055496339 0.031447917 0.68412089
-0.0055633937 0.02967146 0.68467456
-0.0055772229 0.027886122 0.68523103
-0.0055911201 0.026091933 0.68579018
-0.0056050876 0.024288744 0.68635225
-0.0056191245 0.022476524 0.68691695
-0.0056332317 0.020655185 0.68748462
-0.0056474106 0.018824697 0.68805516
-0.0056616822 0.016985059 0.68862939
-0.0056760046 0.015136063 0.68920565
-0.0056903991 0.01327762 0.68978482
-0.0057048672 0.01140976 0.69036704
-0.0057194093 0.0095323324 0.69095218
-0.0057340255 0.0076453984 0.69154024
-0.0057487166 0.0057487488 0.6921314
-0.0057634828 0.0038423538 0.69272554
-0.0057783253 0.0019261241 0.69332272
-0.005793245 -0 0.69392312
-0.0058082412 -0.0019360483 0.69452649
-0.0058233156 -0.0038821995 0.69513309
-0.0058384687 -0.0058384538 0.69574273
-0.0058537 -0.0078049004 0.69635558
-0.0058690351 -0.0097817183 0.69697261
-0.0058843577 -0.011768699 0.69758922
-0.0058997604 -0.01376611 0.69820893
-0.0059152446 -0.015773982 0.69883198
-0.0059308098 -0.017792434 0.6994583
-0.0059464811 -0.019821614 0.70008886
-0.0059622116 -0.021861434 0.70072174
-0.005978025 -0.023912072 0.70135808
-0.0059939232 -0.025973648 0.70199776
-0.0060099061 -0.02804625 0.70264089
-0.0060259737 -0.03012985 0.70328736
-0.0060421526 -0.032224804 0.70393836
-0.0060583935 -0.034330875 0.70459187
-0.0060746493 -0.036447883 0.70524591
-0.0060910168 -0.038576394 0.70590448
-0.0061074472 -0.04071629 0.70656562
-0.0061239917 -0.042867929 0.70723134
-0.0061406014 -0.045031071 0.70789963
-0.006157326 -0.047206193 0.70857263
-0.0061741173 -0.049392939 0.70924819
-0.0061909752 -0.051591456 0.70992649
-0.0062079504 -0.053802222 0.7106095
-0.0062250192 -0.056025177 0.71129632
-0.0062421821 -0.058260322 0.7119869
-0.006259439 -0.060507894 0.71268129
-0.0062767933 -0.062767893 0.71337962
-0.006294243 -0.065040469 0.7140817
-0.0063117631 -0.067325443 0.71478665
-0.0063294088 -0.06962347 0.7154966
-0.0063471529 -0.071934342 0.7162106
-0.0063649961 -0.074258238 0.7169286
-0.0063829408 -0.076595247 0.71765059
-0.0064009866 -0.078945488 0.7183767
-0.0064191353 -0.081309021 0.71910697
-0.0064373589 -0.083685637 0.71984017
-0.0064557148 -0.0860762 0.72057879
-0.006474175 -0.088480353 0.72132158
-0.0034674888 0.081485987 0.67010236
-0.003460953 0.079601943 0.66970789
-0.003468835 0.078048825 0.6701836
-0.003476765 0.076488853 0.67066222
-0.0034847315 0.074921727 0.67114305
-0.0034927221 0.073347181 0.67162538
-0.003500774 0.0717659 0.67211127
-0.0035088512 0.070177048 0.67259878
-0.0035169777 0.068581074 0.67308927
-0.0035251295 0.066977471 0.6735813
-0.0035333317 0.065366685 0.67407632
-0.0035415597 0.063748091 0.67457294
-0.0035498387 0.062122196 0.67507267
-0.0035581437 0.060488433 0.67557389
-0.0035665005 0.058847278 0.67607832
-0.0035748843 0.057198167 0.67658424
-0.0035833197 0.055541486 0.67709339
-0.0035917824 0.053876758 0.67760414
-0.0036002854 0.052204162 0.67811739
-0.0036088417 0.050523818 0.67863375
-0.0036174254 0.048835278 0.67915183
-0.0036260635 0.04713884 0.67967319
-0.0036347294 0.045434147 0.68019623
-0.0036434501 0.043721408 0.68072259
-0.0036521999 0.042000294 0.68125069
-0.0036610048 0.040271074 0.68178213
-0.0036698387 0.03853333 0.68231523
-0.0036787293 0.036787331 0.68285191
-0.0036876493 0.03503269 0.6833902
-0.0036482587 0.032834351 0.68101281
-0.0036572451 0.031086624 0.68155515
-0.0036662759 0.029330224 0.68210024
-0.0036753514 0.027565151 0.682648
-0.0036844718 0.025791287 0.68319851
-0.0036936379 0.024008662 0.68375164
-0.0037028496 0.022217095 0.68430763
-0.0037121074 0.020416647 0.68486643
-0.0037214116 0.01860711 0.68542796
-0.0037307625 0.016788483 0.6859923
-0.0037401605 0.014960706 0.68655956
-0.003749606 0.013123661 0.68712962
-0.0037590994 0.011277318 0.68770266
-0.003768641 0.0094216168 0.6882785
-0.0037782309 0.0075564682 0.68885732
-0.0037878701 0.0056818426 0.68943906
-0.0037975581 0.0037975609 0.69002384
-0.0038072963 0.0019036829 0.69061154
-0.0038170842 2.9802322e-08 0.69120234
-0.003826923 -0.0019134581 0.69179606
-0.0038368122 -0.0038368106 0.69239306
-0.0038467529 -0.005770117 0.69299299
-0.0038567451 -0.0077134371 0.69359612
-0.0038667894 -0.0096669495 0.6942023
-0.0038768861 -0.011630625 0.6948117
-0.0038870361 -0.013604611 0.69542426
-0.0038972388 -0.015588939 0.69604009
-0.0039074956 -0.017583698 0.69665915
-0.0039178063 -0.019589037 0.69728148
-0.0039281715 -0.021604925 0.69790703
-0.0039385916 -0.023631543 0.69853598
-0.0039490676 -0.025668919 0.69916826
-0.003959599 -0.027717173 0.69980383
-0.0039701872 -0.029776365 0.70044285
-0.0039808317 -0.031846642 0.70108539
-0.003991534 -0.033928007 0.70173126
-0.0040022931 -0.036020607 0.70238066
-0.0040131113 -0.038124561 0.70303357
-0.0040239878 -0.040239871 0.70369005
-0.0040349234 -0.042366683 0.70435005
-0.0040459181 -0.04450509 0.70501369
-0.0040569571 -0.046654969 0.70567989
-0.0040680729 -0.04881683 0.7063508
-0.0040792497 -0.050990582 0.70702541
-0.004090488 -0.053176314 0.70770371
-0.0041017886 -0.055374116 0.70838577
-0.0041131517 -0.057584077 0.70907158
-0.0041245776 -0.059806317 0.70976114
-0.0041360678 -0.062041014 0.71045464
-0.0041476218 -0.06428811 0.71115202
-0.0041592405 -0.066547871 0.71185333
-0.0041709249 -0.068820238 0.71255845
-0.0041826749 -0.07110545 0.71326762
-0.0041944911 -0.073403537 0.71398079
-0.0042063743 -0.075714737 0.71469802
-0.004218325 -0.07803899 0.71541929
-0.0042303442 -0.080376506 0.71614468
-0.0042424314 -0.082727402 0.7168743
-0.0042545884 -0.08509177 0.71760809
-0.0042668148 -0.087469697 0.718346
-0.0042791124 -0.089861363 0.7190882
-0.0017325438 0.081429571 0.6699574
-0.0017293522 0.079550236 0.66957211
-0.001733294 0.077998251 0.670048
-0.0017372479 0.076438934 0.67052525
-0.0017412198 0.074872464 0.67100471
-0.001745216 0.07329911 0.67148709
-0.0017492245 0.071718246 0.67197096
-0.0017532513 0.07013005 0.6724571
-0.0017573031 0.068534851 0.67294616
-0.0017613798 0.06693247 0.67343819
-0.0017654691 0.065322369 0.67393184
-0.0017695776 0.063704789 0.67442781
-0.0017737051 0.062079698 0.67492604
-0.0017778521 0.060446978 0.6754266
-0.0017820247 0.058806807 0.67593026
-0.0017862106 0.057158768 0.67643559
-0.0017904162 0.055502951 0.67694324
-0.0017946416 0.053839266 0.67745328
-0.001798887 0.052167743 0.67796576
-0.0018031594 0.050488502 0.67848146
-0.0018074452 0.048801035 0.67899883
-0.0018117515 0.047105581 0.67951864
-0.0018160783 0.04540199 0.68004096
-0.0018204327 0.043690413 0.68056661
-0.0018248012 0.041970432 0.68109387
-0.0018291906 0.040242195 0.68162376
-0.0018336014 0.038505644 0.68215621
-0.0018380336 0.036760688 0.68269116
-0.0018424938 0.035007417 0.68322957
-0.0018152416 0.032674372 0.67993999
-0.0018196646 0.030934334 0.68047386
-0.0018241093 0.029185772 0.68101037
-0.0018285757 0.027428627 0.68154955
-0.0018330641 0.025662899 0.6820913
-0.0018375678 0.023888379 0.68263495
-0.0018421003 0.022105217 0.68318206
-0.0018466554 0.020313263 0.68373191
-0.0018512331 0.018512338 0.68428451
-0.0018558335 0.016702503 0.68483984
-0.0018604567 0.014883667 0.68539792
-0.0018651031 0.013055712 0.68595874
-0.0018697658 0.011218607 0.68652165
-0.0018744589 0.0093723238 0.68708807
-0.0018791755 0.007516712 0.68765748
-0.001883916 0.0056517422 0.68822968
-0.0018886806 0.0037773848 0.68880481
-0.0018934691 0.0018935204 0.68938279
-0.0018982821 -0 0.68996382
-0.0019031124 -0.0019031167 0.69054687
-0.0019079745 -0.0038159192 0.6911338
-0.0019128617 -0.0057385564 0.6917237
-0.0019177739 -0.007671088 0.69231665
-0.0019227113 -0.0096135437 0.6929127
-0.0019276742 -0.011566013 0.69351172
-0.0019326553 -0.013528585 0.69411302
-0.0019376699 -0.01550132 0.69471836
-0.0019427105 -0.017484367 0.69532675
-0.0019477773 -0.019477785 0.69593847
-0.0019528709 -0.021481574 0.69655323
-0.0019579909 -0.023495883 0.69717133
-0.0019631379 -0.025520772 0.69779265
-0.0019683044 -0.02755627 0.69841629
-0.0019735058 -0.029602528 0.69904411
-0.0019787347 -0.031659752 0.69967532
-0.0019839916 -0.033727854 0.70030987
-0.0019892764 -0.035806984 0.70094782
-0.0019945893 -0.037897199 0.70158917
-0.0019999309 -0.039998591 0.70223391
-0.002005293 -0.042111129 0.70288122
-0.0020106921 -0.0442352 0.70353293
-0.0020161201 -0.046370745 0.70418817
-0.0020215779 -0.048517823 0.70484692
-0.002027065 -0.050676614 0.70550931
-0.0020325822 -0.052847117 0.70617527
-0.002038121 -0.055029213 0.70684385
-0.0020436984 -0.057223529 0.70751715
-0.0020493066 -0.059429884 0.70819408
-0.0020549458 -0.061648369 0.70887476
-0.0020606157 -0.063879073 0.70955926
-0.0020663172 -0.066122115 0.71024746
-0.0020720502 -0.068377644 0.71093953
-0.0020778067 -0.070645392 0.71163434
-0.002083604 -0.072926134 0.71233416
-0.0020894336 -0.075219572 0.71303785
-0.0020952958 -0.077525914 0.71374547
-0.0021011911 -0.07984525 0.71445715
-0.0021071197 -0.082177669 0.71517271
-0.0021130817 -0.084523261 0.71589243
-0.0021190688 -0.086881787 0.71661514
-0.0021250986 -0.089254141 0.71734297
0 0.081420571 0.66993427
0 0.079541415 0.66954911
0 0.077989608 0.67002481
0 0.07643047 0.67050195
0 0.074864388 0.67098206
0 0.073290884 0.67146361
0 0.071710438 0.67194808
0 0.070122421 0.67243409
0 0.0685274 0.67292303
0 0.066924691 0.67341352
0 0.06531474 0.67390704
0 0.063697368 0.67440289
0 0.062072456 0.67490101
0 0.060439885 0.67540145
0 0.058799922 0.67590505
0 0.057152033 0.6764102
0 0.055496365 0.67691767
0 0.053832918 0.67742765
0 0.052161783 0.67794079
0 0.050482452 0.67845559
0 0.048795193 0.67897284
0 0.047100127 0.67949331
0 0.045396715 0.6800155
0 0.043685138 0.6805402
0 0.041965544 0.68106824
0 0.040237486 0.68159795
0 0.038501143 0.68213022
0 0.036756396 0.68266511
0 0.035003304 0.68320334
0 0.032666802 0.67988908
0 0.030909032 0.68029428
0 0.029161841 0.68082994
0 0.027406245 0.68136901
0 0.025641859 0.68190992
0 0.023868829 0.68245345
0 0.022087157 0.6830005
0 0.020296603 0.68354946
0 0.018497258 0.68410194
0 0.016688854 0.68465632
0 0.014871508 0.68521434
0 0.013045073 0.68577427
0 0.011209428 0.68633699
0 0.0093646646 0.68690348
0 0.0075105727 0.68747193
0 0.0056471229 0.68804318
0 0.0037742853 0.68861824
0 0.0018919408 0.68919533
0 2.9802322e-08 0.68977618
0 -0.001901567 0.69035923
0 -0.0038127899 0.69094515
0 -0.0057338774 0.691535
0 -0.0076647699 0.69212699
0 -0.0096056759 0.69272286
0 -0.011556536 0.69332099
0 -0.013517499 0.69392216
0 -0.015488684 0.69452739
0 -0.017470032 0.69513482
0 -0.019461811 0.69574636
0 -0.02146396 0.69636017
0 -0.023476571 0.69697726
0 -0.025499851 0.69759846
0 -0.02753374 0.69822198
0 -0.029578418 0.6988498
0 -0.031633854 0.69947994
0 -0.033700198 0.70011348
0 -0.035777658 0.7007513
0 -0.037866056 0.70139158
0 -0.039965689 0.70203531
0 -0.042076737 0.70268345
0 -0.04419899 0.70333409
0 -0.046332896 0.70398927
0 -0.048478097 0.704647
0 -0.050635159 0.70530921
0 -0.052803814 0.7059741
0 -0.054984242 0.70664263
0 -0.057176858 0.7073158
0 -0.059381217 0.7079916
0 -0.061597764 0.70867127
0 -0.06382674 0.70935553
0 -0.066067845 0.71004266
0 -0.068321645 0.71073461
0 -0.070587635 0.71142936
0 -0.07286635 0.71212798
0 -0.075158089 0.71283156
0 -0.077462375 0.71353811
0 -0.079779923 0.71424961
0 -0.082110226 0.71496409
0 -0.084453702 0.71568251
0 -0.086810857 0.71640623
0 -0.089181036 0.71713293
0.0017331619 0.081458598 0.67003208
0.0017299022 0.079575509 0.66963863
0.0017338465 0.078023076 0.67011476
0.001737809 0.07646361 0.67059302
0.0017417895 0.074896991 0.67107344
0.0017457884 0.073323131 0.67155617
0.0017498055 0.071742028 0.67204118
0.0017538352 0.070153385 0.67252755
0.0017578895 0.068557709 0.67301697
0.0017619628 0.066954613 0.67350864
0.0017660548 0.065344065 0.67400259
0.001770166 0.063726008 0.67449886
0.0017742963 0.062100381 0.67499739
0.0017784396 0.060466975 0.67549753
0.0017826088 0.058826089 0.67600083
0.0017868037 0.057177722 0.67650717
0.0017910122 0.055521399 0.67701519
0.001795247 0.053857446 0.67752635
0.0017995018 0.052185625 0.67803997
0.0018037702 0.050505579 0.67855525
0.0018080656 0.048817784 0.67907375
0.0018123814 0.047121942 0.6795947
0.001816718 0.045417964 0.6801182
0.0018210688 0.043705672 0.68064338
0.001825447 0.041985303 0.68117177
0.0018298463 0.040256619 0.68170291
0.0018342602 0.038519502 0.68223572
0.0018387021 0.036774069 0.68277186
0.0018431656 0.035020173 0.68331069
0.0018191354 0.032744437 0.68041003
0.0018235975 0.031001151 0.68094862
0.0018280747 0.029249191 0.68148905
0.0018325739 0.027488619 0.68203217
0.0018370955 0.025719374 0.68257797
0.0018416462 0.023941427 0.68312728
0.0018462124 0.022154599 0.68367851
0.0018508015 0.020358831 0.68423247
0.0018554137 0.018554151 0.68478918
0.0018600486 0.016740471 0.68534863
0.0018647138 0.014917731 0.68591177
0.0018693955 0.013085783 0.68647695
0.0018741008 0.011244625 0.68704486
0.0018788298 0.0093941987 0.68761569
0.0018835898 0.0075343847 0.68819034
0.0018883669 0.0056650937 0.68876696
0.0018931682 0.0037863851 0.68934649
0.0018979941 0.0018979907 0.68992907
0.0019028445 -0 0.69051456
0.0019077272 -0.0019077063 0.69110394
0.0019126277 -0.0038252473 0.69169551
0.0019175534 -0.0057526231 0.69229007
0.0019225044 -0.0076900125 0.69288772
0.0019274813 -0.0096373856 0.69348848
0.0019324913 -0.011594892 0.69409323
0.0019375199 -0.01356259 0.69470024
0.0019425747 -0.01554057 0.69531047
0.0019476865 -0.01752916 0.69592744
0.0019528251 -0.01952824 0.69654781
0.0019579832 -0.021537811 0.69717038
0.0019631763 -0.02355811 0.6977973
0.0019683971 -0.025589138 0.69842744
0.001973646 -0.027631015 0.69906104
0.0019789226 -0.029683828 0.69969797
0.0019842198 -0.03174752 0.70033747
0.0019895532 -0.033822417 0.7009812
0.0019949155 -0.03590849 0.70162851
0.0020003067 -0.038005769 0.70227933
0.0020057273 -0.040114552 0.70293355
0.0020111687 -0.04223454 0.70359045
0.0020166484 -0.04436627 0.70425189
0.0020221579 -0.046509624 0.70491689
0.0020276976 -0.048664719 0.7055856
0.0020332676 -0.050831676 0.70625806
0.0020388602 -0.053010345 0.70693314
0.0020444919 -0.055201262 0.70761293
0.0020501548 -0.057404339 0.70829654
0.0020558492 -0.059619606 0.70898384
0.0020615668 -0.061846972 0.709674
0.0020673245 -0.064087063 0.71036911
0.002073115 -0.066339642 0.71106803
0.0020789376 -0.068604916 0.71177089
0.0020847933 -0.070882946 0.71247768
0.0020906732 -0.073173553 0.71318752
0.0020965952 -0.075477391 0.71390229
0.0021025508 -0.077794343 0.71462125
0.0021085404 -0.080124557 0.71534425
0.0021145642 -0.082467973 0.71607137
0.0021206134 -0.084824532 0.71680164
0.0021267065 -0.08719492 0.71753705
0.0021328346 -0.089579046 0.71827686
0.0034699775 0.081544489 0.67025262
0.0034631931 0.079653472 0.66984308
0.0034711091 0.078099996 0.67032087
0.0034790495 0.076539129 0.67080015
0.0034870384 0.074971348 0.67128229
0.0034950522 0.073396087 0.67176592
0.0035031149 0.071813881 0.6722526
0.0035112025 0.070224047 0.6727407
0.00351934 0.068627149 0.6732319
0.0035275153 0.0670228 0.67372525
0.0035357163 0.065410763 0.67422026
0.0035439681 0.063791424 0.67471832
0.0035522457 0.062164307 0.67521793
0.0035605745 0.060529798 0.67572063
0.0035689301 0.058887362 0.67622495
0.0035773378 0.057237417 0.67673236
0.0035857849 0.055579662 0.67724222
0.0035942595 0.053913891 0.67775369
0.0036027869 0.052240431 0.67826837
0.0036113421 0.050558835 0.67878467
0.003619951 0.048869371 0.67930424
0.0036286009 0.047171861 0.67982632
0.0036373055 0.045466363 0.68035173
0.0036460389 0.043752491 0.68087888
0.0036548141 0.042030364 0.68140846
0.0036636451 0.040300101 0.68194145
0.0036725055 0.038561344 0.68247616
0.0036814087 0.036814094 0.68301356
0.003690369 0.035058528 0.68355441
0.0036747037 0.033072352 0.68260884
0.0036840108 0.031314075 0.68317068
0.0036933655 0.029546946 0.68373525
0.0037027677 0.027770817 0.68430269
0.0037122176 0.025985539 0.68487298
0.0037217024 0.024191111 0.68544555
0.0037312494 0.022387534 0.68602169
0.0037408455 0.020574659 0.68660092
0.0037504914 0.018752456 0.68718308
0.003760187 0.016920865 0.68776828
0.0037699328 0.015079767 0.68835652
0.0037797291 0.013229072 0.6889478
0.0037895481 0.011368692 0.68954033
0.0037993751 0.0094984472 0.69013351
0.0038092674 0.0076185465 0.69073057
0.0038191965 0.005728811 0.69132984
0.0038291782 0.0038291812 0.69193226
0.0038392115 0.0019196272 0.69253778
0.003849298 -0 0.69314659
0.0038594522 -0.0019297004 0.69375944
0.0038696455 -0.0038696527 0.69437468
0.0038798472 -0.0058197677 0.6949904
0.0038900881 -0.0077801645 0.69560844
0.003900368 -0.0097509325 0.69622898
0.0039107176 -0.011732101 0.69685358
0.0039211223 -0.01372391 0.69748157
0.0039315666 -0.015726238 0.69811201
0.0039420826 -0.017739356 0.69874662
0.0039526396 -0.019763172 0.6993838
0.0039632688 -0.021797985 0.70002532
0.0039739548 -0.023843735 0.70067036
0.0039846837 -0.025900424 0.70131779
0.0039954861 -0.027968377 0.70196986
0.0040063313 -0.030047446 0.70262438
0.0040172515 -0.03213799 0.70328349
0.0040282314 -0.034239948 0.70394617
0.0040392554 -0.03635326 0.70461148
0.0040502413 -0.038477302 0.70527458
0.0040612873 -0.040612876 0.70594132
0.0040723938 -0.042760104 0.70661163
0.0040835445 -0.044918954 0.70728457
0.004094773 -0.047089875 0.70796227
0.0041060634 -0.049272746 0.70864373
0.004117399 -0.051467478 0.709328
0.0041288151 -0.053674579 0.71001697
0.0041402946 -0.055893958 0.71070981
0.0041518379 -0.058125705 0.71140647
0.0041634282 -0.0603697 0.71210599
0.0041751014 -0.062626511 0.71281058
0.0041868398 -0.064895988 0.71351898
0.0041986443 -0.067178309 0.71423149
0.0042104982 -0.069473177 0.71494693
0.0042224363 -0.071781397 0.71566749
0.004234443 -0.074102759 0.71639216
0.0042464999 -0.076436996 0.71711981
0.0042586438 -0.078784883 0.71785277
0.0042708577 -0.08114627 0.71858996
0.0042831418 -0.083521277 0.71933132
0.0042954776 -0.085909545 0.72007596
0.0043079043 -0.08831203 0.72082591
0.0052136444 0.081680447 0.67060173
0.0052027837 0.079776049 0.6701647
0.0052147126 0.078220725 0.6706447
0.0052266968 0.076658249 0.6711269
0.0052387174 0.075088322 0.67161059
0.005250812 0.073511392 0.67209733
0.005262963 0.07192719 0.67258614
0.0052751512 0.070335388 0.67307657
0.0052874149 0.068736434 0.67357004
0.0052997358 0.067130029 0.67406577
0.0053120954 0.065515876 0.67456311
0.0053245313 0.063894391 0.67506349
0.005337026 0.062265337 0.6755662
0.0053495606 0.060628384 0.67607057
0.0053621731 0.058983892 0.6765781
0.0053748451 0.057331711 0.67708802
0.0053875772 0.055671662 0.67760026
0.0054003503 0.054003537 0.67811424
0.0054132035 0.052327663 0.67863142
0.0054261186 0.050643802 0.67915106
0.0054390752 0.048951715 0.67967236
0.0054521137 0.047251701 0.680197
0.0054652155 0.045543462 0.6807242
0.0054783593 0.043826938 0.68125308
0.0054915873 0.042102188 0.68178535
0.0055048796 0.040369123 0.68232012
0.0055182152 0.038627535 0.6828568
0.005531637 0.036877632 0.68339676
0.0055451235 0.035119146 0.68393946
0.0055508446 0.033305079 0.68416965
0.0055644871 0.031532139 0.68471855
0.0055781761 0.029750288 0.68526936
0.0055919532 0.027959764 0.68582374
0.0056057782 0.0261603 0.68637997
0.0056196712 0.024351925 0.686939
0.005633655 0.022534639 0.68750167
0.0056476863 0.020708233 0.68806624
0.0056618103 0.018872708 0.68863457
0.0056759831 0.017027944 0.68920481
0.0056902263 0.015173972 0.68977797
0.005704564 0.013310671 0.69035482
0.0057189511 0.011437923 0.6909337
0.0057334341 0.009555757 0.69151646
0.0057479683 0.0076639652 0.69210124
0.0057625752 0.0057626069 0.69268906
0.0057772798 0.0038515627 0.6932807
0.0057920376 0.0019307137 0.69387448
0.0058068931 2.9802322e-08 0.69447225
0.0058218027 -0.0019405484 0.69507217
0.0058367886 -0.00389117 0.69567513
0.0058518751 -0.0058518648 0.69628221
0.005867016 -0.0078226924 0.69689143
0.005882259 -0.009803772 0.69750476
0.0058975583 -0.011795074 0.69812036
0.005912961 -0.013796866 0.69874007
0.0059284205 -0.015809089 0.6993621
0.005943961 -0.017831862 0.69998747
0.0059596072 -0.019865334 0.70061696
0.0059753121 -0.021909475 0.70124888
0.0059911003 -0.023964375 0.70188421
0.0060069957 -0.026030332 0.70252377
0.0060229516 -0.028107107 0.70316577
0.0060390164 -0.030195028 0.70381212
0.0060551432 -0.032294065 0.70446098
0.0060713817 -0.034404486 0.70511448
0.0060876813 -0.036526054 0.70577025
0.0061040698 -0.038659096 0.70642972
0.0061205714 -0.04080379 0.70709366
0.0061371364 -0.042959958 0.70776021
0.0061538178 -0.045127958 0.70843142
0.0061705643 -0.047307611 0.70910519
0.0061874026 -0.049499214 0.70978278
0.0062043578 -0.051702946 0.71046495
0.0062213815 -0.05391863 0.71114993
0.0062385239 -0.056146711 0.71183974
0.0062557352 -0.058386832 0.71253228
0.0062730419 -0.060639381 0.71322864
0.0062904712 -0.062904656 0.71392989
0.0063079703 -0.065182388 0.71463406
0.0063255946 -0.067472994 0.71534312
0.0063432907 -0.069776148 0.71605521
0.0063610855 -0.072092295 0.71677125
0.0063790074 -0.074421734 0.71749234
0.0063970042 -0.076764047 0.71821648
0.0064151301 -0.079119921 0.71894574
0.0064333309 -0.081488818 0.71967816
0.0064516631 -0.083871573 0.72041577
0.0064700725 -0.08626765 0.72115654
0.0064885872 -0.088677347 0.72190148
0.0069676191 0.081869543 0.67108738
0.0069518876 0.079946727 0.67061269
0.0069678859 0.078388751 0.67109549
0.0069839819 0.076823801 0.67158121
0.0070001278 0.0752514 0.67206848
0.0070163491 0.073671699 0.67255795
0.0070326459 0.072084665 0.67304975
0.0070490181 0.070490181 0.67354381
0.0070654913 0.068888575 0.67404097
0.0070820171 0.06727916 0.67453969
0.0070986198 0.065662235 0.67504072
0.0071153012 0.06403771 0.67554414
0.0071320613 0.062405527 0.67604989
0.0071489001 0.060765684 0.67655802
0.0071658441 0.059118241 0.67706937
0.0071828435 0.057462782 0.67758238
0.007199923 0.055799425 0.67809778
0.0072170845 0.05412811 0.67861569
0.0072343275 0.052448869 0.67913604
0.0072516804 0.050761789 0.67965972
0.0072690891 0.049066365 0.68018502
0.0072866087 0.047363013 0.68071377
0.0073042661 0.045651704 0.68124664
0.0073219831 0.043931931 0.68178129
0.0073398123 0.042203963 0.68231928
0.0073577021 0.040467411 0.68285918
0.0073757065 0.038722456 0.68340254
0.0073937709 0.036968917 0.68394768
0.0074119521 0.035206795 0.68449634
0.0074204169 0.033391893 0.68475175
0.0074386736 0.031614393 0.68530273
0.0074570216 0.029828072 0.6858564
0.0074754595 0.028032988 0.68641287
0.007494017 0.026229084 0.68697286
0.0075126393 0.024416119 0.68753487
0.0075313542 0.022594064 0.68809962
0.0075501618 0.02076295 0.68866718
0.0075690928 0.018922746 0.68923849
0.0075880904 0.017073244 0.68981183
0.0076071834 0.015214413 0.69038796
0.0076263729 0.013346195 0.69096702
0.0076456591 0.0114685 0.69154906
0.0076650726 0.0095813572 0.69213492
0.0076845554 0.0076845884 0.69272286
0.0077041374 0.0057781041 0.69331384
0.0077238195 0.0038619339 0.6939078
0.0077436329 0.0019359291 0.69450569
0.0077635176 2.9802322e-08 0.69510579
0.0077835047 -0.001945883 0.69570899
0.0078035952 -0.0039017797 0.69631517
0.0078238193 -0.0058678389 0.69692558
0.0078441193 -0.0078440905 0.69753814
0.0078645237 -0.0098306239 0.69815391
0.0078850351 -0.011827499 0.69877285
0.0079056844 -0.013834953 0.69939601
0.007926411 -0.015852779 0.70002151
0.0079472475 -0.017881274 0.70065033
0.0079681929 -0.019920468 0.70128238
0.0079892818 -0.021970451 0.70191872
0.0080104498 -0.024031341 0.70255762
0.0080318274 -0.026103407 0.70320272
0.0080533512 -0.028186709 0.7038523
0.0080749579 -0.030281097 0.70450437
0.0080967145 -0.032386839 0.70516086
0.0081185875 -0.034503937 0.70582098
0.0081405472 -0.036632448 0.70648366
0.0081626587 -0.038772613 0.70715094
0.0081848903 -0.04092443 0.70782179
0.0082072103 -0.04308781 0.70849538
0.008229685 -0.045263261 0.70917356
0.0082522854 -0.047450632 0.70985562
0.0082749743 -0.049649835 0.71054029
0.0082978234 -0.051861376 0.71122986
0.0083207637 -0.054084957 0.71192217
0.0083438661 -0.056321084 0.71261936
0.0083670979 -0.05856964 0.71332043
0.0083904238 -0.060830563 0.71402431
0.0084139155 -0.063104331 0.71473324
0.0084375395 -0.065390885 0.71544617
0.0084612602 -0.067690045 0.71616197
0.0084851515 -0.070002466 0.71688294
0.0085091768 -0.072328001 0.71760803
0.0085333027 -0.074666381 0.71833611
0.0085576018 -0.07701838 0.71906936
0.0085820416 -0.07938388 0.71980691
0.0086065829 -0.081762522 0.72054756
0.008631302 -0.084155202 0.72129345
0.0086561637 -0.08656162 0.72204375
0.0086811325 -0.088981599 0.72279727
0.0087357992 0.082116544 0.67172182
0.0087144086 0.080172569 0.67120534
0.0087342141 0.078607917 0.67168343
0.0087544769 0.07703945 0.67217267
0.0087748347 0.075463593 0.67266417
0.0087952884 0.073880434 0.67315793
0.0088158362 0.072289884 0.67365402
0.0088364808 0.070691884 0.67415243
0.0088572223 0.069086343 0.67465311
0.0088780615 0.067473322 0.67515624
0.0088989986 0.065852642 0.67566174
0.0089200353 0.064224273 0.67616957
0.0089411708 0.062588215 0.67667985
0.0089624394 0.060944617 0.67719334
0.0089838747 0.059293598 0.67771083
0.0090053789 0.057634413 0.67822999
0.0090270201 0.05596754 0.67875242
0.0090487646 0.054292619 0.67927742
0.0090706144 0.052609593 0.67980492
0.0090925368 0.050918221 0.68033415
0.0091145989 0.049218833 0.68086678
0.0091367681 0.04751125 0.68140203
0.0091590453 0.045795262 0.68193984
0.009181398 0.04407075 0.68247944
0.009203895 0.042337924 0.68302256
0.009226501 0.040596604 0.68356836
0.0092492187 0.038846761 0.68411678
0.0092720138 0.037088066 0.68466717
0.0092949569 0.035320848 0.68522102
0.0093052937 0.033499062 0.68547052
0.0093283672 0.031716466 0.68602759
0.0093515897 0.029925108 0.68658829
0.0093748933 0.02812469 0.68715084
0.0093983486 0.026315361 0.68771708
0.0094218859 0.024496943 0.68828535
0.0094455769 0.022669405 0.68885732
0.0094693527 0.020832628 0.68943131
0.0094932839 0.018986553 0.69000906
0.009517299 0.01713115 0.69058883
0.0095414734 0.015266359 0.69117248
0.0095657343 0.013392001 0.69175816
0.0095901554 0.011508197 0.69234771
0.0096146651 0.009614706 0.6929394
0.0096393367 0.0077114999 0.69353503
0.009664136 0.0057984889 0.69413376
0.0096890256 0.003875643 0.69473469
0.00971408 0.0019428432 0.69533956
0.0097392276 -0 0.69594669
0.0097645447 -0.0019528866 0.69655782
0.0097899549 -0.0039159656 0.69717133
0.0098155355 -0.0058892965 0.69778889
0.0098412121 -0.0078729689 0.69840878
0.0098670619 -0.0098670423 0.69903284
0.0098930085 -0.011871606 0.69965929
0.0099191321 -0.01388678 0.70028996
0.0099453535 -0.015912503 0.70092297
0.0099717546 -0.017949134 0.70156038
0.0099982554 -0.019996494 0.70220011
0.010024939 -0.022054851 0.70284438
0.010051764 -0.024124205 0.70349193
0.010078693 -0.026204556 0.70414209
0.010105807 -0.028296232 0.70479661
0.010133027 -0.030399084 0.70545381
0.010160434 -0.03251335 0.70611548
0.01018795 -0.034639031 0.70677972
0.010215656 -0.036776334 0.70744866
0.010243471 -0.038925201 0.70812017
0.01027148 -0.041085869 0.70879638
0.010299685 -0.043258667 0.70947731
0.010328175 -0.045443952 0.71016508
0.010356821 -0.047641367 0.71085668
0.010385583 -0.049850792 0.71155113
0.01041455 -0.052072734 0.71225035
0.010443679 -0.054307103 0.71295357
0.01047297 -0.056554019 0.71366078
0.010502427 -0.058813572 0.71437192
0.01053205 -0.06108588 0.71508712
0.01056184 -0.063371003 0.71580625
0.010591799 -0.065669179 0.71652961
0.010621885 -0.067980051 0.71725595
0.010652185 -0.070304394 0.71798742
0.010682661 -0.072642088 0.71872312
0.010713311 -0.074993163 0.71946311
0.010744137 -0.077357769 0.72020733
0.01077514 -0.079735994 0.72095579
0.010806324 -0.082128018 0.72170866
0.010837689 -0.08453393 0.72246581
0.010869188 -0.086953461 0.72322631
0.010900919 -0.089387506 0.72399235
0.010524117 0.082438946 0.67254978
0.01049531 0.080464065 0.67197025
0.010517776 0.07888335 0.67242223
0.010542337 0.077310473 0.67291635
0.010567013 0.075730264 0.6734128
0.010591842 0.074142933 0.67391235
0.010616902 0.072548866 0.67441648
0.010642042 0.070946962 0.67492223
0.01066734 0.069337696 0.67543119
0.010692719 0.067720592 0.67594182
0.010718258 0.066095948 0.67645556
0.010743881 0.064463317 0.67697108
0.010769666 0.062823087 0.67748988
0.010795535 0.061174721 0.67801028
0.01082153 0.059518456 0.67853326
0.010847689 0.057854354 0.67905951
0.010873934 0.056181997 0.67958754
0.010900347 0.054501742 0.68011898
0.01092685 0.052813143 0.68065214
0.010953521 0.051116467 0.6811887
0.010980283 0.049411267 0.68172717
0.011007176 0.047697783 0.68226814
0.011034241 0.045976043 0.68281263
0.011061398 0.044245601 0.68335903
0.011088732 0.042506844 0.68390894
0.011116158 0.040759265 0.68446076
0.011143763 0.039003193 0.6850161
0.011171463 0.03723824 0.6855734
0.011199302 0.035464466 0.68613344
0.011210593 0.033631802 0.6863606
0.011238754 0.031843156 0.6869272
0.011267014 0.03004536 0.68749571
0.011295415 0.028238565 0.68806708
0.011324004 0.026422709 0.68864226
0.011352696 0.024597526 0.68921947
0.011381532 0.022763103 0.68979961
0.011410559 0.020919412 0.69038355
0.01143969 0.019066155 0.69096971
0.01146897 0.01720351 0.69155878
0.011498446 0.015331298 0.69215178
0.011528027 0.013449401 0.69274688
0.011557763 0.011557788 0.69334507
0.011587653 0.0096563995 0.69394642
0.011617741 0.0077451766 0.69455183
0.011647942 0.0058239698 0.69515938
0.0116783 0.0038927794 0.6957702
0.011708862 0.0019514859 0.69638503
0.011739538 -0 0.69700217
0.011770376 -0.0019617081 0.69762254
0.011801423 -0.0039338171 0.69824719
0.011832587 -0.0059162676 0.69887418
0.011863916 -0.0079092681 0.69950449
0.011895459 -0.0099128783 0.70013905
0.011927123 -0.011927128 0.7007761
0.011958955 -0.013952106 0.70141649
0.011991006 -0.015988022 0.7020613
0.012023181 -0.018034756 0.7027086
0.012055529 -0.020092517 0.70335943
0.012088051 -0.022161424 0.70401371
0.0121208 -0.024241567 0.70467252
0.012153676 -0.026332915 0.70533395
0.012186729 -0.028435707 0.70599902
0.012220016 -0.030550003 0.70666862
0.012253433 -0.032675803 0.70734096
0.012287034 -0.034813255 0.70801693
0.01232087 -0.036962569 0.70869762
0.012354841 -0.039123654 0.7093811
0.012389001 -0.041296631 0.7100684
0.012423403 -0.043481857 0.71076041
0.012457943 -0.045679092 0.71145535
0.012492728 -0.047888786 0.71215522
0.012527759 -0.050111026 0.71285999
0.012562988 -0.052345753 0.71356875
0.012598417 -0.054593146 0.7142815
0.012634045 -0.056853205 0.71499825
0.01266993 -0.059126288 0.71572018
0.012705964 -0.061412126 0.71644515
0.012742259 -0.063711256 0.71717536
0.012778761 -0.066023558 0.71790969
0.012815472 -0.068349153 0.71864831
0.01285245 -0.070688456 0.71939224
0.012889643 -0.07304129 0.72014046
0.012927051 -0.075407773 0.72089314
0.012964676 -0.077788055 0.72165012
0.013002522 -0.080182195 0.72241145
0.01233791 0.082840234 0.67358053
0.012300517 0.080831975 0.67293572
0.012324582 0.079229444 0.67335069
0.012353794 0.077652454 0.67385447
0.012383145 0.076067895 0.67436051
0.012412635 0.074475825 0.67486918
0.012442222 0.072875887 0.67537934
0.012471996 0.071268559 0.67589277
0.012501912 0.069653571 0.67640865
0.012531972 0.068030715 0.67692703
0.012562176 0.066400111 0.67744792
0.012592526 0.064761579 0.67797124
0.012623024 0.06311515 0.67849714
0.012653625 0.061460495 0.67902482
0.012684419 0.059798002 0.67955589
0.012715364 0.058127373 0.68008947
0.01274646 0.056448609 0.68062574
0.012777709 0.054761618 0.68116462
0.012809113 0.053066343 0.68170619
0.012840621 0.051362485 0.68224949
0.012872335 0.049650431 0.68279636
0.012904204 0.047929913 0.68334591
0.012936184 0.046200663 0.68389738
0.012968371 0.044463038 0.68445247
0.013000718 0.042716682 0.68501025
0.01303318 0.040961444 0.68557
0.013065852 0.039197594 0.68613344
0.015263483 0.043609977 0.72403026
0.015298417 0.041524261 0.72463262
0.013143517 0.033797622 0.68747276
0.013176695 0.032000571 0.68804491
0.015404117 0.035209447 0.72645533
0.015439631 0.033084959 0.72706777
0.015475173 0.030950338 0.72768068
0.015510809 0.028805763 0.72829521
0.01554661 0.026651353 0.72891253
0.015582577 0.024486929 0.72953284
0.01561878 0.022312582 0.73015714
0.015655082 0.020127952 0.7307831
0.015691552 0.01793319 0.73141199
0.015728192 0.015728205 0.73204386
0.015765077 0.013512909 0.7326799
0.015802061 0.011287212 0.73331773
0.015839223 0.0090509951 0.73395848
0.015876558 0.0068042576 0.73460233
0.01591414 0.0045469403 0.73525041
0.015684877 0.0022407472 0.7312969
0.015714291 -0 0.73180419
0.015743889 -0.0022491217 0.73231453
0.015779139 -0.0045083165 0.73292243
0.015814478 -0.0067776144 0.73353183
0.015850045 -0.0090571344 0.73414516
0.015885774 -0.011346936 0.7347613
0.015922533 -0.013647854 0.73539519
0.015959753 -0.01595974 0.73603696
0.015997147 -0.018282413 0.73668182
0.016034644 -0.020615935 0.73732841
0.016072318 -0.022960424 0.7379781
0.016110094 -0.025315851 0.73862952
0.016147973 -0.027682215 0.73928273
0.016186107 -0.030059874 0.73994029
0.01622442 -0.032448828 0.74060094
0.016263822 -0.034851044 0.7412805
0.016303414 -0.037264913 0.74196321
0.016343126 -0.039690435 0.74264807
0.016383106 -0.042127967 0.74333745
0.016423514 -0.044578075 0.74403429
0.016465284 -0.047043651 0.74475455
0.016507344 -0.049522042 0.74547988
0.016549541 -0.052012831 0.74620748
0.016591953 -0.054516405 0.74693894
0.016634664 -0.057033122 0.74767542
0.016677674 -0.0595631 0.74841708
0.016721785 -0.062109441 0.74917775
0.016766129 -0.064669341 0.74994242
0.01681063 -0.067242473 0.75070983
0.016855448 -0.069829673 0.75148267
0.016900506 -0.07243076 0.75225973
0.015548542 -0.068857819 0.72894597
0.015579527 -0.071220666 0.72948021
0.015614603 -0.073611706 0.73008507
0.015652983 -0.076028764 0.73074698
0.015691552 -0.078457743 0.73141199
0.015730312 -0.080898762 0.73208046
0.015770331 -0.083357424 0.73277044
0.015811123 -0.085831761 0.73347396
0.014185165 0.083337843 0.67485857
0.01413742 0.081290185 0.67413807
0.014161428 0.079658031 0.67450035
0.014195377 0.078074604 0.67501259
0.014229438 0.076483279 0.67552656
0.014263716 0.074884534 0.67604375
0.014298158 0.073278069 0.6765635
0.014332767 0.071663857 0.67708564
0.014367543 0.070041806 0.6776104
0.014402437 0.068411618 0.67813689
0.014437553 0.066773683 0.67866677
0.014472841 0.06512782 0.67919922
0.014508301 0.06347385 0.67973429
0.014544042 0.061812192 0.68027353
0.014579959 0.060142368 0.68081546
0.014616054 0.058464229 0.68136013
0.014652328 0.056777835 0.68190742
0.014688781 0.055082947 0.68245757
0.014725418 0.053379655 0.68301034
0.014762238 0.051667839 0.68356586
0.014799352 0.049947828 0.6841259
0.014836707 0.048219293 0.68468952
0.014874196 0.046481907 0.68525517
0.014911932 0.044735819 0.68582457
0.014949858 0.04298088 0.68639684
0.016904369 0.046487033 0.71588814
0.01694401 0.044477999 0.71648628
0.016983839 0.042459637 0.71708727
0.017023854 0.040431678 0.71769106
0.017063987 0.038393974 0.71829659
0.015693773 0.033349276 0.6976217
0.015721265 0.031442553 0.69803643
0.015752507 0.029535979 0.69850791
0.015785929 0.027625412 0.69901216
0.015819618 0.025706887 0.69952053
0.015854079 0.023781091 0.70004046
0.015889701 0.021848321 0.70057797
0.01592586 0.019907355 0.7011236
0.015962187 0.017957509 0.70167172
0.015998743 0.015998781 0.7022233
0.016035981 0.0140315 0.70278519
0.016073523 0.012055159 0.70335162
0.016111175 0.010069489 0.70391977
0.016149068 0.0080745816 0.70449156
0.016187141 0.0060701966 0.70506603
0.016225396 0.0040563643 0.70564318
0.016263828 0.0020329952 0.70622313
0.016302446 -0 0.70680583
0.016341245 -0.0020426214 0.70739126
0.016380366 -0.0040950477 0.70798147
0.01641974 -0.0061573684 0.70857561
0.016459439 -0.0082297027 0.70917469
0.016499331 -0.01031208 0.70977664
0.016539555 -0.01240465 0.71038347
0.01658011 -0.014507562 0.71099544
0.016621143 -0.016621113 0.71161455
0.016662309 -0.018745095 0.71223569
0.01670382 -0.020879745 0.71286201
0.016745606 -0.023025215 0.71349257
0.016787956 -0.025181919 0.71413159
0.016830521 -0.027349561 0.71477389
0.0168733 -0.02952823 0.71541935
0.016916299 -0.031718016 0.71606809
0.016959589 -0.033919156 0.71672136
0.0170031 -0.036131591 0.7173779
0.017046908 -0.038355529 0.71803886
0.017090725 -0.040590435 0.71870005
0.017134545 -0.042836368 0.71936131
0.017178299 -0.04509303 0.72002143
0.017221754 -0.047359794 0.72067714
0.017265061 -0.049637049 0.72133058
0.017307911 -0.051923722 0.72197717
0.017349998 -0.054218739 0.72261214
0.017391156 -0.056521207 0.7232331
0.017429927 -0.058825999 0.72381818
0.017463919 -0.061123699 0.72433108
0.017508605 -0.063468665 0.72500539
0.017553598 -0.065825969 0.72568429
0.017598823 -0.068195403 0.72636664
0.017644282 -0.070577085 0.72705251
0.017689897 -0.072970808 0.72774082
0.01773583 -0.075377226 0.72843391
0.017781921 -0.077795893 0.72912937
0.01782833 -0.080227464 0.72982961
0.017874984 -0.082671762 0.7305336
0.017921802 -0.085128576 0.73124003
0.016015293 0.081855953 0.67562282
0.016036166 0.080180854 0.67590272
0.016075378 0.078590751 0.67642868
0.016114956 0.076993704 0.67695951
0.016154671 0.075388491 0.6774922
0.016194642 0.073775649 0.67802823
0.016234752 0.072154462 0.67856622
0.016275119 0.070525527 0.67910767
0.01631563 0.068888217 0.67965102
0.016356401 0.06724298 0.68019783
0.016397316 0.065589309 0.68074656
0.016438497 0.063927501 0.68129891
0.016479827 0.062257111 0.68185329
0.016521424 0.060578585 0.68241113
0.016563172 0.058891326 0.68297106
0.016605191 0.057195663 0.68353468
0.016647425 0.055491418 0.6841011
0.016689872 0.053778499 0.68467045
0.01673254 0.052056819 0.68524265
0.016775422 0.050326288 0.68581784
0.016818529 0.048586875 0.68639606
0.016861917 0.046838671 0.68697798
0.01690547 0.045081258 0.68756211
0.016949246 0.043314755 0.68814921
0.017326239 0.042353034 0.6932056
0.017365191 0.04051879 0.69372803
0.017404251 0.038676143 0.69425189
0.01744288 0.036823869 0.69476998
0.017480459 0.034960955 0.69527406
0.017518062 0.033089727 0.69577837
0.017552409 0.031204313 0.69623899
0.017581603 0.029302686 0.6966306
0.017621918 0.027411908 0.69717133
0.017662419 0.025512427 0.69771451
0.01770304 0.023604065 0.69825935
0.017743915 0.021687001 0.6988076
0.017784981 0.019761086 0.6993584
0.017826168 0.01782617 0.69991076
0.017867614 0.015882343 0.70046669
0.017909255 0.013929427 0.70102519
0.017951019 0.011967361 0.70158535
0.017993048 0.0099961162 0.70214903
0.018035278 0.008015722 0.7027154
0.018077705 0.0060259402 0.70328438
0.018120257 0.0040267706 0.70385516
0.018163087 0.0020181239 0.70442963
0.018206116 -0 0.70500672
0.018249353 -0.0020277202 0.70558667
0.018292719 -0.0040650368 0.70616829
0.018336367 -0.0061121285 0.70675373
0.018380225 -0.0081689656 0.70734191
0.018424217 -0.010235667 0.707932
0.018468494 -0.012312293 0.7085259
0.018512987 -0.014398992 0.70912266
0.018557617 -0.016495645 0.70972121
0.018602541 -0.01860252 0.71032369
0.018647604 -0.020719498 0.71092808
0.018692965 -0.022846907 0.71153647
0.018738545 -0.024984717 0.71214783
