# .PCD v0.7 - Point Cloud Data file format
VERSION 0.7
FIELDS x y z
SIZE 4 4 4
TYPE F F F
COUNT 1 1 1
WIDTH 283
HEIGHT 1
VIEWPOINT 0 0 0 1 0 0 0
POINTS 283
DATA ascii
0.0057379268 -0.08415623 0.69169724
0.0057379268 -0.057379246 0.69169724
0.0057379268 -0.055466622 0.69169724
0.0057379268 -0.051641315 0.69169724
0.0038315679 -0.042147219 0.6920765
0.0076649846 -0.005748719 0.69213235
0.0076649846 0.0019162893 0.69213229
0.0038315824 0.0076631904 0.6920774
0.0038315824 0.03640008 0.6920774
0.0038315824 0.03640008 0.6920774
0.0076650139 0.04215759 0.69213319
0.0019283949 0.013498753 0.69359875
-0.0019345011 -0.083183527 0.69433582
-0.0058123125 -0.077497482 0.69469029
-0.0038704835 -0.071603924 0.69442528
-0.0038704835 -0.071603924 0.69442528
-0.0038704386 -0.065797418 0.69442254
-0.0038704386 -0.065797418 0.69442254
-0.0019344337 -0.059967428 0.69432771
-0.0058121099 -0.054246336 0.69468218
-0.0019343814 -0.044490755 0.69432139
-0.0038703489 -0.040638655 0.69441712
0.0096623441 -0.03864935 0.69409049
-0.0038703338 -0.030962616 0.69441617
-0.0058118165 -0.019372731 0.69467038
-0.0058117947 -0.017435342 0.69466943
0.0096623441 -0.015459746 0.69409055
-0.0058117718 -0.011623532 0.69466859
-0.0058117947 -0.0058117807 0.69466949
-0.0058117947 -0.0038745105 0.69466949
-0.0019342467 2.9802322e-08 0.69430512
0.0096623441 0.0019325018 0.69409049
-0.0058118394 0.0096864402 0.69467127
-0.0058118617 0.01937288 0.69467223
0.0096623441 0.027054578 0.69409055
-0.0038702141 0.040637255 0.69440895
-0.0038753098 0.04844141 0.69471657
0 0.0484249 0.69463682
-0.0038752949 0.050378829 0.69471562
0 0.058109194 0.69463414
-0.0058195456 0.062075198 0.69498128
-0.0058194776 0.079532862 0.69497865
-0.0058194776 0.079532862 0.69497865
-0.0097282836 -0.0019456744 0.69568247
-0.0077635176 0.011645287 0.69510579
0.003882753 0.048534453 0.69516575
0.0058368566 0.077824771 0.69567788
-0.011728989 0.060599774 0.69678998
-0.011728989 0.060599774 0.69678998
0.0097947065 0.05485037 0.69728607
0.0097946301 0.068562448 0.69728422
-0.013743151 0.072642386 0.69781309
-0.013743314 0.080496579 0.6978159
-0.013743421 0.088350594 0.69781768
0.011810152 0.047240615 0.69842279
0.011809594 0.080698907 0.69841158
0.013839267 -0.081058532 0.69947052
0.013839322 -0.0098851919 0.69947147
-0.017886918 0.055648208 0.70072562
0.015934737 -0.081665516 0.70125747
0.015934737 -0.069714427 0.70125759
0.015934737 -0.069714427 0.70125759
0.015934737 -0.015934706 0.70125747
0.015934737 0.023902118 0.70125759
0.015934737 0.025893956 0.70125753
0.015934737 0.035853177 0.70125753
-0.020009546 -0.0620296 0.70235753
-0.020009546 -0.0620296 0.70235753
-0.020008987 -0.036016166 0.70235074
-0.020008747 -0.006002605 0.70234782
0.018142086 0.044347316 0.70414799
0.018141501 0.070550263 0.70414019
-0.022266325 -0.074895799 0.70516479
-0.022266865 -0.022266865 0.70517075
0.02039093 -0.079524577 0.70696115
0.02039093 -0.0040781498 0.70696115
-0.02454333 -0.081811041 0.7077077
-0.024543028 -0.059312314 0.70770472
-0.024542928 -0.049085826 0.70770371
-0.024542728 -0.028633177 0.70770168
-0.024542527 -0.01431644 0.70769966
-0.024542425 0.002045244 0.70769864
-0.024542026 0.038858205 0.70769465
0.020449933 0.081799746 0.70767343
-0.026647646 -0.051245451 0.70825589
-0.026647646 -0.04509601 0.70825595
-0.026647646 0.0020498335 0.70825595
-0.026647646 0.0040996969 0.70825595
-0.026647646 0.016398549 0.70825589
-0.028945057 0.0020675361 0.71039069
-0.028945176 0.026877642 0.71039176
0.023043238 -0.02932775 0.7136904
-0.016045736 -0.038968235 0.73751974
-0.016045736 -0.020630181 0.73751974
-0.016045736 0.016045779 0.73751974
-0.013830088 -0.076065481 0.73906088
-0.013830088 -0.071455449 0.73906076
-0.013830088 -0.069150388 0.73906076
-0.013830088 -0.053015292 0.73906082
-0.013830088 -0.046100289 0.73906082
-0.013830088 -0.02535516 0.73906082
-0.013830153 -0.016135156 0.73906201
-0.013830153 -0.004610002 0.73906213
-0.013830153 0.011525154 0.73906207
-0.013830153 0.029965341 0.73906207
-0.013830153 0.05532065 0.73906207
-0.013830153 0.057625622 0.73906213
-0.013830153 0.057625622 0.73906213
0.0057379268 -0.063117176 0.69169724
0.0057379268 -0.053553969 0.69169724
0.0057379268 -0.045903385 0.69169724
0.0057379268 -0.017213732 0.69169724
0.0057379268 0.028689682 0.69169724
0.0019283949 -0.084849343 0.69359875
0.0076649846 -0.072817326 0.69213229
0.0019283949 -0.067493796 0.69359875
0.0038315679 -0.036399901 0.6920765
0.0019283949 -0.025069088 0.69359875
0.0038315679 -0.024905175 0.6920765
0.0038315824 -0.0019157529 0.69207734
0.0038315824 0.0057474077 0.6920774
0.0076649846 0.017246246 0.69213223
0.0019283949 0.025069147 0.69359875
0.0038315824 0.028736889 0.69207734
0.0076650139 0.028743804 0.69213319
0 -0.077372551 0.69431329
0 -0.077372551 0.69431329
-0.0097279055 -0.075877666 0.69567329
0.0096623441 -0.067636371 0.69409055
-0.0019344413 -0.063836545 0.69432861
0 -0.061898023 0.69431329
-0.0019343963 -0.048359871 0.69432318
-0.0077639688 -0.036878854 0.69511944
-0.0077639394 -0.03493768 0.69511849
0.0096623441 -0.034784406 0.69409049
0.0096623441 -0.02898702 0.69409055
-0.0038703189 -0.027092189 0.69441533
0 -0.017408818 0.69431323
-0.0019342917 -0.01354003 0.69431055
-0.007763728 -0.011645585 0.69511211
-0.0019342692 -0.0058027804 0.69430786
-0.0097283032 0.00097285211 0.69568288
-0.0019342393 0.0038685203 0.69430423
-0.0019342393 0.0038685203 0.69430423
0 0.0038686395 0.69431329
0.0096623441 0.011594832 0.69409055
0.0096623441 0.013527334 0.69409049
-0.0097284345 0.025293946 0.6956861
0.0096623441 0.027054578 0.69409055
-0.0058119074 0.034871429 0.69467402
-0.0038702141 0.036767036 0.69440901
0.0096623441 0.036716938 0.69409055
0.0038827828 0.054358959 0.6951676
0.005836925 0.060314924 0.69568062
0.0038828128 0.062125057 0.69516945
-0.0019366575 0.065846384 0.69459617
-0.001936635 0.0755288 0.69459343
-0.0077735884 0.083566099 0.69540972
-0.0058194776 0.083412528 0.69497859
0.00096929667 0.083325341 0.69473374
-0.0097418455 0.0448125 0.69600981
0.0097947456 0.047014803 0.69728696
0.0078058778 0.048786759 0.69638407
0.0097946683 0.062685937 0.69728512
-0.011728989 0.064509481 0.69678992
-0.011728989 0.064509481 0.69678992
-0.0097418455 0.075012222 0.69600987
0.0078057256 0.076105833 0.69637948
-0.011728989 0.086990014 0.69678998
0.013839267 -0.083035618 0.69947052
0.011791782 -0.078611881 0.69805324
0.011791782 -0.078611881 0.69805324
0.013839267 -0.07117337 0.69947052
0.013839267 -0.057334065 0.69947052
0.013839267 -0.039540768 0.69947052
0.013839322 -0.017793417 0.69947147
0.013839322 -0.017793417 0.69947147
0.011791736 -0.0039305687 0.69805235
0.013839322 0.015816391 0.69947147
0.013839322 0.033609807 0.69947147
0.013862052 0.047527045 0.69986343
0.011809547 0.086603373 0.69841063
0.015934737 -0.063738912 0.70125753
-0.01785472 -0.053564131 0.70029372
0.015934737 0.0039837062 0.70125747
0.015934737 0.0039837062 0.70125747
0.015934737 0.0079673827 0.70125747
0.015934737 0.035853177 0.70125753
0.015964797 0.045898825 0.70171106
0.015964733 0.049889803 0.70171016
0.015964417 0.065853238 0.70170534
0.015964225 0.075830102 0.70170248
0.015964162 0.079820812 0.70170152
-0.020009946 -0.078038752 0.7023623
-0.020008987 -0.038017064 0.70235074
0.018101247 -0.0080449581 0.70360017
-0.020048672 0.046111971 0.70282972
-0.020049395 0.072177857 0.70283848
-0.020049958 0.088219851 0.70284534
-0.022266325 -0.054653704 0.70516485
-0.022267044 -0.014169931 0.70517272
-0.022267044 -0.014169931 0.70517272
-0.022267856 0.018219173 0.70518166
-0.022268035 0.024292439 0.70518357
-0.022268217 0.03441456 0.70518553
-0.022319237 0.050725579 0.70574546
-0.022318963 0.058840901 0.70574248
-0.022318963 0.058840901 0.70574248
-0.024543028 -0.059312314 0.70770472
-0.024543028 -0.055221796 0.70770472
0.02039093 -0.055055499 0.70696121
-0.024542425 -0.0020451844 0.7076987
-0.024542026 0.032722712 0.70769453
-0.026647646 -0.077893078 0.70825589
-0.026647646 0.026647687 0.70825589
-0.028945057 -0.068227619 0.71039075
-0.028945057 -0.02274251 0.71039069
-0.028945176 0.039282769 0.71039176
-0.017966526 -0.058391184 0.73191482
-0.017966526 0.0022458434 0.73191488
-0.017966526 0.0022458434 0.73191488
-0.016045736 -0.011461198 0.73751968
-0.016045736 0.029799223 0.73751974
-0.016045736 0.052721709 0.73751968
-0.013830088 -0.043795258 0.73906076
-0.013830088 -0.039185226 0.73906082
-0.013830088 -0.02535516 0.73906082
-0.013830153 0.013830155 0.73906207
0.0057379268 -0.0066942275 0.69169724
0.0057379268 0.010519534 0.69169724
-0.0029025334 -0.085135303 0.69438326
0.0076649846 -0.085272923 0.69213223
0.0096623441 -0.070535108 0.69409049
0.0019199876 -0.045743786 0.69332951
-0.0067879399 -0.033935092 0.69489694
0.0076649846 -0.025869295 0.69213223
0.0076649846 0.022036865 0.69213223
0.0024260192 0.053338222 0.69494784
-0.0067965239 0.070625849 0.69519389
0.0024261056 0.086313523 0.69495487
0.011791782 -0.061906829 0.69805324
0.011791782 -0.050115049 0.69805324
0.011791736 -0.018670231 0.69805229
0.013839322 0.006919682 0.69947147
0.011791736 0.03439258 0.69805229
-0.010404302 0.050064545 0.69627178
0.010802282 0.061854213 0.69785142
-0.01785472 -0.062491521 0.70029372
0.018101247 -0.061343104 0.70360023
-0.01785472 -0.058523804 0.70029378
0.018101247 -0.049275607 0.70360029
-0.01785472 -0.046620652 0.70029378
-0.01785472 -0.042652935 0.70029372
-0.01785472 -0.034717485 0.70029372
0.018101247 -0.0090505779 0.70360017
0.018101247 -0.0090505779 0.70360017
-0.020008825 -0.0020008683 0.70234883
0.015934737 0.0069714785 0.70125747
-0.020009426 0.017008036 0.70235604
0.015934737 0.022906199 0.70125753
0.018101247 0.021118164 0.70360023
0.018101247 0.025140628 0.70360029
-0.01788706 0.050680012 0.70072746
-0.017887309 0.078505442 0.7007308
0.015964193 0.082814261 0.701702
-0.024542827 -0.033746392 0.70770276
-0.024542527 -0.013293847 0.70769966
-0.024542527 -0.013293847 0.70769966
-0.024542125 0.029655084 0.7076956
0.018141463 0.089699507 0.70413959
-0.026647646 -0.050220549 0.70825589
-0.024822973 0.054817423 0.71052074
-0.017966526 -0.074111909 0.73191476
-0.017966526 -0.050530851 0.73191488
-0.017966526 -0.050530851 0.73191488
-0.017966526 -0.025826871 0.73191488
-0.017966526 0.0056145638 0.73191488
-0.017966526 0.014597818 0.73191488
-0.017966526 0.038178891 0.73191482
-0.013830088 -0.046100289 0.73906082
-0.013830121 -0.021897659 0.73906142
-0.016045736 -0.01031509 0.73751974
-0.013830153 0.017287701 0.73906207
