# .PCD v0.7 - Point Cloud Data file format
VERSION 0.7
FIELDS x y z
SIZE 4 4 4
TYPE F F F
COUNT 1 1 1
WIDTH 273
HEIGHT 1
VIEWPOINT 0 0 0 1 0 0 0
POINTS 273
DATA ascii
-0.0090907533 0.069089741 0.68029112
-0.0036437686 0.083806664 0.68074179
-0.010966245 0.062142044 0.6814447
-0.010966245 0.062142044 0.6814447
-0.0054758615 0.080312669 0.68115252
0 0.080467939 0.68157858
-0.0055398638 0.060938537 0.68372786
-0.0036884781 0.06639263 0.68344021
0.0018444227 0.070088089 0.68346244
0.0018551798 0.061220944 0.68476093
-0.0074394201 0.037197113 0.68532532
-0.0074394201 0.037197113 0.68532532
-0.005575296 0.04831925 0.68515348
0 0.052185744 0.68579859
-0.0037155808 0.055733711 0.685076
0.0074313823 0.072456002 0.68508267
0.0074313823 0.072456002 0.68508267
-0.0056207236 0.031850755 0.68698132
-0.013093204 0.044891 0.68660516
0.0056039784 0.05790782 0.68630755
0.0093506817 0.069195032 0.68656629
0.011201182 0.082141995 0.68617129
-0.018802207 0.071448416 0.6877836
-0.0075474288 0.015094876 0.68858474
-0.011296095 0.026357561 0.68808079
0.0075303623 0.050829947 0.6880697
0.013199638 0.077312171 0.6884405
-0.011373168 0.01895532 0.68963134
-0.0037967802 0.020882308 0.68997687
-0.0037929525 0.022757739 0.68974584
-0.0037929525 0.022757739 0.68974584
0.0056743952 0.03782931 0.68914092
0.0075809914 0.039800227 0.68959755
0.0075640585 0.04349336 0.68908656
0.01137601 0.054984123 0.68968856
-0.022768155 0.079688549 0.68985093
-0.022768155 0.079688549 0.68985093
-0.022687288 0.083186746 0.68903738
0.0057143145 0.02666682 0.69074714
-0.017109334 0.051328063 0.69029641
-0.017109334 0.051328063 0.69029641
0.013290294 0.064552844 0.69000381
0.01519029 0.081647843 0.69002473
-0.01526595 0.040073127 0.69116628
-0.0057652756 -0.011530548 0.69279772
0 0.0076799095 0.69258231
0.011522233 0.032646388 0.69263029
0.011522233 0.032646388 0.69263029
-0.017244631 0.042153537 0.69211102
-0.017244631 0.042153537 0.69211102
-0.021077901 0.059401333 0.69212341
0.011572332 0.025073409 0.69363827
-0.015406793 0.028887749 0.69329143
-0.0058010365 -0.021270454 0.69423658
0.0019332379 -0.001933217 0.69418335
0.0058098151 5.9604645e-08 0.69458979
0.0096632401 0.013528585 0.69411218
0.001945513 -0.011673063 0.69566512
0.011648349 0.01358974 0.6951676
-0.019425521 0.034965962 0.69530767
0.017500091 0.056389213 0.69553733
0.019452028 0.079753339 0.69562769
-0.0097415037 -0.021431297 0.69600165
0.0097636301 -0.0039054453 0.69653577
0.0097636301 -0.0039054453 0.69653577
0.017624263 0.041123301 0.6972028
0.021572342 0.07060042 0.69754928
0.0019705447 -0.031528682 0.6986866
0.011805925 -0.0098382235 0.69833773
0.0137848 -0.0019692481 0.69853127
0.021673687 0.063050747 0.69866139
0.021673687 0.063050747 0.69866139
0.0039783628 -0.043761969 0.70093632
0.0099131186 -0.02973935 0.70014477
0.015893549 -0.005960077 0.70063603
0.017837534 0.01585561 0.70006323
-0.021824859 0.023808926 0.7003203
0.019836141 0.043639511 0.70026428
-0.0019931591 -0.045842618 0.70141649
0.0019913425 -0.045800835 0.70119721
0.017925151 0.0059750676 0.70123839
0.017925151 0.0059750676 0.70123839
-0.0060115661 -0.048092514 0.70270765
0.0080057709 -0.048034608 0.70241642
-0.0060028154 -0.046021551 0.70235556
0.020002268 0.024002761 0.70226961
0.0080553927 -0.058401585 0.70391393
0.012071428 -0.046273798 0.70367932
0.016115455 -0.032230884 0.70398438
-0.022089474 0.012048841 0.70322418
-0.0040327767 -0.060491621 0.70422047
0.006069663 -0.068789452 0.70504522
0.014198428 -0.052736998 0.70566404
-0.012155005 -0.046594143 0.70536071
-0.018277351 -0.024369776 0.70596218
0.024339473 0.020282894 0.70565712
0.010170637 -0.07119444 0.70636177
0.012187175 -0.062967062 0.70600796
-0.010156062 -0.056873918 0.70600992
-0.018347349 -0.028540313 0.70690101
-0.018347349 -0.028540313 0.70690101
0.024394652 0.016263157 0.70621216
-0.0061195726 -0.07343486 0.70705354
-0.0061195726 -0.07343486 0.70705354
0.014281042 -0.063244581 0.70708865
-0.016360147 -0.042945385 0.70767647
0.0082004173 -0.088154495 0.7082904
0.020566773 -0.039076865 0.7090838
-0.010390371 -0.087279081 0.71166664
0.016601978 -0.085085124 0.71132541
-0.02170217 -0.067276716 0.72278929
-0.028311428 0.0021778345 0.72370487
-0.026183655 -0.013091832 0.72420812
-0.010857755 0.075098947 0.67926204
-0.01083782 0.077671081 0.67886102
-0.0072600977 0.079861134 0.6799137
-0.010936881 0.065621316 0.68085396
-0.0036570714 0.07862705 0.68154466
-0.0092284959 0.047064766 0.68361646
-0.011080062 0.048936278 0.68373454
-0.0055138185 0.068922251 0.68267989
-0.0093050171 0.035359085 0.68546391
-0.0055802497 0.046502113 0.6853528
0.0012418565 0.05522757 0.68553936
-0.0055500031 0.057350039 0.68413579
-0.014845676 0.070516974 0.68482488
0.0092821969 0.081683367 0.68491292
-0.0056431219 0.024453551 0.6878826
0.0037607944 0.04324913 0.68780494
-0.015033856 0.058256209 0.68766427
0.0093952809 0.061068848 0.68764305
0.011258858 0.073182583 0.68733162
-0.011353811 0.020815343 0.68924195
-0.0056550913 0.020735323 0.68836421
-0.011315254 0.024516404 0.68846625
0.0037966939 0.028475225 0.68997163
-0.0018837033 0.035790384 0.68820405
0.0075809914 0.039800227 0.68959755
0.005655006 0.043355048 0.68836075
0.0094721848 0.047360957 0.68949968
-0.020726589 0.07725367 0.68826824
-0.005744624 -0.0057446361 0.69196677
-0.0038290021 0.003829062 0.69192159
-0.0019147794 0.011488706 0.69195527
0.0057277679 0.022911072 0.69128847
-0.013346 0.032411754 0.69096446
0.0095453328 0.03436318 0.69126564
0.015317884 0.065101027 0.6919499
0.015317884 0.065101027 0.6919499
-0.0038343433 0.00095814466 0.69224405
0.0057684882 0.011536986 0.692927
0.0057548652 0.015346318 0.69237876
-0.013512095 0.019303024 0.6938287
-0.021205045 0.053011805 0.69351864
-0.021114044 0.057583779 0.69252008
0.017337246 0.077054411 0.69335318
0.017310254 0.080781221 0.6929912
-0.0077437824 -0.021295369 0.69451022
-0.001940202 -0.0097009838 0.69502401
0.0077484292 0.0038742423 0.69465041
0.0096853869 0.009685427 0.69464684
-0.015576216 0.015576243 0.69584787
0.011610193 0.01935035 0.69439995
0.01557155 0.033089578 0.69577742
-0.019425521 0.034965962 0.69530767
0.015509468 0.040712386 0.69484073
-0.0058702515 -0.039134979 0.6970216
0.00098023063 -0.023522943 0.69744354
0.0078498414 -0.017662108 0.69771087
-0.017671846 0.013744801 0.69784099
-0.015601289 0.013651162 0.69622618
0.0098894499 -0.02571255 0.69957334
0.0098776584 -0.023706347 0.69928867
-0.017821722 0.0039604008 0.6998511
0.019683121 0.059049368 0.69841719
0.023642998 0.074869514 0.69865108
0.015859984 -0.0019824803 0.70012957
0.017907545 0.0079589486 0.70100224
0.017907545 0.0079589486 0.70100224
0.0040160907 -0.058233291 0.70321339
-0.0020015149 -0.052039385 0.70242512
0.010047243 -0.050236195 0.70338279
-0.010060738 -0.044267207 0.70370859
0.010010858 -0.044047773 0.7025044
0.010010858 -0.044047773 0.7025044
-0.01408305 -0.032189816 0.70367438
0.0060854107 -0.073024929 0.70567894
-0.0040561678 -0.068954855 0.70563233
-0.0020184382 -0.064589977 0.70446789
0.0080758054 -0.0625875 0.70452988
0.008065586 -0.06049189 0.70422149
0.010083892 -0.056469768 0.70426762
-0.010108053 -0.050540239 0.70485085
0.01416604 -0.048569262 0.70510548
0.018195523 -0.0242607 0.70486468
-0.018175036 -0.018174976 0.70458984
-0.020306025 -0.012183577 0.70593631
-0.020183485 -0.006055057 0.70445716
-0.022184921 0.0080672801 0.70427155
-0.024241304 0.022221178 0.70466959
0.0081898812 -0.085993707 0.70797241
0.0061091874 -0.079419374 0.70663559
-0.012194305 -0.050809562 0.70615137
0.016303839 -0.050949484 0.70682681
0.018309677 -0.036619335 0.70639569
-0.018312283 -0.026451051 0.70643067
-0.018312283 -0.026451051 0.70643067
0.020351617 -0.016281277 0.70648664
0.024506066 0.0081687272 0.70733291
0.010273505 -0.088352114 0.70884526
-0.0082549397 -0.084613115 0.70993578
-0.0061570238 -0.082093626 0.70856047
0.0143997 -0.078169793 0.70913482
0.016432276 -0.065729082 0.70876485
-0.012296294 -0.061481476 0.7082032
-0.01845336 -0.034856349 0.70832282
-0.01845336 -0.034856349 0.70832282
0.024686318 -0.0041143596 0.70914602
0.024686318 -0.0041143596 0.70914602
-0.010390371 -0.087279081 0.71166664
-0.010338631 -0.080641299 0.71041751
-0.012422116 -0.074532688 0.71073461
-0.01450123 -0.066291332 0.7108857
0.01861692 -0.066193491 0.71051657
0.02073158 -0.051828951 0.71107328
0.022840319 -0.029069483 0.71146369
0.024961878 -0.022881687 0.71191794
0.024961878 -0.022881687 0.71191794
0.02096314 -0.075467288 0.71386838
0.023298014 -0.072012037 0.71648633
-0.019372141 -0.081793487 0.72064584
-0.0073792469 0.050269842 0.68350935
-0.0027589905 0.0703559 0.68285728
-0.0065495688 0.029947456 0.68677443
-0.0065053729 0.041835532 0.68526769
0.010220636 0.085459724 0.68507951
0.010220636 0.085459724 0.68507951
-0.0028482215 0.021843784 0.6901114
0.0028286302 0.038328286 0.68836039
-0.017183512 0.04629796 0.69129133
0.013364591 0.054412529 0.69128501
0.013364591 0.054412529 0.69128501
0.014297122 0.065747708 0.69086456
-0.0038719447 -0.01839225 0.69451344
-0.0028985559 -0.010640793 0.69434822
-0.0019207045 0.0067218989 0.69267046
0.010602757 0.022164173 0.69347429
-0.019167526 0.049835563 0.69219345
-0.021675028 0.030541137 0.69867611
0.0010056414 -0.06135565 0.70364714
-0.0050230925 -0.053232491 0.70329809
-0.0090447515 -0.045216292 0.70340949
-0.014048068 -0.029100388 0.70307112
-0.017932268 -0.0029895902 0.70133382
0 -0.088035792 0.70795733
-0.0020474116 -0.085991263 0.70796537
0.0010138 -0.074029401 0.70564437
0.012268133 -0.074631751 0.70763671
0.013482794 -0.049879085 0.70491564
0.013482794 -0.049879085 0.70491564
0.017239692 -0.037513785 0.70559126
0.017239692 -0.037513785 0.70559126
0.017239692 -0.037513785 0.70559126
0.022182425 0.025206745 0.70424414
-0.0020519129 -0.089258924 0.70850873
0.0092428541 -0.08933717 0.70872605
0.013084772 -0.089519642 0.71018851
-0.012411546 -0.073435858 0.71052194
0.014365504 -0.073879719 0.70854515
-0.02483834 0.005172953 0.71067536
0.023166124 -0.057915732 0.71503896
-0.02297513 -0.021932244 0.71294308
0.023351345 -0.077484459 0.71707153
