# .PCD v0.7 - Point Cloud Data file format
VERSION 0.7
FIELDS x y z
SIZE 4 4 4
TYPE F F F
COUNT 1 1 1
WIDTH 1334
HEIGHT 1
VIEWPOINT 0 0 0 1 0 0 0
POINTS 1334
DATA ascii
-0.031456348 0.052427262 0.67177188
-0.031211186 0.050284714 0.67012775
-0.031023901 0.048259407 0.66887176
-0.030879557 0.046319366 0.66790384
-0.030784776 0.044466913 0.66726816
-0.030694233 0.042630911 0.66666102
-0.030139968 0.040186614 0.66294402
-0.029992923 0.038324296 0.66195792
-0.029975355 0.036636591 0.66184008
-0.030031729 0.035037041 0.66221815
-0.030147132 0.033496797 0.66299206
-0.030334061 0.032019287 0.66424561
-0.030563926 0.030563951 0.66578716
-0.030690676 0.028985679 0.66663718
-0.030759228 0.027341545 0.66709685
-0.0308284 0.025690347 0.66756082
-0.030908702 0.024040133 0.66809922
-0.03100073 0.022389412 0.66871643
-0.031107374 0.020738274 0.66943157
-0.031226443 0.019082844 0.67023009
-0.03135898 0.017421693 0.67111886
-0.031505976 0.015752971 0.67210472
-0.031669158 0.01407519 0.67319894
-0.031850591 0.012386352 0.67441571
-0.032052811 0.010684282 0.67577183
-0.0322797 0.0089665949 0.67729336
-0.032536246 0.0072303116 0.67901385
-0.032828819 0.005471468 0.68097591
-0.033167697 0.0036853254 0.68324846
-0.033574607 0.0018652678 0.68597722
-0.03396881 2.9802322e-08 0.68862081
-0.034137089 -0.0018965006 0.6897493
-0.034309004 -0.0038120747 0.69090217
-0.034671955 -0.0057786405 0.69333613
-0.032420855 0.059120387 0.69102937
-0.031026261 0.054752231 0.68112683
-0.029829001 0.050884783 0.67262554
-0.02960599 0.048762828 0.67104208
-0.029438462 0.046755224 0.6698525
-0.029305903 0.044820845 0.66891122
-0.029218825 0.042968869 0.66829294
-0.029123288 0.041115224 0.66761452
-0.028582795 0.038670868 0.6637767
-0.028470671 0.036844403 0.66298056
-0.028474199 0.035174012 0.66300559
-0.028538203 0.033574402 0.66346008
-0.028659549 0.032031298 0.66432166
-0.028852616 0.030549824 0.66569263
-0.029055245 0.029055268 0.66713136
-0.029162828 0.027447373 0.66789526
-0.029222943 0.025784969 0.66832215
-0.029292177 0.024122983 0.66881377
-0.029372083 0.022461057 0.66938114
-0.029462935 0.020797372 0.6700263
-0.029565549 0.019130677 0.67075491
-0.029683061 0.017460644 0.67158931
-0.029813632 0.015783727 0.67251641
-0.029958431 0.014098108 0.67354459
-0.030119248 0.012402028 0.67468649
-0.03029798 0.010693431 0.67595553
-0.030497532 0.0089699328 0.67737252
-0.030721463 0.0072285831 0.67896259
-0.030974966 0.0054661632 0.68076265
-0.031264603 0.0036782026 0.68281925
-0.031604849 0.0018590987 0.6852352
-0.032020424 -0 0.68818605
-0.032324508 -0.0019014478 0.69034523
-0.032459084 -0.0038187206 0.69130075
-0.032659985 -0.0057635009 0.69272733
-0.029226346 0.054799408 0.68131667
-0.029386407 0.05326286 0.68252426
-0.028190909 0.049334139 0.67350483
-0.027986709 0.047227591 0.67196429
-0.02783801 0.045236796 0.67084247
-0.027719934 0.043312401 0.66995162
-0.027637158 0.041455775 0.66932714
-0.027525697 0.039568216 0.66848624
-0.027012646 0.037142396 0.66461563
-0.026941739 0.035361052 0.66408062
-0.026955528 0.033694416 0.66418469
-0.027026052 0.032093465 0.66471672
-0.027152363 0.030546427 0.66566968
-0.027350314 0.029059738 0.66716313
-0.027526641 0.027526677 0.66849339
-0.027611516 0.02588582 0.66913372
-0.027668295 0.024209797 0.6695621
-0.027737221 0.022536516 0.67008203
-0.027816439 0.020862341 0.67067975
-0.027906131 0.019185483 0.67135638
-0.028007075 0.017504454 0.67211795
-0.028120009 0.015817493 0.67296994
-0.028247604 0.014123797 0.67393261
-0.028389748 0.012420565 0.67500496
-0.028547572 0.010705352 0.67619574
-0.028722921 0.0089759231 0.67751861
-0.028918808 0.0072297156 0.6789965
-0.029139008 0.0054636002 0.68065774
-0.029388348 0.0036735237 0.68253887
-0.029678036 0.0018548667 0.68472433
-0.030021597 2.9802322e-08 0.6873163
-0.030423531 -0.0019014478 0.69034868
-0.030633776 -0.003829211 0.69193488
-0.030763026 -0.0057680607 0.69291002
-0.0310056 -0.0077514052 0.69474006
-0.027565744 0.053293824 0.68265289
-0.027725618 0.051754534 0.68393946
-0.026543569 0.047778487 0.67442703
-0.02635316 0.045678824 0.67289478
-0.026222326 0.043703914 0.67184186
-0.026118025 0.041788846 0.67100257
-0.026039639 0.039927483 0.67037177
-0.025889637 0.037971467 0.66916466
-0.025443172 0.035620451 0.66557175
-0.025395993 0.033861339 0.66519207
-0.025418958 0.032197386 0.66537684
-0.025495116 0.03059414 0.66598976
-0.025624989 0.029041678 0.66703486
-0.025825763 0.027547538 0.66865057
-0.025974846 0.02597487 0.66985035
-0.026041085 0.024305046 0.67038339
-0.026096683 0.022617161 0.67083073
-0.026163183 0.020930558 0.67136592
-0.026241211 0.019243538 0.67199385
-0.026329493 0.017553002 0.67270434
-0.02642851 0.0158571 0.67350113
-0.026539253 0.014154285 0.67439234
-0.026662476 0.012442499 0.67538393
-0.026799759 0.010719925 0.6764887
-0.026953461 0.0089845359 0.67772555
-0.027124807 0.0072332621 0.67910451
-0.027316229 0.0054633021 0.68064493
-0.02753308 0.0036710799 0.68239003
-0.027781447 0.0018520951 0.68438876
-0.028069353 2.9802322e-08 0.68670565
-0.028411821 -0.0018940866 0.68946159
-0.028764842 -0.0038352907 0.69230253
-0.028914668 -0.005782932 0.69350821
-0.029060097 -0.0077493489 0.69467849
-0.029366991 -0.0097889602 0.6971482
-0.025892355 0.051784724 0.68406975
-0.02604349 0.050226748 0.68537289
-0.024884356 0.046213835 0.67537856
-0.024709854 0.044124752 0.67387396
-0.024591101 0.04215619 0.67285007
-0.024499934 0.040249944 0.67206401
-0.024427058 0.038385391 0.67143571
-0.024066696 0.03610009 0.66832852
-0.023865728 0.034093946 0.66659582
-0.023833329 0.032345235 0.66631639
-0.023864347 0.030682743 0.6665839
-0.02394568 0.029076874 0.66728514
-0.024087302 0.027528375 0.66850621
-0.024278311 0.02601251 0.6701532
-0.024393884 0.024393886 0.67114967
-0.024451703 0.022705168 0.67164814
-0.024506876 0.021005929 0.67212391
-0.024571434 0.019306123 0.6726805
-0.024646217 0.01760447 0.67332524
-0.024732538 0.015899509 0.67406958
-0.024829231 0.01418817 0.67490327
-0.024937155 0.012468606 0.67583382
-0.025057308 0.010738879 0.67686981
-0.025191031 0.0089968145 0.6780228
-0.025340114 0.007240057 0.67930818
-0.025506752 0.0054657757 0.68074501
-0.025694244 0.0036706328 0.6823616
-0.025906721 0.0018504858 0.68419361
-0.02614975 -0 0.68628907
-0.026432447 -0.0018880367 0.68872654
-0.026781905 -0.0038259327 0.69173962
-0.027056234 -0.0057977736 0.69410497
-0.027172837 -0.0077636242 0.69511032
-0.027339125 -0.0097639263 0.69654405
-0.025475416 0.054870158 0.69737124
-0.024197454 0.050256252 0.68550485
-0.024339607 0.048679262 0.68682474
-0.023210382 0.044635355 0.67633939
-0.023055144 0.042563349 0.67489797
-0.022944298 0.040593743 0.67386878
-0.022865497 0.038695455 0.67313707
-0.022797542 0.036826819 0.67250597
-0.022398051 0.034458578 0.66879654
-0.022272427 0.032552004 0.66763014
-0.022253606 0.030812681 0.66745538
-0.022296017 0.029156387 0.66784912
-0.022384638 0.02755037 0.66867208
-0.022529231 0.025995314 0.67001468
-0.022700556 0.024446756 0.67160547
-0.022792988 0.022792995 0.67246372
-0.022842934 0.021085799 0.6729275
-0.022897372 0.019374728 0.67343307
-0.022960577 0.017661989 0.67401987
-0.023032773 0.015945762 0.67469025
-0.023114786 0.014224499 0.67545176
-0.023208641 0.012496978 0.67632329
-0.023313284 0.010759979 0.67729497
-0.023429671 0.0090114474 0.67837566
-0.023559339 0.0072490275 0.67957968
-0.023703745 0.0054700971 0.68092048
-0.023865331 0.0036716163 0.68242091
-0.024047168 0.0018498003 0.68410933
-0.024253573 -0 0.68602592
-0.024490723 -0.0018838644 0.68822801
-0.024775704 -0.0038115978 0.6908741
-0.025114531 -0.0057956278 0.69402027
-0.025302591 -0.0077854097 0.69576657
-0.02540884 -0.0097726285 0.69675308
-0.025610322 -0.011820108 0.6986239
-0.023587918 0.05307281 0.69809699
-0.02248062 0.048708051 0.68695843
-0.02261355 0.047111571 0.68829566
-0.021521343 0.04304266 0.67730892
-0.021384904 0.04098776 0.67593646
-0.0212825 0.039017916 0.67490631
-0.021214297 0.037125051 0.67422026
-0.021149883 0.035249829 0.6735723
-0.020757966 0.032866776 0.66962993
-0.020663241 0.030994892 0.66867703
-0.020664165 0.029274285 0.66868633
-0.020711424 0.027615219 0.66916174
-0.020802483 0.026003122 0.67007768
-0.020948436 0.024439871 0.67154592
-0.021095714 0.022853732 0.6730274
-0.021170093 0.02117008 0.67377561
-0.021214597 0.019446731 0.6742233
-0.0212678 0.017723233 0.67475843
-0.021329297 0.015997022 0.67537707
-0.02139931 0.014266223 0.6760813
-0.021478385 0.012529075 0.67687678
-0.021567106 0.010783553 0.67776924
-0.021667192 0.0090280175 0.67877603
-0.021779265 0.0072597861 0.67990339
-0.021904005 0.0054760277 0.68115819
-0.022043042 0.0036738515 0.68255675
-0.022198617 0.0018499196 0.68412173
-0.022373982 2.9802322e-08 0.68588579
-0.02257512 -0.001881212 0.68790901
-0.02281002 -0.003801614 0.69027197
-0.023087351 -0.0057718456 0.69306171
-0.023389628 -0.007796526 0.69610238
-0.023517886 -0.0097991228 0.69739258
-0.02363611 -0.011818022 0.69858181
-0.023885086 -0.013932943 0.70108634
-0.021715844 0.051328391 0.69912404
-0.020741429 0.047139645 0.68843108
-0.019976791 0.043585747 0.68004012
-0.019817041 0.041435659 0.67828709
-0.019698383 0.039396763 0.67698503
-0.019607298 0.037432134 0.67598552
-0.019546162 0.035538495 0.67531455
-0.019478027 0.033643842 0.67456692
-0.019109063 0.031269401 0.67051798
-0.019047298 0.029436767 0.66984016
-0.019055739 0.027717441 0.66993284
-0.019106608 0.026054502 0.6704911
-0.01919885 0.024434924 0.67150331
-0.019345008 0.022862285 0.67310715
-0.019468864 0.021238774 0.67446631
-0.019524945 0.019524992 0.67508173
-0.0195668 0.017788023 0.67554104
-0.019617783 0.016050935 0.67610049
-0.019677045 0.014310598 0.6767509
-0.019744458 0.012564689 0.67749065
-0.019820323 0.01081112 0.67832315
-0.019905481 0.0090479851 0.67925763
-0.020000529 0.0072729588 0.68030065
-0.020106617 0.0054836571 0.68146485
-0.020225279 0.0036773086 0.68276703
-0.02035814 0.0018507838 0.68422496
-0.020507801 -0 0.68586737
-0.020677766 -0.0018797815 0.68773246
-0.020872472 -0.0037949681 0.68986911
-0.021098826 -0.0057542026 0.69235307
-0.021377036 -0.0077734292 0.69540608
-0.021611474 -0.0098233819 0.69797873
-0.021708991 -0.011841238 0.69904882
-0.021840189 -0.013898283 0.70048851
-0.01983441 0.049586058 0.70024335
-0.018979436 0.045550674 0.68992299
-0.018237967 0.041947365 0.68097264
-0.018097267 0.039814025 0.6792742
-0.017995341 0.037790179 0.6780439
-0.01791615 0.035832316 0.6770879
-0.017860893 0.033935726 0.67642099
-0.017779909 0.03200385 0.67544341
-0.017449299 0.029663861 0.67145252
-0.017413108 0.027860999 0.67101568
-0.017427906 0.026141882 0.67119431
-0.017481122 0.024473608 0.67183667
-0.017573278 0.022845298 0.67294908
-0.017716451 0.021259755 0.67467737
-0.017814854 0.019596368 0.67586523
-0.017859492 0.017859519 0.676404
-0.017899999 0.016110033 0.676893
-0.01794764 0.014358133 0.67746806
-0.018003564 0.012602478 0.67814314
-0.018067729 0.010840625 0.67891771
-0.018139914 0.009070009 0.67978901
-0.018220834 0.0072883368 0.68076587
-0.018311054 0.0054933131 0.68185484
-0.018411852 0.003682375 0.68307161
-0.01852446 0.0018524826 0.68443096
-0.018650614 5.9604645e-08 0.68595374
-0.018792955 -0.0018792748 0.68767196
-0.018954704 -0.003790915 0.68962443
-0.019140251 -0.0057420433 0.69186413
-0.019362302 -0.0077449083 0.69454461
-0.019631919 -0.0098159313 0.69779915
-0.019791652 -0.011874974 0.6997273
-0.01987459 -0.013912171 0.70072842
-0.020032939 -0.016026318 0.70263988
-0.01713003 0.045680106 0.69057393
-0.017194195 0.043940693 0.69143456
-0.016485136 0.040297031 0.6819244
-0.01636181 0.03817755 0.68027031
-0.016275473 0.036167711 0.67911237
-0.016208397 0.034217775 0.67821276
-0.016158557 0.032317132 0.6775443
-0.016033426 0.030285388 0.67586595
-0.01578518 0.028062552 0.67253649
-0.015760487 0.026267469 0.67220521
-0.015780313 0.02454716 0.67247117
-0.015835583 0.02287364 0.67321241
-0.015933353 0.021244466 0.67452383
-0.016062362 0.019631803 0.67625415
-0.016135801 0.01792869 0.67723906
-0.016173355 0.016173363 0.67774272
-0.016212076 0.014410734 0.67826211
-0.016257375 0.012644649 0.67886961
-0.016309425 0.01087296 0.67956775
-0.016368827 0.0090937912 0.68036449
-0.016436759 0.0073052347 0.68127561
-0.016512761 0.0055042505 0.68229496
-0.016597541 0.0036883652 0.6834321
-0.016692225 0.0018547177 0.68470198
-0.016797887 -0 0.6861192
-0.016916519 -0.0018796027 0.68771029
-0.017050385 -0.0037889779 0.68950576
-0.017202601 -0.0057341754 0.69154733
-0.017382016 -0.0077253282 0.69395369
-0.017594514 -0.0097747147 0.69680381
-0.017833792 -0.011889189 0.70001298
-0.017937861 -0.013951659 0.70140886
-0.018027913 -0.016024798 0.70261663
-0.018217459 -0.018217474 0.70515895
-0.015293012 0.043967426 0.69157463
-0.015385296 0.042309612 0.69296712
-0.014720166 0.03864044 0.68293107
-0.014612799 0.036532044 0.68131101
-0.014538653 0.034529299 0.68019223
-0.014482737 0.032586187 0.67934853
-0.014438907 0.030682713 0.67868721
-0.014201622 0.028403282 0.67510682
-0.014103847 0.026444733 0.67363149
-0.014089003 0.024655759 0.67340755
-0.014115336 0.022937447 0.67380488
-0.014173361 0.021260023 0.67468041
-0.014268851 0.019619703 0.67612123
-0.014377761 0.017972231 0.67776453
-0.014434949 0.016239345 0.67862749
-0.014466146 0.014466196 0.67909819
-0.014502624 0.012689799 0.67964864
-0.014545098 0.010908812 0.68028951
-0.014593673 0.0091210902 0.68102247
-0.014648789 0.0073244274 0.68185401
-0.014710915 0.0055166185 0.68279147
-0.014780772 0.0036952198 0.68384552
-0.014859343 0.0018573999 0.68503106
-0.014947123 -0 0.68635559
-0.015045101 -0.0018806159 0.68783396
-0.015155095 -0.0037887692 0.6894936
-0.015280519 -0.0057301819 0.6913861
-0.015424959 -0.0077124834 0.69356561
-0.015593085 -0.0097456574 0.69610238
-0.015797766 -0.011848301 0.6991908
-0.015982134 -0.013984323 0.70197272
-0.016058303 -0.016058296 0.70312202
-0.016154088 -0.018173337 0.70456725
-0.013470314 0.042335302 0.6931082
-0.013552143 0.040656418 0.69451928
-0.012939865 0.036971062 0.68396091
-0.012848488 0.034874469 0.68238515
-0.012784845 0.032875329 0.68128765
-0.01273895 0.030937463 0.68049628
-0.012700103 0.029028803 0.67982632
-0.012468399 0.02671802 0.67583072
-0.012405029 0.024810076 0.67473799
-0.012402614 0.02303344 0.67469633
-0.012431492 0.021311134 0.67519432
-0.012488005 0.019624054 0.6761688
-0.012579275 0.017970413 0.67774272
-0.012667858 0.016287267 0.67927027
-0.012709966 0.014525652 0.67999643
-0.012737468 0.012737513 0.68047071
-0.012771233 0.01094678 0.68105292
-0.01281033 0.0091502666 0.68172711
-0.012854995 0.007345736 0.68249738
-0.012905488 0.0055309236 0.68336809
-0.012962372 0.0037035644 0.684349
-0.013026055 0.001860857 0.68544722
-0.013097366 2.9802322e-08 0.68667686
-0.013177291 -0.0018824339 0.68805516
-0.013266985 -0.0037905276 0.6896019
-0.013368311 -0.0057292879 0.69134921
-0.013483746 -0.0077049732 0.69333977
-0.013616261 -0.0097258985 0.69562495
-0.013773416 -0.011805713 0.69833493
-0.013966691 -0.01396668 0.7016679
-0.014091663 -0.016104698 0.70382291
-0.014151788 -0.018195152 0.70485973
-0.014263883 -0.020376951 0.70679277
-0.012250432 0.044918269 0.70728058
-0.011623229 0.040681332 0.69466215
-0.011694312 0.03898105 0.69609231
-0.011142977 0.035286099 0.6850003
-0.01106829 0.033204913 0.68349767
-0.011013676 0.031205446 0.68239892
-0.01097679 0.029271483 0.68165684
-0.010941186 0.027352989 0.68094057
-0.010734009 0.025046021 0.67677248
-0.010692414 0.023166925 0.67593563
-0.010696415 0.021392882 0.67601609
-0.010725495 0.019663453 0.67660117
-0.010779062 0.017965138 0.67767894
-0.010864687 0.016297042 0.67940152
-0.010933257 0.014577687 0.68078107
-0.010963041 0.012790233 0.68138021
-0.010987999 0.010988027 0.68188238
-0.011017597 0.0091813505 0.68247783
-0.011052725 0.0073684752 0.68318456
-0.01109287 0.0055464804 0.68399221
-0.011138182 0.0037127435 0.6849038
-0.011189117 0.0018649101 0.68592852
-0.011246121 2.9802322e-08 0.68707538
-0.011310012 -0.0018849969 0.68836081
-0.011381489 -0.0037938058 0.68979877
-0.011461833 -0.0057308972 0.69141519
-0.011552693 -0.0077017546 0.69324315
-0.011656218 -0.0097135007 0.69532591
-0.011776933 -0.011776924 0.6977545
-0.011921723 -0.013908654 0.70066744
-0.012089075 -0.016118735 0.70403427
-0.012165298 -0.018247932 0.70556778
-0.012226136 -0.020376861 0.70679176
-0.012354333 -0.022649586 0.70937085
-0.010236262 0.042992324 0.70794612
-0.0097512621 0.039005071 0.69623721
-0.0099727483 0.037896454 0.70158434
-0.0093292715 0.033585399 0.6860494
-0.0092700906 0.03151831 0.68462068
-0.0092260586 0.029523373 0.68355769
-0.0091958763 0.027587682 0.68282902
-0.0091601862 0.025648564 0.68196738
-0.008984358 0.023359329 0.67772251
-0.0089619262 0.021508664 0.67718089
-0.0089690266 0.019731879 0.67735231
-0.0089969914 0.017994046 0.67802751
-0.009046834 0.016284347 0.67923081
-0.0091227749 0.014596462 0.68106419
-0.0091712344 0.012839764 0.68223411
-0.0091939159 0.01103273 0.68278164
-0.009216032 0.0092160404 0.68331558
-0.0092421118 0.0073937178 0.68394518
-0.0092722196 0.0055633187 0.68467212
-0.0093067819 0.0037227571 0.68550646
-0.0093462793 0.0018692613 0.68646002
-0.0093906224 2.9802322e-08 0.68753064
-0.0094402311 -0.0018880367 0.68872821
-0.0094957696 -0.003798306 0.69006908
-0.0095579131 -0.0057347417 0.69156933
-0.009627874 -0.0077022612 0.69325829
-0.0097069945 -0.009706974 0.6951685
-0.0097986963 -0.011758417 0.69738239
-0.0099060535 -0.013868451 0.69997418
-0.010035555 -0.016056865 0.70310062
-0.01015994 -0.018287838 0.70610356
-0.010211027 -0.020422041 0.7073369
-0.0102711 -0.022596419 0.7087872
-0.0082249176 0.041124612 0.70902973
-0.0078539075 0.037306041 0.69783354
-0.007560744 0.034023374 0.68898654
-0.0074984818 0.031868547 0.68710762
-0.0074536889 0.02981475 0.68575585
-0.0074197561 0.027824104 0.6847319
-0.0073960661 0.025886238 0.68401694
-0.0073552686 0.023904651 0.68278575
-0.0072241961 0.021672577 0.67883033
-0.0072113117 0.019831151 0.67844152
-0.0072200522 0.018050134 0.67870528
-0.0072460617 0.016303658 0.67949015
-0.0072927685 0.014585555 0.68089962
-0.0073527819 0.012867391 0.68271077
-0.007385259 0.01107794 0.68369079
-0.0074021663 0.0092527568 0.68420106
-0.0074209389 0.0074209571 0.6847676
-0.0074429614 0.0055822432 0.68543214
-0.0074682906 0.0037341714 0.68619651
-0.0074971332 0.0018742979 0.68706691
-0.0075297388 -0 0.68805087
-0.007566432 -0.0018915832 0.6891582
-0.0076077618 -0.0038038194 0.69040543
-0.0076540802 -0.0057405233 0.69180322
-0.0077059767 -0.0077059865 0.69336939
-0.0077649332 -0.0097061396 0.69514847
-0.0078321472 -0.011748224 0.69717681
-0.0079094963 -0.013841599 0.69951111
-0.0080002351 -0.01600042 0.70224935
-0.0081132231 -0.018254727 0.70565909
-0.008192597 -0.020481497 0.70805436
-0.0082284342 -0.022628188 0.70913583
-0.0082932152 -0.024879634 0.7110908
-0.0061984397 0.039256781 0.71022683
-0.0059306459 0.035583913 0.69945163
-0.0056959265 0.032276928 0.69000733
-0.0056504505 0.030135751 0.68817747
-0.0056187669 0.028093904 0.68690264
-0.0055947048 0.026108652 0.68593442
-0.005577181 0.024167806 0.6852293
-0.0054969769 0.021987885 0.68200219
-0.0054470096 0.019972384 0.67999166
-0.0054401597 0.018133909 0.67971599
-0.0054500154 0.016350061 0.6801126
-0.0054732263 0.0145953 0.68104649
-0.0055117114 0.012860656 0.68259501
-0.0055539249 0.011107892 0.68429363
-0.0055750064 0.0092917085 0.68514186
-0.0055873534 0.0074498355 0.68563861
-0.0056022634 0.0056022704 0.68623859
-0.0056196502 0.0037464499 0.68693817
-0.005639602 0.0018798709 0.68774098
-0.0056622797 2.9802322e-08 0.68865347
-0.0056878766 -0.0018959045 0.68968338
-0.0057166424 -0.0038110912 0.69084084
-0.0057489583 -0.0057489574 0.69214118
-0.0057852292 -0.0077136159 0.69360054
-0.0058260732 -0.0097101033 0.69524395
-0.0058723409 -0.011744678 0.69710571
-0.005925145 -0.013825327 0.69923031
-0.0059860591 -0.01596278 0.70168132
-0.0060601062 -0.018180311 0.70466077
-0.0061472403 -0.020490795 0.70816672
-0.006189622 -0.022695243 0.70987207
-0.0062204534 -0.02488181 0.71111262
-0.006285545 -0.027237356 0.71373171
-0.0039818138 0.035836339 0.70114464
-0.0039809425 0.033838034 0.70109206
-0.0038143783 0.030515075 0.69103897
-0.0037853196 0.028389901 0.68928516
-0.0037650394 0.026355296 0.68806112
-0.0037499997 0.024375051 0.6871534
-0.0037384278 0.022430599 0.68645501
-0.0036724922 0.020198733 0.68247545
-0.0036507873 0.018253952 0.6811654
-0.00364911 0.01642099 0.68106419
-0.0036577531 0.014631033 0.68158585
-0.003674987 0.012862474 0.68262601
-0.0037029868 0.011108965 0.68431592
-0.0037290526 0.0093226433 0.68588912
-0.003740692 0.007481426 0.68659163
-0.0037492409 0.005623877 0.68710762
-0.0037595371 0.003759563 0.68772906
-0.0037717375 0.001885891 0.68846542
-0.0037856917 -0 0.68930763
-0.0038015111 -0.0019007325 0.69026238
-0.0038193716 -0.0038193464 0.69134033
-0.0038394029 -0.0057590902 0.69254941
-0.0038618951 -0.0077237487 0.6939069
-0.0038871416 -0.0097178221 0.69543064
-0.0039155986 -0.011746764 0.69714814
-0.003947868 -0.013817489 0.69909579
-0.003984842 -0.015939355 0.70132744
-0.004028718 -0.0181292 0.70397556
-0.0040811463 -0.02040571 0.70713985
-0.0041347519 -0.022741109 0.71037525
-0.0041567185 -0.024940282 0.7117011
-0.0041810842 -0.027176976 0.71317166
-0.0019917232 0.033859342 0.70124316
-0.0020042567 0.032068104 0.70275611
-0.0019163196 0.028744817 0.69214112
-0.0019021718 0.026630372 0.69043338
-0.0018923018 0.024599969 0.68924201
-0.0018852007 0.022622436 0.68838477
-0.0018792885 0.020672202 0.68767107
-0.0018440011 0.018440038 0.68341154
-0.0018355926 0.016520381 0.68239653
-0.0018361517 0.014689207 0.682464
-0.0018412462 0.01288873 0.683079
-0.0018507605 0.011104584 0.68422747
-0.0018660908 0.0093305111 0.68607795
-0.0018775538 0.007510215 0.68746167
-0.0018825127 0.0056475699 0.68806028
-0.0018870635 0.0037741363 0.68860966
-0.0018924737 0.0018924773 0.68926269
-0.0018987574 -0 0.69002122
-0.001906005 -0.0019059777 0.69089609
-0.0019142814 -0.0038285255 0.69189513
-0.0019236056 -0.0057708025 0.69302064
-0.0019340599 -0.0077362061 0.69428253
-0.0019458081 -0.0097290277 0.69570071
-0.0019589798 -0.011753857 0.69729066
-0.0019738406 -0.013816833 0.69908452
-0.001990899 -0.015927166 0.70114362
-0.0020106437 -0.018095791 0.70352709
-0.0020337305 -0.020337284 0.70631391
-0.0020624844 -0.022687316 0.70978475
-0.002084333 -0.025011986 0.71242213
-0.0020937964 -0.027219325 0.71356452
-0.0021101676 -0.029542327 0.71554065
0 0.03208831 0.70290834
0 0.030273408 0.70444238
0 0.026958078 0.69325829
0 0.024854869 0.69160903
0 0.022826225 0.69043505
0 0.020850748 0.68963051
0 0.018889338 0.68883491
0 0.0166713 0.68442094
0 0.014772385 0.68371874
0 0.012935311 0.68388176
0 0.011122704 0.68459249
0 0.0093229115 0.68589503
0 0.0075228214 0.68784159
0 0.0056707263 0.68899256
0 0.0037897229 0.68954813
0 0.0018996894 0.69013172
0 2.9802322e-08 0.69082159
0 -0.001911968 0.69161874
0 -0.0038390458 0.69253069
0 -0.0057843328 0.69356561
0 -0.0077511668 0.69473374
0 -0.0097434521 0.69604921
0 -0.011765808 0.69753069
0 -0.013823628 0.69920111
0 -0.015924126 0.70109773
0 -0.01807636 0.70326698
0 -0.020292103 0.70576829
0 -0.022596478 0.70878822
0 -0.025013626 0.71243894
0 -0.027301937 0.71433145
0 -0.029547811 0.71558797
0 -0.031988949 0.71824831
0.0020195052 0.0302926 0.70459676
0.0020323924 0.028453499 0.70615238
0.0019349125 0.025153905 0.69438553
0.0019219136 0.023062974 0.69281638
0.0019125181 0.021037757 0.69168222
0.0019059468 0.019059479 0.69088906
0.0018975766 0.017078221 0.68987864
0.0018613843 0.014891088 0.68550986
0.0018576316 0.013003439 0.68505692
0.0018597929 0.011158794 0.68531775
0.0018666897 0.0093334615 0.68615031
0.0018792674 0.0075170696 0.68766856
0.0018948746 0.005684644 0.68955243
0.0019029821 0.0038059652 0.69053119
0.0019073273 0.0019073188 0.69105566
0.0019124449 -0 0.69167352
0.0019184723 -0.0019184053 0.69240099
0.0019254193 -0.0038508177 0.69323957
0.001933335 -0.005799979 0.69419509
0.0019423184 -0.0077692568 0.69527948
0.0019524365 -0.0097621679 0.69650084
0.0019638236 -0.011782914 0.69787538
0.0019766476 -0.013836533 0.69942337
0.0019911288 -0.015928984 0.7011714
0.0020075699 -0.018068105 0.70315611
0.0020263838 -0.020263821 0.70542705
0.0020486354 -0.022534966 0.70811307
0.0020753075 -0.024903685 0.71133268
0.0021040097 -0.027352095 0.71479726
0.002115807 -0.029621303 0.71622145
0.0021282353 -0.031923532 0.71772158
0.0042740498 0.032055378 0.71878266
0.0040673786 0.028471678 0.70630896
0.0039233821 0.025501996 0.69761795
0.0038886974 0.023332208 0.69552457
0.003864042 0.021252245 0.69403648
0.0038459252 0.01922968 0.69294304
0.0038332408 0.017249584 0.69217747
0.003805747 0.015222996 0.69051802
0.0037432243 0.013101339 0.68674445
0.0037376878 0.011213094 0.68641031
0.0037442469 0.0093606114 0.6868062
0.0037607662 0.0075215101 0.68780327
0.003788372 0.0056825876 0.68946934
0.0038175068 0.0038175285 0.69122779
0.0038312159 0.0019156337 0.69205523
0.0038400071 2.9802322e-08 0.69258583
0.0038508088 -0.001925379 0.69323778
0.0038634902 -0.0038634837 0.69400316
0.0038780579 -0.0058170557 0.69488239
0.003894645 -0.007789284 0.69588351
0.0039134398 -0.009783566 0.69701785
0.0039345813 -0.011803716 0.69829386
0.0039583934 -0.013854384 0.69973105
0.0039851754 -0.015940696 0.70134753
0.0040154299 -0.018069416 0.70317358
0.0040498315 -0.020249158 0.70524985
0.0040901201 -0.022495627 0.70768154
0.0041373502 -0.024824083 0.71053213
0.0041956869 -0.027271986 0.71405298
0.0042436365 -0.029705435 0.71694702
0.0042636334 -0.031977266 0.71815395
0.0042967503 -0.034373969 0.72015274
0.0064367512 0.030038208 0.71981579
0.0061442456 0.026625097 0.70804626
0.0059120529 0.023648202 0.69870353
0.0058616549 0.021492749 0.69667566
0.0058267065 0.019422382 0.69526947
0.0058007669 0.017402291 0.69422579
0.0057822429 0.015419334 0.69348037
0.0056872293 0.013270229 0.68965733
0.0056458381 0.011291713 0.68799192
0.0056416374 0.0094027221 0.68782282
0.0056552403 0.007540375 0.68837023
0.0056828586 0.0056828558 0.6894815
0.0057281391 0.0038187802 0.69130343
0.0057681999 0.0019227564 0.69291532
0.0057851179 2.9802322e-08 0.69359607
0.0057991762 -0.0019330382 0.69416171
0.0058160052 -0.0038773417 0.69483888
0.0058356989 -0.005835712 0.69563133
0.0058585205 -0.0078113079 0.69654959
0.0058845649 -0.0098076165 0.69759756
0.0059140096 -0.011827976 0.69878227
0.00594714 -0.013876617 0.70011532
0.005984412 -0.015958399 0.7016151
0.0060263365 -0.018078983 0.70330203
0.0060742064 -0.02024737 0.70522815
0.0061292178 -0.022473752 0.70744157
0.0061927885 -0.024771184 0.7099995
0.0062687979 -0.027164757 0.71305788
0.0063627842 -0.029692948 0.71683955
0.0064152945 -0.032076448 0.71895242
0.0064469809 -0.034383863 0.72022736
0.0065141264 -0.036913365 0.72292912
0.0086248303 0.028030723 0.72109818
0.0082506854 0.02475208 0.70980734
0.0079195742 0.021778852 0.69981521
0.0078547085 0.01963681 0.69785768
0.0078104162 0.017573446 0.69652104
0.0077777877 0.01555562 0.69553638
0.0077530816 0.013567895 0.69479084
0.0076099602 0.011415005 0.69047177
0.0075697512 0.0094622374 0.68925834
0.0075714411 0.0075714588 0.68930936
0.0075928983 0.0056946576 0.6899569
0.0076335864 0.0038167834 0.69118476
0.0076995729 0.001924932 0.69317609
0.0077451007 2.9802322e-08 0.69454992
0.007765234 -0.0019412637 0.69515753
0.0077851699 -0.0038925409 0.69575918
0.0078088925 -0.005856663 0.69647503
0.0078365328 -0.0078364909 0.69730914
0.0078682341 -0.0098352432 0.69826585
0.0079043424 -0.011856496 0.69935554
0.0079451967 -0.013904095 0.70058846
0.0079913549 -0.015982717 0.70198137
0.0080434792 -0.018097788 0.70355439
0.008102417 -0.020256042 0.70533299
0.0081695225 -0.022466153 0.70735806
0.0082464023 -0.024739206 0.70967817
0.0083363941 -0.027093261 0.71239382
0.0084456569 -0.029559761 0.71569115
0.0085678594 -0.032129437 0.71937895
0.0086185532 -0.034474194 0.72090876
0.0086692497 -0.036844313 0.72243863
0.01083844 0.026012272 0.72248399
0.010387352 0.022852182 0.71159375
0.0099462233 0.019892454 0.70094407
0.0098695923 0.017765313 0.69909394
0.009815651 0.015705049 0.6977917
0.0097770998 0.013687968 0.69686097
0.0097452989 0.011694372 0.6960932
0.009556965 0.0095569789 0.69154644
0.0095204143 0.0076163411 0.69066399
0.0095267221 0.0057160854 0.69081634
0.0095577668 0.0038231015 0.69156581
0.0096163275 0.0019232929 0.69297957
0.0097009344 2.9802322e-08 0.69502217
0.0097487159 -0.0019497573 0.69617575
0.0097720968 -0.0039088428 0.69674015
0.0097985044 -0.0058790445 0.69737774
0.0098298434 -0.0078638494 0.69813436
0.0098661277 -0.0098660886 0.69901031
0.0099077011 -0.011889249 0.700014
0.0099549703 -0.013936937 0.70115513
0.010008415 -0.016013443 0.70244539
0.010068755 -0.018123746 0.70390218
0.010136845 -0.020273656 0.70554602
0.010213904 -0.022470564 0.70740634
0.010301678 -0.024724007 0.70952547
0.010403377 -0.027048737 0.71198064
0.010524208 -0.029467791 0.71489775
0.010672134 -0.032016367 0.71846902
0.01080343 -0.034570932 0.7216388
0.010856171 -0.036910981 0.72291201
0.010939959 -0.039383858 0.72493494
0.012473005 0.022867173 0.71175838
0.012554898 0.020924836 0.71340591
0.011995318 0.017993003 0.70214808
0.011905602 0.015874177 0.70034313
0.011842763 0.013816535 0.69907892
0.011799104 0.011799127 0.69820058
0.011754432 0.0097953677 0.69730186
0.011522277 0.0076815486 0.69263119
0.011495188 0.0057476163 0.69208622
0.011507966 0.0038360059 0.69234329
0.011551983 0.0019253194 0.6932289
0.011633407 2.9802322e-08 0.69486696
0.011730594 -0.0019550622 0.69682223
0.011778642 -0.0039261878 0.69778889
0.011806249 -0.0059030652 0.69834429
0.011839821 -0.0078931749 0.69901973
0.011879456 -0.0098995268 0.69981706
0.01192518 -0.011925161 0.700737
0.011977419 -0.013973653 0.70178795
0.012036775 -0.016048998 0.70298207
0.012103793 -0.018155664 0.70433038
0.012179462 -0.020299077 0.70585275
0.012264797 -0.022485435 0.70756954
0.012361454 -0.024722874 0.7095142
0.012473264 -0.027025372 0.71176362
0.012603336 -0.029407769 0.71438044
0.012757311 -0.031893283 0.71747816
0.012950527 -0.034534723 0.72136539
0.01306886 -0.037028402 0.72374606
0.013133063 -0.039399177 0.72503775
0.013269476 -0.042019963 0.72778213
0.014657066 0.020938694 0.71357298
0.014754001 0.018969446 0.71524459
0.01406501 0.01607433 0.7033633
0.013964798 0.013964802 0.70163524
0.013894442 0.011909515 0.70042193
0.013844956 0.0098892748 0.69956863
0.013772117 0.0078698099 0.69831258
0.013517728 0.0057933331 0.69392574
0.013494603 0.0038556457 0.69352698
0.013517415 0.0019311011 0.69392037
0.013579307 2.9802322e-08 0.69498771
0.013683501 -0.0019547343 0.69678444
0.01378887 -0.0039396584 0.69860142
0.013835604 -0.0059295297 0.69940734
0.013869463 -0.007925421 0.69999123
0.01391028 -0.0099358857 0.7006951
0.013958342 -0.011964291 0.7015239
0.014014304 -0.014014304 0.70248896
0.014078069 -0.016089201 0.70358849
0.014150473 -0.018193424 0.70483708
0.01423218 -0.020331651 0.70624608
0.014324378 -0.022509724 0.70783597
0.014429124 -0.02473563 0.70964223
0.014548876 -0.027019292 0.71170729
0.014686443 -0.029372901 0.71407956
0.014845803 -0.0318124 0.71682763
0.015041662 -0.034380913 0.72020513
0.015266876 -0.037076682 0.72408879
0.015364453 -0.039508581 0.72577143
0.015455028 -0.041949362 0.72733331
0.016872944 0.018982083 0.71541393
0.016985424 0.016985446 0.71711111
0.016155783 0.014136314 0.70459282
0.01604691 0.012035191 0.70295006
0.015969384 0.0099808574 0.70178032
0.015914844 0.0079574287 0.70095742
0.015692728 0.0058847964 0.69760585
0.015536859 0.0038841963 0.69525403
0.015520592 0.0019401014 0.69500858
0.015558841 2.9802322e-08 0.69558567
0.015637614 -0.0019547045 0.69677424
0.015768208 -0.0039420128 0.69874477
0.015875962 -0.0059534609 0.70037067
0.01592092 -0.0079604387 0.70104909
0.015962061 -0.009976238 0.70166981
0.016011415 -0.012008548 0.70241451
0.0160692 -0.014060557 0.70328641
0.016135853 -0.016135842 0.70429218
0.016211923 -0.018238425 0.70543993
0.016298395 -0.020372987 0.70674473
0.016396267 -0.022544831 0.70822144
0.016507087 -0.024760604 0.70989358
0.016632676 -0.027028084 0.71178859
0.016776064 -0.029358089 0.71395218
0.016940854 -0.03176409 0.71643865
0.017138435 -0.034276843 0.71941996
0.017378544 -0.036929369 0.72304291
0.017607184 -0.039616138 0.72649276
0.017697172 -0.042030782 0.72785062
0.020115195 0.020115227 0.7306118
0.019121422 0.016996831 0.71728307
0.018435758 0.014338911 0.70808673
0.018267786 0.01217854 0.70583391
0.018151885 0.01008442 0.70427936
0.018068057 0.0080302656 0.70315504
0.018008878 0.0060029626 0.70236135
0.017689686 0.0039310455 0.69808024
0.017579131 0.001953274 0.6965974
0.017578719 -0 0.69659191
0.017629644 -0.0019588172 0.69727492
0.017727571 -0.0039394498 0.69858837
0.017887628 -0.0059625208 0.70073509
0.017989097 -0.0079951584 0.70209599
0.01803506 -0.010019451 0.70271254
0.018084165 -0.012056082 0.70337111
0.018142888 -0.014111102 0.70415878
0.01821127 -0.016187757 0.70507592
0.018289896 -0.018289864 0.70613045
0.01837955 -0.020421714 0.70733291
0.018481305 -0.022588283 0.70869768
0.01859647 -0.024795264 0.71024227
0.018726779 -0.02704978 0.71199
0.018874656 -0.029360563 0.7139734
0.019043552 -0.031739265 0.71623874
0.019243333 -0.034210324 0.7189182
0.019478053 -0.036791831 0.72206634
0.019774508 -0.039549023 0.72604251
0.02027568 -0.042804241 0.73276436
0.022431679 0.017945349 0.73159522
0.021403065 0.014982164 0.7191788
0.020583525 0.012350142 0.70928603
0.020402402 0.010201246 0.70709968
0.020281086 0.0081124604 0.70563519
0.020192282 0.0060576797 0.70456332
0.02012625 0.0040252805 0.70376623
0.019743079 0.0019743443 0.69914091
0.019653201 2.9802322e-08 0.69805604
0.019664865 -0.0019664764 0.69819677
0.019730465 -0.0039460957 0.69898868
0.01985771 -0.0059573054 0.70052469
0.020035665 -0.0080142617 0.70267284
0.020129975 -0.01006496 0.70381123
0.020178685 -0.012107193 0.70439923
0.020236546 -0.01416555 0.70509756
0.020305365 -0.016244262 0.70592833
0.020385113 -0.018346548 0.70689094
0.020476712 -0.020476669 0.70799667
0.020581068 -0.022639155 0.70925641
0.020699246 -0.024839044 0.71068287
0.020833002 -0.02708289 0.71229744
0.020984152 -0.029377788 0.714122
0.021157444 -0.031736135 0.71621382
0.0213583 -0.03417328 0.71863842
0.021591477 -0.036705494 0.72145307
0.021875422 -0.039375752 0.72488058
0.022307767 -0.042384773 0.7300995
0.022918805 -0.045837581 0.73747534
0.024799256 0.015781343 0.73296046
0.023718692 0.012937486 0.72110265
0.022752415 0.010342002 0.71049905
0.022564277 0.0082052052 0.70843446
0.022434136 0.0061184168 0.70700634
0.022341795 0.0040621459 0.705993
0.022264162 0.0020240247 0.70514113
0.02182287 2.9802322e-08 0.70029849
0.021756619 -0.0019778609 0.69957149
0.021779604 -0.003959924 0.69982368
0.021865522 -0.0059632957 0.70076656
0.022026796 -0.008009702 0.70253634
0.02221196 -0.010096341 0.70456821
0.022298438 -0.012162775 0.70551729
0.022353319 -0.014224797 0.70611942
0.022420062 -0.016305476 0.70685184
0.022499431 -0.018408656 0.7077229
0.022591598 -0.020537823 0.70873427
0.022697058 -0.022697061 0.70989162
0.022817122 -0.024891406 0.71120912
0.022952905 -0.027126104 0.71269917
0.023107765 -0.029409856 0.71439856
0.023283821 -0.031750619 0.71633053
0.023485206 -0.034160256 0.71854049
0.023716955 -0.036653459 0.72108364
0.023992267 -0.03926006 0.72410482
0.024393573 -0.042134345 0.72850865
0.024860863 -0.04520157 0.7336365
0.025985301 -0.04960826 0.74597573
0.02720228 0.013601124 0.73445475
0.026069064 0.010862142 0.72305536
0.024944559 0.0083148479 0.71174377
0.024749611 0.0061874092 0.70978272
0.024612041 0.0041020215 0.708399
0.024517473 0.0020431578 0.70744765
0.024412405 2.9802322e-08 0.70639074
0.023934023 -0.0019944906 0.70157862
0.023887174 -0.0039812028 0.70110738
0.02392601 -0.0059814751 0.70149803
0.024039814 -0.0080132782 0.7026428
0.024232598 -0.010096908 0.70458204
0.024419555 -0.012209773 0.70646268
0.024497166 -0.014290005 0.70724338
0.024560999 -0.016373962 0.70788544
0.0246381 -0.018478543 0.70866108
0.024728917 -0.020607412 0.70957464
0.024833957 -0.022764474 0.71063119
0.024954407 -0.024954408 0.71184283
0.025091747 -0.027182728 0.71322441
0.025247583 -0.029455513 0.71479201
0.025424518 -0.031780601 0.71657175
0.025625585 -0.034167409 0.71859431
0.025855662 -0.036628842 0.72090882
0.026180115 -0.039270133 0.72417259
0.026506616 -0.041968793 0.72745687
0.026921151 -0.044868559 0.73162675
0.027515169 -0.048151493 0.73760211
0.028260751 0.010869533 0.72323436
0.028454969 0.0087554157 0.72503769
0.027164904 0.0062688589 0.71305889
0.026959319 0.0041475892 0.71114993
0.026819261 0.002063036 0.70984948
0.02672022 2.9802322e-08 0.70892984
0.026546178 -0.0020419657 0.70731372
0.026081145 -0.0040124953 0.70299572
0.026045533 -0.0060104728 0.70266503
0.026110981 -0.0080341399 0.70327282
0.026248273 -0.010095477 0.70454758
0.026478101 -0.012220651 0.70668161
0.026653979 -0.014352113 0.70831472
0.026727136 -0.016447455 0.70899403
0.026800698 -0.0185543 0.70967704
0.026888886 -0.020683736 0.71049595
0.026992433 -0.022839725 0.71145737
0.027111914 -0.025026381 0.71256685
0.027248772 -0.02724874 0.71383768
0.027404442 -0.029512435 0.7152831
0.027581066 -0.031824261 0.71692312
0.027781324 -0.034192383 0.7187826
0.028009333 -0.036627561 0.72089982
0.028330542 -0.03922689 0.72388232
0.028645314 -0.041866213 0.72680521
0.029031422 -0.044663697 0.73039031
0.029527195 -0.047697783 0.73499382
0.030319262 -0.051309496 0.74234849
0.030665008 0.0087614059 0.72522044
0.030877221 0.0066165924 0.72705019
0.029408772 0.0042012632 0.71438897
0.029197933 0.0020855963 0.71257108
0.029052498 2.9802322e-08 0.71131706
0.028949603 -0.0020677745 0.71042991
0.028473847 -0.0040676594 0.7063278
0.028253688 -0.0060543716 0.70442963
0.028244918 -0.0080699325 0.70435393
0.02832853 -0.010117292 0.70507491
0.028491914 -0.012210786 0.7064836
0.028758373 -0.014379174 0.70878112
0.02891626 -0.01652357 0.71014243
0.028989136 -0.018635839 0.71077079
0.029072996 -0.020766407 0.71149385
0.029173369 -0.02292189 0.71235931
0.029290598 -0.025106192 0.71337003
0.02942545 -0.027323604 0.71453273
0.029579772 -0.029579759 0.71586341
0.029755047 -0.031880379 0.71737462
0.029954042 -0.034233153 0.71909034
0.030233679 -0.036712289 0.72150147
0.030498654 -0.039212495 0.72378612
0.030804442 -0.041806012 0.72642267
0.031169035 -0.044527173 0.72956628
0.031617533 -0.047426283 0.73343331
0.032222409 -0.050635219 0.73864871
0.033476334 -0.054996818 0.74946028
0.033105794 0.0066212118 0.72723579
0.033336658 0.004444927 0.72909361
0.031676292 0.0021117628 0.71573204
0.031463034 5.9604645e-08 0.71401584
0.031312343 -0.0020874739 0.71280318
0.031205976 -0.0041607916 0.71194726
0.030622583 -0.0061244965 0.70725238
0.030459408 -0.008122474 0.70593929
0.030475238 -0.01015839 0.70606667
0.030579289 -0.012231678 0.70690405
0.030787136 -0.014367312 0.70857668
0.031068403 -0.016569763 0.71084011
0.031206109 -0.018723637 0.71194828
0.031283628 -0.020855725 0.7125721
0.031378847 -0.023011118 0.71333838
0.031492207 -0.025193781 0.71425068
0.031624105 -0.027407527 0.715312
0.0317754 -0.029657006 0.71652955
0.031948395 -0.031948358 0.71792173
0.03214585 -0.034288883 0.71951073
0.032426257 -0.03674975 0.72176725
0.032685667 -0.039222777 0.72385478
0.032983147 -0.041778654 0.7262488
0.033332363 -0.044443101 0.72905904
0.033749949 -0.047249913 0.73241949
0.034277566 -0.050273746 0.73666549
0.035028175 -0.053709865 0.74270588
0.037479181 0.0070273578 0.74357951
0.035584074 0.0044480264 0.72928202
0.034292728 0.0021433234 0.71953958
0.03396811 -0 0.71709049
0.033754997 -0.0021096468 0.71548265
0.03360001 -0.0041999519 0.71431339
0.03348659 -0.0062787235 0.71345776
0.032828167 -0.0082070529 0.70849025
0.032704521 -0.01022014 0.70755744
0.032737151 -0.012276381 0.70780361
0.03287049 -0.014380783 0.70880961
0.03312441 -0.016562164 0.71072531
0.033404153 -0.018789828 0.71283573
0.033527542 -0.020954698 0.71376663
0.03361553 -0.023110628 0.71443045
0.033722576 -0.02529192 0.71523809
0.033849619 -0.027502805 0.71619654
0.033997249 -0.029747576 0.71731031
0.034166861 -0.032031387 0.71858996
0.034416266 -0.034416258 0.72047162
0.034638889 -0.036803782 0.7221511
0.034892675 -0.039254248 0.72406578
0.035182334 -0.041779011 0.72625113
0.035519499 -0.044399351 0.72879487
0.035916608 -0.047140509 0.73179078
0.036398664 -0.050048172 0.73542762
0.037020251 -0.053216577 0.74011713
0.037984926 -0.056977332 0.74739504
0.03995087 0.0047000945 0.74449718
0.038100716 0.0022412539 0.7313599
0.036621284 2.9802322e-08 0.72085506
0.036294702 -0.002134949 0.71853602
0.036073666 -0.0042439699 0.71696663
0.035918448 -0.0063385069 0.71586442
0.03578306 -0.0084195137 0.71490312
0.035057466 -0.010310978 0.70975095
0.034979615 -0.012345761 0.70919818
0.03503393 -0.014425695 0.70958388
0.035207216 -0.016568065 0.71081424
0.035502724 -0.01879552 0.71291256
0.035773426 -0.021043181 0.71483469
0.035882838 -0.023218244 0.71561152
0.035982411 -0.025399357 0.71631861
0.036102757 -0.027607977 0.71717316
0.036244903 -0.029848725 0.7181825
0.036465544 -0.032175452 0.71974915
0.036656003 -0.034499764 0.72110158
0.036873382 -0.036873341 0.72264504
0.037121031 -0.039304584 0.72440356
0.037403092 -0.041803479 0.72640634
0.037730597 -0.04438889 0.72873181
0.038110789 -0.047077984 0.73143142
0.038559973 -0.049901098 0.73462093
0.039114077 -0.052919 0.73855543
0.039861381 -0.056274861 0.74386173
0.041283127 -0.06071046 0.75395703
0.040656805 2.9802322e-08 0.73347151
0.038973641 -0.0021651983 0.72218394
0.038647689 -0.004294157 0.71999812
0.038420994 -0.0064034462 0.71847779
0.038267706 -0.0085039437 0.71744978
0.038076315 -0.010576725 0.71616632
0.037345622 -0.012448549 0.71126622
0.037285019 -0.014499694 0.71085978
0.037377704 -0.016612291 0.71148139
0.037582025 -0.01879099 0.71285152
0.037927195 -0.021070659 0.71516627
0.038169425 -0.023325741 0.71679074
0.038272746 -0.025515139 0.71748364
0.038442478 -0.027763963 0.71862185
0.038577665 -0.030004829 0.7195285
0.038736284 -0.032280207 0.72059214
0.038920082 -0.034595609 0.72182477
0.039131459 -0.036957473 0.72324228
0.039372146 -0.039372146 0.72485638
0.039647903 -0.041850567 0.72670567
0.039965998 -0.044406652 0.72883886
0.040331278 -0.047053099 0.73128843
0.0407556 -0.049812376 0.73413396
0.041268971 -0.052732587 0.73757678
0.041912727 -0.055883616 0.74189389
0.04282346 -0.059477001 0.74800134
0.043252911 -0.0022764504 0.73561502
0.04135574 -0.0043532252 0.723562
0.041027527 -0.0064780414 0.72147673
0.040802836 -0.0085900426 0.72004926
0.040646352 -0.010696381 0.71905506
0.04013025 -0.012672722 0.71577615
0.039661806 -0.014612228 0.71280003
0.039637331 -0.01668936 0.71264452
0.039757513 -0.018832475 0.71340805
0.039996363 -0.021050692 0.71492553
0.040381677 -0.023378819 0.71737349
0.040658522 -0.025679022 0.7191323
0.040759802 -0.027888268 0.7197758
0.04088496 -0.030125737 0.72057092
0.041035142 -0.032396168 0.72152507
0.041211423 -0.034704357 0.72264504
0.041415196 -0.037055671 0.72393966
0.041650165 -0.039458036 0.72543246
0.04191903 -0.041919023 0.72714061
0.042226244 -0.044448644 0.72909242
0.042578001 -0.047059894 0.73132724
0.042982455 -0.049769133 0.73389679
0.043465696 -0.052616358 0.73696685
0.044048116 -0.055639684 0.7406671
0.044800367 -0.058947831 0.74544632
0.045953292 -0.062883466 0.75277108
0.045890164 -0.0045889914 0.73779249
0.043771517 -0.0065657198 0.72500539
0.04343769 -0.0086874962 0.72299057
0.043213911 -0.010803491 0.72163993
0.043054946 -0.012916416 0.72068048
0.042287707 -0.014800668 0.71604985
0.042008299 -0.016803294 0.7143634
0.042026997 -0.018912137 0.71447629
0.042174183 -0.02108708 0.71536463
0.042968243 -0.023632497 0.72015721
0.043028843 -0.025817305 0.720523
0.043114118 -0.028024167 0.72103763
0.043227725 -0.030259401 0.72172332
0.043367662 -0.032525718 0.72256792
0.043535009 -0.034828007 0.72357798
0.043730583 -0.037171006 0.72475833
0.043956861 -0.039561123 0.72612399
0.044216342 -0.042005509 0.7276901
0.044512935 -0.044512898 0.72948021
0.044851493 -0.047094107 0.73152363
0.04523978 -0.049763769 0.73386717
0.045697995 -0.0525527 0.73663276
0.046234906 -0.055481851 0.73987329
0.046900798 -0.058625966 0.74389225
0.047792498 -0.062130213 0.74927413
0.048265677 -0.00459674 0.73825824
0.048282314 -0.0068974495 0.73835373
0.046213776 -0.0088026226 0.72646362
0.045883227 -0.010924548 0.72456348
0.045654953 -0.013044268 0.72325146
0.045586027 -0.01519531 0.72285521
0.044613048 -0.01699543 0.71726239
0.044410162 -0.019032925 0.71609616
0.044451684 -0.021167457 0.71633482
0.045396369 -0.023779035 0.72176504
0.045437589 -0.02596429 0.72200197
0.045508437 -0.028171867 0.72240919
0.045608781 -0.030405819 0.72298598
0.045736033 -0.032668561 0.72371745
0.04589184 -0.034965217 0.72461307
0.046076778 -0.037300229 0.72567612
0.046292569 -0.039679289 0.72691643
0.046541702 -0.042109162 0.72834855
0.046826899 -0.04459703 0.72998792
0.047153242 -0.047153234 0.7318638
0.047527339 -0.049790531 0.73401409
0.047963623 -0.0525316 0.7365219
0.04846872 -0.055392802 0.7394253
0.049079984 -0.058428556 0.742939
0.049844805 -0.061712623 0.7473352
0.050916988 -0.065464646 0.75349826
0.050485425 -0.0068843365 0.73782676
0.050157398 -0.0091194808 0.73602694
0.048817653 -0.011094928 0.72867596
0.048465803 -0.013217926 0.72674549
0.04822883 -0.015345514 0.72544527
0.048063099 -0.017477453 0.72453588
0.047955062 -0.019617945 0.72394311
0.047896639 -0.021771163 0.72362256
0.047878928 -0.023939431 0.7235254
0.04789643 -0.026125312 0.72362137
0.047946703 -0.028332114 0.72389722
0.048027664 -0.030563027 0.72434145
0.048141297 -0.032823592 0.72496492
0.048282985 -0.035114884 0.72574234
0.048455562 -0.037442923 0.72668928
0.048659474 -0.039812267 0.72780812
0.048897021 -0.042229265 0.72911155
0.049171139 -0.04470101 0.7306155
0.04948413 -0.047234833 0.73233289
0.04984533 -0.049845308 0.73431474
0.050261825 -0.052546442 0.73659992
0.050741181 -0.055353999 0.7392301
0.051309761 -0.058306545 0.7423498
0.051995642 -0.061449379 0.74611318
0.052883159 -0.064902008 0.75098276
0.052869447 -0.0091947019 0.7382952
0.051851816 -0.011272103 0.73295426
0.051323421 -0.013388693 0.73018116
0.050978307 -0.015515089 0.72836989
0.050738048 -0.017648011 0.72710896
0.050574385 -0.019789994 0.72624993
0.050473236 -0.02194488 0.72571909
0.050420169 -0.024114013 0.72544056
0.05040868 -0.026300132 0.7253803
0.050434526 -0.028506458 0.72551596
0.050494943 -0.030736029 0.72583306
0.050586607 -0.03299123 0.72631413
0.050712336 -0.035278141 0.72697395
0.05087037 -0.037599832 0.72780335
0.051061321 -0.03996101 0.72880554
0.051285915 -0.042366594 0.72998422
0.05154641 -0.044822901 0.73135144
0.051847849 -0.04733932 0.73293352
0.052195169 -0.049925804 0.73475629
0.052592564 -0.052592516 0.73684192
0.053049065 -0.055355549 0.73923784
0.053583078 -0.05824247 0.74204051
0.054214902 -0.06128636 0.74535644
0.054996569 -0.064561129 0.74945891
0.055328514 -0.011526763 0.73910183
0.054393474 -0.013598353 0.73439896
0.05386452 -0.015710473 0.73173857
0.0535217 -0.017840534 0.73001426
0.053281847 -0.019980669 0.72880793
0.053124398 -0.022135139 0.72801602
0.053026807 -0.024303943 0.72752517
0.052979086 -0.026489526 0.72728515
0.052974645 -0.02869457 0.72726274
0.053009488 -0.030922174 0.72743797
0.05308095 -0.033175558 0.72779745
0.053184863 -0.035456538 0.72832012
0.053325385 -0.037772119 0.72902685
0.053499762 -0.040124774 0.72990394
0.053710338 -0.042520642 0.73096299
0.053958189 -0.044965118 0.73220962
0.054246295 -0.047465473 0.73365867
0.054577153 -0.050029039 0.73532277
0.054957308 -0.052667439 0.73723483
0.055391803 -0.055391818 0.73942018
0.055897683 -0.058226734 0.74196458
0.056489844 -0.061197311 0.74494284
0.057200748 -0.064350814 0.74851847
0.057847355 -0.013883352 0.74013263
0.056963556 -0.015949786 0.73586524
0.056443576 -0.018061876 0.73335463
0.056096546 -0.020194739 0.73167896
0.055863813 -0.022345543 0.73055524
0.055709559 -0.024512172 0.72981048
0.055615686 -0.02669552 0.72935724
0.055573683 -0.028898299 0.72915435
0.055577386 -0.03112331 0.72917229
0.055622365 -0.033373386 0.72938943
0.055705588 -0.035651565 0.72979128
0.055824421 -0.037960589 0.73036504
0.055981819 -0.040306866 0.731125
0.056175902 -0.042693675 0.7320621
0.05640769 -0.04512614 0.73318136
0.056679122 -0.047610432 0.73449188
0.056994703 -0.050155342 0.73601574
0.057356387 -0.052767873 0.73776203
