# .PCD v0.7 - Point Cloud Data file format
VERSION 0.7
FIELDS x y z
SIZE 4 4 4
TYPE F F F
COUNT 1 1 1
WIDTH 1314
HEIGHT 1
VIEWPOINT 0 0 0 1 0 0 0
POINTS 1314
DATA ascii
-0.050413478 -0.0097574592 0.65712559
-0.052348312 -0.011820585 0.66465962
-0.052392513 -0.013520628 0.66483176
-0.05215627 -0.015142083 0.66391182
-0.051791254 -0.016706824 0.66249049
-0.05160173 -0.018310279 0.66175252
-0.051594518 -0.019972056 0.66172439
-0.051940922 -0.021781653 0.6630733
-0.052407559 -0.023667902 0.66489029
-0.05234601 -0.025328696 0.66465068
-0.052170482 -0.026926696 0.66396719
-0.051947705 -0.028487414 0.66309971
-0.051512957 -0.029910743 0.66140682
-0.050557915 -0.030987084 0.65768802
-0.050143428 -0.0323506 0.65607405
-0.050848287 -0.034445554 0.65881872
-0.050528597 -0.035859019 0.65757382
-0.050166458 -0.037220269 0.65616369
-0.049758021 -0.038522333 0.65457332
-0.049916543 -0.040255249 0.65519059
-0.044272728 0.0029515326 0.6389606
-0.044402514 0.0014801025 0.63948286
-0.044533059 -0 0.64000809
-0.046607852 -0.0015535653 0.64835644
-0.046526231 -0.0031017363 0.64802802
-0.049545199 -0.0049544871 0.66017538
-0.049293507 -0.0065724254 0.65916264
-0.049139075 -0.0081898272 0.65854126
-0.051119603 -0.010223895 0.66651022
-0.051289901 -0.011967629 0.66719556
-0.05118392 -0.013649017 0.66676903
-0.050846525 -0.015253961 0.66541153
-0.050567839 -0.016855896 0.66429013
-0.050456844 -0.018500835 0.66384351
-0.050610293 -0.020244092 0.66446102
-0.051203474 -0.022188157 0.66684777
-0.051279563 -0.02393043 0.66715395
-0.051127434 -0.025563687 0.66654181
-0.05093573 -0.027165711 0.66577047
-0.050601076 -0.028673947 0.66442394
-0.04995494 -0.02997297 0.66182405
-0.049136981 -0.031120092 0.65853286
-0.04972887 -0.03315258 0.66091442
-0.049561065 -0.034692764 0.66023928
-0.049212534 -0.036089182 0.65883684
-0.048346944 -0.037065983 0.65535402
-0.047912233 -0.03832975 0.65360487
-0.048064265 -0.040053517 0.65421653
-0.048217271 -0.04178825 0.65483218
-0.042476755 0.0043941736 0.63762772
-0.042600088 0.0029379725 0.63814104
-0.042740498 0.0014738142 0.63872558
-0.042849422 2.9802322e-08 0.63917893
-0.042975184 -0.0014818609 0.63970244
-0.045538105 -0.0031405389 0.65037042
-0.04837155 -0.0050039589 0.66216445
-0.048052136 -0.0066278279 0.66083491
-0.04822766 -0.0083150864 0.66156548
-0.050087333 -0.010362864 0.66930628
-0.050124012 -0.012098908 0.66945899
-0.049884666 -0.013761282 0.66846263
-0.049536571 -0.015373409 0.66701376
-0.049363833 -0.017021984 0.66629475
-0.049374584 -0.018728256 0.66633952
-0.049804021 -0.020608544 0.668127
-0.050156064 -0.022483706 0.66959238
-0.050053816 -0.024163902 0.6691668
-0.049874548 -0.025797158 0.66842055
-0.049628567 -0.027381271 0.66739666
-0.049135495 -0.028803557 0.66534436
-0.04817738 -0.029903173 0.66135621
-0.047987461 -0.03144002 0.66056573
-0.048563715 -0.033492178 0.66296428
-0.048226699 -0.034922749 0.66156149
-0.047759071 -0.036231011 0.65961504
-0.046896845 -0.037194043 0.65602607
-0.046711456 -0.038657755 0.65525442
-0.046546929 -0.040126622 0.65456957
-0.046376586 -0.041578978 0.65386051
-0.046524096 -0.04331553 0.65447456
-0.040863827 0.0058377385 0.63698876
-0.040824771 0.0043740869 0.63682044
-0.041652419 0.002975136 0.64038849
-0.04171716 0.0014899373 0.64066756
-0.041434623 -2.9802322e-08 0.6394496
-0.041301724 -0.0014750361 0.63887656
-0.04142274 -0.0029587448 0.63939828
-0.047085457 -0.0050448775 0.66381079
-0.046916578 -0.0067023337 0.66308272
-0.048809357 -0.0087159574 0.67124271
-0.048974007 -0.010494411 0.67195255
-0.048859064 -0.01221475 0.67145699
-0.048526853 -0.013864815 0.67002481
-0.048264887 -0.015513688 0.66889548
-0.048183385 -0.017208368 0.66854411
-0.048365027 -0.01900053 0.66932714
-0.048939276 -0.02097398 0.67180282
-0.048947826 -0.022725761 0.67183965
-0.048782334 -0.024391145 0.67112625
-0.048583899 -0.026027054 0.67027074
-0.048206266 -0.027546406 0.66864276
-0.047358103 -0.028753102 0.66498625
-0.04685805 -0.030123025 0.66283047
-0.047516149 -0.032243133 0.66566759
-0.047210485 -0.033721745 0.66434979
-0.046856955 -0.03514272 0.6628257
-0.045926433 -0.036085069 0.65881419
-0.045643196 -0.037492573 0.65759307
-0.04552469 -0.039021134 0.65708214
-0.045234684 -0.040388107 0.65583193
-0.044783551 -0.04158473 0.65388709
-0.0446954 -0.043099105 0.65350711
-0.039473254 0.0058479011 0.63729656
-0.039187916 0.0043542385 0.6360209
-0.039301008 0.0029112101 0.63652653
-0.040614989 0.0015042722 0.64240104
-0.040133569 -0 0.64024872
-0.039643645 -0.001468271 0.63805836
-0.046097595 -0.0034146309 0.66691244
-0.045788087 -0.0050875843 0.66552871
-0.045940679 -0.006806016 0.66621089
-0.047720704 -0.0088371038 0.67416894
-0.04775022 -0.010611147 0.67430097
-0.047505245 -0.012316167 0.67320573
-0.047178261 -0.01397872 0.67174381
-0.047022425 -0.015674114 0.67104715
-0.047050267 -0.017426044 0.67117161
-0.047557417 -0.019375235 0.67343903
-0.047782138 -0.021236449 0.67444366
-0.04765724 -0.02294603 0.67388523
-0.047475524 -0.024616927 0.67307287
-0.047188148 -0.026215613 0.67178804
-0.046612598 -0.027622283 0.6692149
-0.045787934 -0.028829396 0.665528
-0.046022531 -0.03068167 0.66657686
-0.04616265 -0.0324848 0.66720331
-0.045826137 -0.033945292 0.66569883
-0.044980552 -0.034984857 0.6619184
-0.044568613 -0.036315113 0.66007674
-0.044459783 -0.037873119 0.65959018
-0.04422256 -0.039308906 0.65852958
-0.043807562 -0.04056254 0.65667427
-0.043342497 -0.041737169 0.65459502
-0.042884886 -0.042884886 0.65254927
-0.043020219 -0.04461357 0.65315425
-0.038212139 0.0058788359 0.63822913
-0.037779801 0.0043592453 0.63622189
-0.037673675 0.0028979778 0.63572913
-0.037782103 0.001453191 0.63623255
-0.037891157 -0 0.6367389
-0.038000733 -0.0014615357 0.63724762
-0.044773128 -0.0034440458 0.66868997
-0.04458959 -0.0051449537 0.6678378
-0.046390139 -0.0071369112 0.67619723
-0.046548657 -0.008951664 0.67693317
-0.046426062 -0.010713696 0.67636406
-0.046100155 -0.012411565 0.67485094
-0.045855112 -0.014109224 0.67371327
-0.045805223 -0.01585561 0.67348164
-0.046022195 -0.017700851 0.67448902
-0.046536501 -0.019688517 0.67687678
-0.046494752 -0.021459103 0.67668295
-0.04632967 -0.023164779 0.67591649
-0.04611437 -0.024830788 0.67491698
-0.045673996 -0.026350379 0.67287242
-0.044765424 -0.027547926 0.66865414
-0.044538449 -0.02912128 0.66760039
-0.045081884 -0.031210542 0.67012346
-0.044757724 -0.032707542 0.66861844
-0.044195738 -0.033996731 0.66600931
-0.043499552 -0.035134226 0.66277707
-0.043349821 -0.036680579 0.6620819
-0.043164849 -0.038184285 0.66122317
-0.042803124 -0.039510548 0.65954375
-0.042346682 -0.040717959 0.65742463
-0.041864816 -0.041864783 0.65518743
-0.041360758 -0.042951554 0.65284729
-0.041221317 -0.044392139 0.65219986
-0.037606131 0.0075212717 0.64239931
-0.03698251 0.0059171915 0.63938832
-0.036645137 0.0043974519 0.63775927
-0.036418214 0.002913475 0.63666356
-0.036164574 0.0014466345 0.63543892
-0.03626838 2.9802322e-08 0.63594013
-0.037083484 -0.001483351 0.63987583
-0.043415219 -0.0034731925 0.67044812
-0.043545343 -0.00522542 0.67107642
-0.045241203 -0.0072385371 0.67926478
-0.045263629 -0.0090526938 0.67937309
-0.045013607 -0.010803223 0.67816579
-0.04470937 -0.012518585 0.67669684
-0.044570141 -0.014262438 0.67602456
-0.044637896 -0.016069621 0.67635173
-0.045178294 -0.018071264 0.67896104
-0.04528477 -0.019925296 0.67947513
-0.045146339 -0.021670252 0.67880672
-0.044964906 -0.02338171 0.67793071
-0.044636302 -0.02499631 0.67634404
-0.043915763 -0.026349455 0.67286497
-0.043341808 -0.02773872 0.67009366
-0.043945387 -0.029882848 0.67300802
-0.043655675 -0.031432092 0.67160916
-0.043313894 -0.032918543 0.66995889
-0.042435929 -0.03394872 0.66571969
-0.042201281 -0.035449058 0.66458672
-0.042070843 -0.037022322 0.66395688
-0.041761562 -0.038420618 0.66246355
-0.041316714 -0.03966406 0.66031563
-0.040850006 -0.040849984 0.65806216
-0.040361267 -0.041975707 0.65570235
-0.039835948 -0.043022811 0.65316582
-0.039440181 -0.044173002 0.65125489
-0.039563548 -0.045893699 0.65185064
-0.036234345 0.0075488091 0.64306563
-0.035773758 0.0059622824 0.64074904
-0.03551371 0.0044392049 0.63944107
-0.035245206 0.0029371381 0.63809061
-0.034707054 0.0014461875 0.6353839
-0.034660272 2.9802322e-08 0.63514858
-0.042345557 -0.0017643869 0.67380261
-0.042150404 -0.0035124719 0.67282104
-0.043854408 -0.0054817796 0.68139154
-0.044006273 -0.0073343813 0.68215537
-0.043876838 -0.0091410279 0.68150437
-0.043558691 -0.010889649 0.67990416
-0.043335322 -0.012639433 0.67878079
-0.043311253 -0.01443705 0.67865968
-0.043605033 -0.016351849 0.68013728
-0.044006273 -0.018335938 0.68215543
-0.043926593 -0.020133018 0.68175465
-0.04375964 -0.021879792 0.68091488
-0.043518908 -0.023572713 0.67970413
-0.043015085 -0.025092095 0.6771701
-0.042193353 -0.026370794 0.67303705
-0.042317804 -0.028211832 0.67366302
-0.042518429 -0.030117184 0.67467207
-0.042196762 -0.031647563 0.67305422
-0.041380167 -0.032759279 0.66894704
-0.041031923 -0.034193248 0.66719556
-0.04092662 -0.035810769 0.66666591
-0.040674742 -0.037285149 0.66539907
-0.040256135 -0.038578779 0.6632936
-0.039804853 -0.039804816 0.66102386
-0.03933173 -0.040970534 0.6586442
-0.038834151 -0.042070299 0.65614158
-0.037559878 -0.042254835 0.64973253
-0.037676543 -0.043955922 0.65031928
-0.037794054 -0.045667797 0.65091026
-0.037912179 -0.047390223 0.6515044
-0.03566381 0.0093035996 0.64799494
-0.034924593 0.0075923204 0.64411533
-0.034574773 0.006013006 0.64227939
-0.034354825 0.004481107 0.64112496
-0.034005009 0.0029569566 0.63928902
-0.033365943 0.0014506876 0.63593507
-0.033066638 -0 0.63436419
-0.033161059 -0.0014417768 0.63485974
-0.041033771 -0.0035681129 0.67617804
-0.042640202 -0.0055617392 0.68460906
-0.042656008 -0.0074184239 0.68469203
-0.042404529 -0.009218365 0.6833722
-0.042121742 -0.010988265 0.68188804
-0.041999072 -0.012782305 0.68124419
-0.042107102 -0.014645934 0.68181121
-0.042623781 -0.01667884 0.68452287
-0.04266692 -0.018550783 0.68474931
-0.042516697 -0.020334065 0.68396086
-0.042327948 -0.022084117 0.68297029
-0.041947939 -0.023709714 0.68097591
-0.04109766 -0.02501595 0.67651337
-0.040838648 -0.026633888 0.67515397
-0.041344378 -0.028761268 0.67780817
-0.041036114 -0.030330986 0.67619032
-0.040398248 -0.031616002 0.67284262
-0.039864935 -0.032931864 0.67004365
-0.039743505 -0.034559548 0.66940635
-0.039542083 -0.036103636 0.66834927
-0.039163418 -0.037460625 0.66636193
-0.038727708 -0.038727701 0.6640752
-0.038266692 -0.039930463 0.66165566
-0.037779029 -0.041064173 0.65909624
-0.037101001 -0.041940272 0.65553772
-0.035819437 -0.042048872 0.6488117
-0.035930153 -0.043741018 0.64939278
-0.036364879 -0.04585135 0.65167439
-0.036171146 -0.047179729 0.65065753
-0.03626667 -0.048881143 0.65115893
-0.034154806 0.0093149543 0.64822316
-0.03366749 0.0076517165 0.64554936
-0.033387084 0.0060704052 0.64401078
-0.033153296 0.0045209229 0.64272803
-0.032667946 0.0029698312 0.64006495
-0.032017268 0.0014553666 0.63649476
-0.031487364 2.9802322e-08 0.63358736
-0.031576786 -0.0014352798 0.63407791
-0.041193187 -0.0037448108 0.68684173
-0.041337825 -0.0056369603 0.6876353
-0.041203212 -0.0074914694 0.68689668
-0.040894467 -0.0092941523 0.68520266
-0.040700022 -0.011100024 0.68413579
-0.040692799 -0.012947708 0.68409616
-0.041056603 -0.014929652 0.68609232
-0.041345589 -0.01691407 0.68767786
-0.041234698 -0.018743008 0.68706942
-0.041067477 -0.020533711 0.68615192
-0.040786885 -0.022247374 0.68461239
-0.040197231 -0.023752898 0.68137705
-0.039565418 -0.025177985 0.67791039
-0.040109202 -0.027347177 0.68089414
-0.039837904 -0.028973013 0.67940551
-0.039506063 -0.030527353 0.67758465
-0.038698316 -0.031662256 0.67315274
-0.038505957 -0.0332551 0.67209733
-0.038357556 -0.034870505 0.67128301
-0.038036939 -0.036307961 0.66952384
-0.037611179 -0.037611157 0.66718775
-0.03716258 -0.038851798 0.66472638
-0.036691621 -0.040027201 0.66214234
-0.03613504 -0.041062534 0.65908843
-0.034513116 -0.040788203 0.65018916
-0.03409588 -0.041844934 0.64789987
-0.034200754 -0.043528169 0.64847529
-0.035073169 -0.04623279 0.65326202
-0.03472586 -0.047353417 0.65135646
-0.034519505 -0.048641086 0.65022421
-0.032784808 0.0093671083 0.6492722
-0.032402948 0.0077149868 0.64707714
-0.032184105 0.0061303079 0.64581925
-0.031885255 0.0045550466 0.64410138
-0.031284146 0.0029794276 0.64064616
-0.030698549 0.0014618635 0.63728005
-0.030193185 2.9802322e-08 0.63437515
-0.030006684 -0.0014288723 0.63330317
-0.030103397 -0.0028669834 0.63385904
-0.039918292 -0.0057026148 0.69027632
-0.039668579 -0.007555902 0.68884093
-0.039406449 -0.0093824565 0.68733418
-0.039300032 -0.011228591 0.68672252
-0.039444759 -0.013148218 0.68755442
-0.039932854 -0.015212476 0.69036007
-0.039909501 -0.017104059 0.69022578
-0.039758787 -0.01893276 0.68935949
-0.039554048 -0.020718783 0.68818259
-0.039126914 -0.022358209 0.68572736
-0.038332008 -0.023729324 0.68115819
-0.038369384 -0.025579542 0.681373
-0.038600408 -0.027571738 0.68270105
-0.03829708 -0.029178679 0.68095738
-0.03753186 -0.030382901 0.67655879
-0.037236717 -0.031917185 0.67486233
-0.037132762 -0.033596277 0.67426473
-0.036865555 -0.035110027 0.67272884
-0.03645613 -0.036456138 0.67037541
-0.036024299 -0.037739724 0.66789317
-0.03557016 -0.038957775 0.66528273
-0.035074327 -0.040084928 0.66243261
-0.03350541 -0.039887369 0.65341425
-0.032789104 -0.040596008 0.64929682
-0.032507204 -0.041794956 0.64767647
-0.032488104 -0.043317437 0.64756668
-0.032587957 -0.045002401 0.64814067
-0.032688428 -0.046697736 0.64871812
-0.032789413 -0.048403382 0.64929861
-0.032004926 0.011201769 0.65398771
-0.031445757 0.0094337463 0.65061283
-0.03115141 0.0077878535 0.64883631
-0.030946314 0.0061892867 0.64759845
-0.030515997 0.0045774281 0.64500123
-0.029891338 0.0029891729 0.64123112
-0.029367901 0.0014684498 0.63807189
-0.028912602 -0 0.63532388
-0.028498851 -0.0014249086 0.63282663
-0.038534038 -0.0038533509 0.69339436
-0.038395651 -0.0057593584 0.69255918
-0.038098041 -0.0076195896 0.69076288
-0.037931968 -0.0094829798 0.68976057
-0.037940308 -0.011382073 0.68981093
-0.03836577 -0.013428003 0.69237882
-0.038528401 -0.015411377 0.69336045
-0.038406849 -0.017283052 0.69262677
-0.038240712 -0.019120365 0.69162405
-0.037925784 -0.020859152 0.68972325
-0.037158012 -0.02229479 0.68508935
-0.036858428 -0.023957968 0.68328118
-0.037322097 -0.026125461 0.68607968
-0.037032884 -0.027774632 0.6843341
-0.036399253 -0.029119372 0.68050981
-0.035959128 -0.030565232 0.67785347
-0.035856437 -0.032270789 0.6772337
-0.035642017 -0.033859879 0.6759395
-0.035264961 -0.035264969 0.67366379
-0.034849983 -0.036592454 0.67115915
-0.034413155 -0.037854463 0.66852266
-0.033948053 -0.039040238 0.66571552
-0.032485124 -0.038982153 0.65688598
-0.031728107 -0.039660096 0.65231699
-0.031391602 -0.040809065 0.65028596
-0.031206585 -0.042128861 0.64916933
-0.031050308 -0.043470412 0.64822608
-0.030886142 -0.044784874 0.64723527
-0.030980902 -0.046471357 0.64780724
-0.030522896 0.011245281 0.65473878
-0.030115444 0.0095101297 0.65215015
-0.029896958 0.0078676343 0.65076208
-0.029629627 0.0062378347 0.64906359
-0.029087232 0.0045927465 0.64561772
-0.028521324 0.0030022562 0.64202243
-0.028036419 0.0014756322 0.63894165
-0.027617861 -0 0.6362825
-0.027397392 -0.0014419258 0.63488185
-0.037040502 -0.0038989782 0.69614643
-0.036794927 -0.0058096647 0.69458616
-0.036554132 -0.0076956153 0.69305634
-0.036474608 -0.0095985532 0.69255114
-0.03664374 -0.011571705 0.69362569
-0.03706881 -0.013656884 0.6963262
-0.03701137 -0.015583724 0.69596136
-0.036861695 -0.017460823 0.69501042
-0.036630325 -0.019279093 0.69354051
-0.036130276 -0.020917505 0.69036353
-0.035495836 -0.02241841 0.68633282
-0.035975777 -0.02461499 0.68938196
-0.035726879 -0.026325047 0.68780065
-0.035408847 -0.02795434 0.68578011
-0.034679316 -0.029203624 0.68114531
-0.034527924 -0.030893385 0.68018347
-0.03436641 -0.032557636 0.67915738
-0.034035809 -0.034035742 0.67705697
-0.033638034 -0.035408437 0.67452985
-0.033217382 -0.036713958 0.67185736
-0.032771043 -0.03794542 0.66902167
-0.03145754 -0.038080156 0.66067672
-0.030673178 -0.038745075 0.65569353
-0.030247482 -0.039799303 0.65298903
-0.030052803 -0.041124851 0.65175217
-0.029922362 -0.042521238 0.65092349
-0.029310172 -0.043193907 0.64703405
-0.02920079 -0.044569612 0.64633918
-0.030147053 -0.047600567 0.65235096
-0.029770749 0.013231426 0.66046798
-0.029098794 0.01131624 0.65596175
-0.028798353 0.0095994771 0.65394694
-0.028603908 0.0079455376 0.65264297
-0.028233312 0.0062741041 0.65015769
-0.027648451 0.0046080947 0.64623553
-0.027144719 0.0030161142 0.64285743
-0.026709771 0.0014838874 0.63994062
-0.026317656 -0 0.63731104
-0.035584014 -0.0019768775 0.69945264
-0.035443697 -0.0039381683 0.69851166
-0.035160184 -0.0058600307 0.69661033
-0.035021003 -0.0077824295 0.69567698
-0.035051942 -0.0097366273 0.69588441
-0.035498042 -0.011832654 0.69887602
-0.035566449 -0.013831377 0.6993348
-0.035436589 -0.015749544 0.69846392
-0.035264257 -0.017632097 0.69730824
-0.03489982 -0.019388765 0.69486427
-0.034164283 -0.020878166 0.68993169
-0.034125317 -0.022750199 0.68967032
-0.034376837 -0.024827689 0.69135708
-0.034095604 -0.026518822 0.68947107
-0.033391379 -0.02782613 0.68474841
-0.033155121 -0.029471189 0.68316406
-0.033042122 -0.031206429 0.68240631
-0.032765761 -0.032765746 0.68055296
-0.032380786 -0.034179688 0.67797124
-0.031975091 -0.035527855 0.67525065
-0.03154736 -0.036805242 0.67238218
-0.031005638 -0.037895739 0.66874933
-0.029581347 -0.037798375 0.65919781
-0.029071461 -0.038761944 0.65577847
-0.028866844 -0.040092826 0.65440625
-0.028750092 -0.041527897 0.65362334
-0.02824695 -0.042370409 0.65024918
-0.027448412 -0.042697489 0.644894
-0.027531477 -0.044356227 0.64545107
-0.028134303 0.013239682 0.66059214
-0.027711125 0.011410475 0.65758729
-0.027479442 0.0096986294 0.6559422
-0.02724837 0.0080142319 0.6543014
-0.026765397 0.0062977672 0.65087199
-0.02622392 0.004627794 0.64702719
-0.025763011 0.0030309558 0.64375448
-0.025368234 0.0014922619 0.64095134
-0.025166634 2.9802322e-08 0.63951975
-0.034011602 -0.0020006895 0.70232469
-0.033772584 -0.0039732158 0.70062745
-0.033553831 -0.0059212446 0.69907415
-0.033502951 -0.0078830123 0.69871294
-0.03373294 -0.0099214017 0.70034593
-0.03405204 -0.012018353 0.7026118
-0.033964749 -0.013985455 0.70199192
-0.024338247 -0.011453271 0.63363779
-0.033557143 -0.017765552 0.69909775
-0.032920629 -0.019365042 0.69457805
-0.032567829 -0.021073282 0.69207293
-0.032980874 -0.023280591 0.69500583
-0.032715134 -0.025017411 0.69311887
-0.032111689 -0.026444882 0.68883413
-0.031757064 -0.028020918 0.68631601
-0.031663083 -0.029800504 0.68564874
-0.031441297 -0.031441271 0.68407393
-0.031079428 -0.032907635 0.68150431
-0.030692199 -0.034303039 0.67875481
-0.030283632 -0.035627782 0.67585373
-0.029826282 -0.036844194 0.67260623
-0.028443063 -0.03680864 0.66278446
-0.027866822 -0.037702143 0.65869284
-0.027651221 -0.039037019 0.65716195
-0.025676534 -0.037759572 0.64314044
-0.025646187 -0.039223552 0.6429249
-0.025723042 -0.040854216 0.64347064
-0.025800284 -0.042494595 0.64401913
-0.025878072 -0.044144899 0.64457142
-0.02663696 0.013318479 0.66178119
-0.026316658 0.011513561 0.65936476
-0.026131116 0.0097991824 0.657965
-0.02581913 0.0080685019 0.65561122
-0.025277579 0.0063194036 0.6515255
-0.024798233 0.0046496689 0.64790916
-0.024387289 0.00304842 0.64480877
-0.024019759 0.0015012324 0.64203596
-0.032476328 2.9802322e-08 0.70583582
-0.032336231 -0.0020209849 0.70477891
-0.032076202 -0.004009515 0.7028172
-0.031955466 -0.0059916079 0.70190626
-0.03202001 -0.0080049932 0.70239323
-0.032433961 -0.010135591 0.70551628
-0.032442506 -0.012165934 0.70558071
-0.022739826 -0.0099486709 0.63237959
-0.022804016 -0.011401981 0.63286394
-0.031709794 -0.017836779 0.7000528
-0.031100394 -0.01943773 0.69545525
-0.031509105 -0.021662474 0.69853878
-0.03128745 -0.023465544 0.69686651
-0.03098412 -0.025174558 0.69457805
-0.03034707 -0.026553661 0.68977183
-0.030233268 -0.028343707 0.68891323
-0.030061277 -0.030061245 0.68761575
-0.029734913 -0.031593323 0.68515348
-0.029366789 -0.033037633 0.68237621
-0.028977638 -0.034410894 0.67944026
-0.028556636 -0.035695791 0.67626411
-0.027256638 -0.03577432 0.66645634
-0.02664024 -0.036630332 0.66180599
-0.026405195 -0.03795746 0.66003275
-0.026271492 -0.039407223 0.659024
-0.024216956 -0.037838966 0.64352369
-0.024054689 -0.039088875 0.64229953
-0.024095813 -0.040661663 0.64260978
-0.024167901 -0.042293817 0.64315361
-0.025640044 0.015384018 0.6671561
-0.025166159 0.013421983 0.66334254
-0.024925789 0.011632055 0.66140819
-0.024730807 0.0098923743 0.65983903
-0.024307663 0.008102566 0.65643382
-0.023795933 0.0063456297 0.65231574
-0.023363411 0.0046726763 0.64883512
-0.022995546 0.0030660927 0.6458748
-0.022813741 0.0015209019 0.64441174
-0.030819373 2.9802322e-08 0.70883608
-0.030590007 -0.0020392835 0.70699024
-0.030394033 -0.0040525198 0.70541322
-0.030368943 -0.0060737729 0.70521122
-0.030649221 -0.0081730783 0.70746678
-0.021281892 -0.007093966 0.63208437
-0.021164866 -0.0084658861 0.63114256
-0.021224177 -0.009904623 0.63161987
-0.021283764 -0.011351347 0.63209939
-0.029655689 -0.017793417 0.69947147
-0.029567717 -0.019711792 0.69876349
-0.029810227 -0.021860838 0.70071512
-0.029556191 -0.023644924 0.6986708
-0.028924139 -0.025067568 0.69358444
-0.028744133 -0.026827842 0.69213581
-0.02862191 -0.028621882 0.69115222
-0.028345294 -0.030234933 0.68892622
-0.02799648 -0.031729311 0.6861192
-0.027627438 -0.033152908 0.68314934
-0.027235245 -0.034497976 0.67999327
-0.026050758 -0.034734309 0.6704613
-0.025399946 -0.035559922 0.6652239
-0.025122274 -0.036845982 0.66298938
-0.024976803 -0.038297743 0.66181868
-0.023042003 -0.036867201 0.64624858
-0.022871932 -0.038119853 0.64488006
-0.022663632 -0.039283603 0.64320374
-0.02248385 -0.040470898 0.64175701
-0.022550797 -0.042094797 0.64229572
-0.024029627 0.015447646 0.66800892
-0.023694908 0.01354 0.66512293
-0.023517119 0.011758596 0.66358995
-0.023261676 0.0099692941 0.6613875
-0.022767449 0.0081312358 0.65712619
-0.022317795 0.0063765347 0.65324926
-0.021934971 0.0047003627 0.64994842
-0.021595372 0.003085047 0.64702034
-0.029197689 0.0020855665 0.71256894
-0.029060453 -0 0.71138567
-0.028825473 -0.002058953 0.70935965
-0.028722879 -0.0041032732 0.70847511
-0.028815394 -0.0061747432 0.70927274
-0.029182363 -0.0083377957 0.71243685
-0.0200416 -0.0071577132 0.63362342
-0.019900173 -0.00852862 0.63240403
-0.019763738 -0.0098818541 0.63122761
-0.019777019 -0.01130116 0.63134217
-0.019832509 -0.012749434 0.63182056
-0.028281409 -0.020200968 0.70466864
-0.028044092 -0.022034615 0.70262241
-0.027496876 -0.02356869 0.69790423
-0.027215276 -0.025271297 0.69547623
-0.027130321 -0.027130306 0.69474375
-0.026904827 -0.028826594 0.69279945
-0.026573732 -0.030369967 0.68994468
-0.026222974 -0.031842172 0.6869204
-0.02585184 -0.033238053 0.68372041
-0.024867924 -0.033749312 0.67523688
-0.024152331 -0.034503281 0.66906691
-0.023804415 -0.03570658 0.66606712
-0.020582963 -0.032344609 0.63829112
-0.020643072 -0.033913583 0.63880944
-0.02165867 -0.037129134 0.64756608
-0.020764291 -0.037079066 0.63985455
-0.020825466 -0.038675845 0.64038205
-0.020886941 -0.040281951 0.64091212
-0.023036199 0.017720193 0.67472208
-0.022467833 0.015554667 0.66944456
-0.022228282 0.013678938 0.66722023
-0.022064436 0.011880875 0.66569889
-0.02170174 0.010016233 0.66233104
-0.02122606 0.0081638992 0.65791416
-0.020827714 0.0064085722 0.65421534
-0.020489577 0.0047283471 0.6510756
-0.020328339 0.0031274557 0.64957839
-0.027450237 0.0021115541 0.71570837
-0.027233826 -0 0.71369892
-0.0270651 -0.0020819008 0.71213216
-0.027058907 -0.0041628778 0.7120747
-0.027376415 -0.0063176155 0.71502286
-0.018930638 -0.0058248043 0.63660014
-0.018787274 -0.0072258413 0.63526893
-0.018656336 -0.0086106062 0.63405311
-0.018527206 -0.0099761784 0.6328541
-0.018422471 -0.011336893 0.63188159
-0.018334663 -0.012693226 0.6310662
-0.018385969 -0.01414302 0.63154268
-0.018437615 -0.015601009 0.6320222
-0.018489448 -0.017067134 0.63250351
-0.018541731 -0.018541723 0.63298899
-0.018594256 -0.020024568 0.63347667
-0.018647028 -0.021515787 0.63396668
-0.0187001 -0.023015499 0.6344595
-0.018753584 -0.024523914 0.63495612
-0.023999345 -0.033229858 0.68366534
-0.022858428 -0.033408433 0.67307138
-0.022446124 -0.034532487 0.66924298
-0.019207453 -0.031027377 0.63917047
-0.019043088 -0.032226771 0.63764429
-0.019080458 -0.033757746 0.63799131
-0.019136086 -0.03532815 0.63850784
-0.01919204 -0.036907732 0.63902736
-0.01924832 -0.038496614 0.63954997
-0.021262905 0.01771909 0.6747092
-0.020924345 0.015693277 0.67130357
-0.020748282 0.013832211 0.66953254
-0.020540666 0.011982083 0.66744405
-0.020105423 0.010052741 0.66306585
-0.019691534 0.0082048476 0.65890247
-0.019341767 0.0064472854 0.65538406
-0.019033909 0.004758507 0.65228724
-0.025733763 0.0042889416 0.71968263
-0.025602201 0.0021335483 0.71835917
-0.025393978 2.9802322e-08 0.71626461
-0.025309205 -0.0021090508 0.71541178
-0.025422903 -0.0042371452 0.71655554
-0.025727922 -0.006431967 0.7196238
-0.017636942 -0.0058789551 0.63823479
-0.017511588 -0.0072964728 0.63697386
-0.017388353 -0.0086941421 0.63573426
-0.017279217 -0.010079533 0.6346364
-0.017183824 -0.011455864 0.63367683
-0.01708943 -0.012817055 0.63272727
-0.017018132 -0.014181763 0.63201004
-0.016949626 -0.015537113 0.63132095
-0.016991595 -0.016991556 0.63174313
-0.017039381 -0.01845932 0.63222378
-0.017087387 -0.01993525 0.6327067
-0.017300874 -0.021626055 0.63485426
-0.017258307 -0.023011088 0.63442612
-0.017233193 -0.024413705 0.63417345
-0.0172823 -0.025923401 0.6346674
-0.017331688 -0.02744177 0.63516414
-0.017381407 -0.02896902 0.6356644
-0.017431414 -0.030504972 0.63616741
-0.017481659 -0.032049716 0.63667285
-0.017532244 -0.03360343 0.63718164
-0.017583072 -0.035166144 0.63769293
-0.017830785 -0.037147462 0.64018476
-0.019614846 0.017831713 0.67606831
-0.01937129 0.015849262 0.67339557
-0.019227488 0.013983637 0.67181754
-0.018933875 0.012048841 0.66859555
-0.018501401 0.010091692 0.66384971
-0.018143876 0.0082472563 0.6599263
-0.017838618 0.0064868033 0.65657645
-0.017699052 0.0048270524 0.65504491
-0.023888862 0.0043434203 0.72297007
-0.0236897 0.002153635 0.72078449
-0.02355244 2.9802322e-08 0.71927828
-0.023557579 -0.0021415651 0.71933472
-0.023872802 -0.0043404996 0.72279382
-0.016452475 -0.0044869781 0.64136535
-0.016327577 -0.0059373081 0.6399948
-0.01621072 -0.0073684752 0.63871241
-0.016098537 -0.0087809861 0.63748139
-0.016008215 -0.01018703 0.63649017
-0.015918856 -0.011577308 0.63550961
-0.015843751 -0.012963027 0.6346854
-0.015778979 -0.014344513 0.63397467
-0.015714779 -0.015714735 0.63327014
-0.01562493 -0.017045349 0.63228416
-0.015550325 -0.018377632 0.63146549
-0.015593987 -0.019846857 0.6319446
-0.016064985 -0.021906763 0.63711321
-0.015945744 -0.023193806 0.63580465
-0.01572641 -0.02430445 0.63339776
-0.01577102 -0.025807142 0.63388729
-0.015815886 -0.027318358 0.63437968
-0.015861055 -0.028838247 0.63487536
-0.015906481 -0.030366898 0.63537383
-0.015952168 -0.03190431 0.63587517
-0.016148793 -0.033765644 0.63803291
-0.016510811 -0.036023587 0.64200556
-0.018343881 0.020178288 0.6822511
-0.017983634 0.017983645 0.67790258
-0.01780959 0.016028643 0.67580169
-0.017641805 0.014113486 0.67377633
-0.017277339 0.01209417 0.66937685
-0.016906351 0.010143846 0.66489863
-0.016595092 0.0082975626 0.6611414
-0.016323317 0.0065293312 0.65786076
-0.022066733 0.0066200197 0.72718996
-0.021944886 0.004388988 0.72571909
-0.021766463 0.0021766722 0.72356534
-0.021705749 -0 0.72283244
-0.021856885 -0.0021856725 0.72465682
-0.022067025 -0.0044133961 0.72719347
-0.015102201 -0.0045306087 0.64312059
-0.014992287 -0.0059968829 0.64179379
-0.014883917 -0.0074419677 0.64048564
-0.014793704 -0.0088762045 0.63939667
-0.014709766 -0.010296762 0.63838345
-0.01463208 -0.011705667 0.63744575
-0.014571316 -0.013114154 0.63671225
-0.014511012 -0.014510989 0.6359843
-0.014440822 -0.015884906 0.63513702
-0.014312685 -0.017175198 0.63359034
-0.01413055 -0.018369704 0.63139176
-0.014113771 -0.019759268 0.63118917
-0.014153333 -0.021229953 0.63166678
-0.014549834 -0.023279727 0.63645297
-0.014233049 -0.024196178 0.63262904
-0.014273285 -0.025691897 0.6331147
-0.014478597 -0.027509302 0.63559306
-0.014568515 -0.029136986 0.63667846
-0.014688995 -0.030846864 0.63813281
-0.014868039 -0.032709658 0.64029402
-0.015177467 -0.034908146 0.64402914
-0.016582444 0.020267427 0.68322957
-0.0163418 0.018157572 0.68000197
-0.01621295 0.01621294 0.6782738
-0.015985161 0.014209092 0.67521864
-0.015609488 0.012140721 0.67017996
-0.015296706 0.010197848 0.66598487
-0.015029848 0.0083499849 0.66240567
-0.014912929 0.0066280067 0.66083753
-0.020115376 0.0067051351 0.7306143
-0.019941233 0.0044314265 0.72827864
-0.019834168 0.0022038221 0.72684264
-0.019861024 -2.9802322e-08 0.72720289
-0.020133452 -0.0022370517 0.73085678
-0.013836628 -0.0030747652 0.64640188
-0.013730858 -0.0045769215 0.64498323
-0.013629911 -0.0060577393 0.64362931
-0.013538288 -0.0075212717 0.6424005
-0.013460229 -0.0089734495 0.64135349
-0.013383185 -0.010409117 0.64032018
-0.013324853 -0.011844337 0.63953781
-0.013268826 -0.013268799 0.63878638
-0.013211563 -0.014679521 0.63801837
-0.013108954 -0.016022027 0.6366421
-0.012948903 -0.017265171 0.63449544
-0.012797694 -0.018485546 0.63246739
-0.012692655 -0.019744128 0.63105857
-0.012681753 -0.021136224 0.63091236
-0.012717281 -0.022608489 0.6313889
-0.012752934 -0.02408886 0.63186705
-0.01320099 -0.026401937 0.63787651
-0.013292875 -0.028062701 0.6391089
-0.013394967 -0.02976656 0.64047819
-0.01355418 -0.031626403 0.64261359
-0.013820025 -0.033782274 0.6461792
-0.015266066 0.022899121 0.69116807
-0.014852561 0.02042225 0.68492877
-0.014688728 0.018360883 0.68245673
-0.01455933 0.016379267 0.6805042
-0.01426702 0.014267027 0.67609364
-0.013947279 0.012203872 0.67126906
-0.013680859 0.010260671 0.66724914
-0.013450185 0.0084064007 0.66376847
-0.018179825 0.0090899169 0.73513329
-0.018070588 0.0067765117 0.73348498
-0.017925413 0.0044813752 0.73129451
-0.017888483 0.0022360981 0.73073727
-0.018059826 5.9604645e-08 0.73332262
-0.012527012 -0.0015658736 0.64983892
-0.012424208 -0.0031060278 0.64828771
-0.012331203 -0.0046241879 0.64688438
-0.012240628 -0.0061202943 0.64551771
-0.012168179 -0.0076051056 0.64442456
-0.012097243 -0.0090728998 0.64335418
-0.012037653 -0.010532945 0.64245504
-0.011986252 -0.011986226 0.64167947
-0.01193543 -0.013427347 0.64091265
-0.011858209 -0.014822751 0.63974744
-0.01172349 -0.016119778 0.63771468
-0.011575743 -0.017363608 0.63548535
-0.011470161 -0.018638998 0.6338923
-0.011395223 -0.019941628 0.6327616
-0.011355237 -0.021291047 0.63215816
-0.011364199 -0.022728354 0.63229346
-0.011533916 -0.024509579 0.63485432
-0.011981517 -0.026958406 0.64160806
-0.01207025 -0.028666794 0.64294684
-0.012205878 -0.030514687 0.64499342
-0.012430343 -0.032629669 0.64838034
-0.013346507 0.02287975 0.69097316
-0.013120524 0.020617992 0.68707627
-0.013008155 0.018583059 0.68513852
-0.012839963 0.016508549 0.6822381
-0.012533137 0.014323592 0.67694712
-0.012270825 0.012270838 0.67242372
-0.012048665 0.010327429 0.66859269
-0.011955471 0.0085396469 0.66698563
-0.016115133 0.0092086494 0.73871642
-0.015970232 0.0068444014 0.73621774
-0.015891684 0.004540503 0.73486316
-0.015933979 0.0022763014 0.73559254
-0.016143879 2.9802322e-08 0.73921216
-0.011070825 -0.0015815198 0.65173042
-0.010985442 -0.0031386912 0.65025806
-0.010902349 -0.0046724081 0.64882517
-0.010831412 -0.0061893165 0.6476019
-0.010767181 -0.0076908469 0.64649427
-0.010707766 -0.0091780722 0.64546967
-0.010661288 -0.010661274 0.64466822
-0.010615179 -0.012131631 0.6438731
-0.010557425 -0.013573796 0.64287716
-0.010451634 -0.014930874 0.6410529
-0.010312207 -0.016204864 0.63864851
-0.010206251 -0.017496437 0.63682139
-0.010131646 -0.018815875 0.63553488
-0.010088427 -0.020176858 0.63478959
-0.010086102 -0.021613061 0.63474953
-0.010172311 -0.023250967 0.63623613
-0.010632839 -0.02582258 0.64417762
-0.010709141 -0.027537793 0.64549339
-0.01082184 -0.029373527 0.6474368
-0.011008818 -0.031453729 0.65066111
-0.011517855 0.023035765 0.69254225
-0.011371057 0.020846993 0.68958884
-0.011275731 0.018792927 0.68767112
-0.011056347 0.016584516 0.68325746
-0.010797476 0.014396667 0.67804939
-0.010583367 0.012347251 0.67374182
-0.010399476 0.010399491 0.67004222
-0.01405397 0.011711627 0.74356496
-0.013962202 0.0093081295 0.74171877
-0.013851593 0.0069257915 0.73949343
-0.013833721 0.0046112537 0.73913389
-0.014004799 0.0023341477 0.74257571
-0.009669669 -0 0.65535963
-0.0095899766 -0.0015982985 0.65375632
-0.0095161088 -0.0031720102 0.65227026
-0.0094475616 -0.0047237277 0.65089113
-0.0093905572 -0.0062603354 0.64974427
-0.0093344972 -0.007778734 0.64861649
-0.0092917969 -0.0092917681 0.64775741
-0.0092509389 -0.010792762 0.6469354
-0.0092069926 -0.012275934 0.64605129
-0.0091257468 -0.013688594 0.64441675
-0.0090037351 -0.015006214 0.64196211
-0.0089027286 -0.016321629 0.63993001
-0.0088325338 -0.017665029 0.63851774
-0.0087883705 -0.019041449 0.63762927
-0.008775373 -0.020475864 0.63736778
-0.0088301692 -0.022075415 0.63847017
-0.0092452699 -0.024654031 0.64682138
-0.0093094017 -0.026376605 0.64811158
-0.0094033815 -0.028210133 0.6500023
-0.009559257 -0.030270994 0.65313834
-0.0099786669 -0.033262223 0.66157621
-0.0098958649 0.025729269 0.69972825
-0.0096883876 0.02325213 0.69471931
-0.0095931338 0.021104932 0.69241965
-0.0094812661 0.018962592 0.6897189
-0.0092513049 0.016652316 0.68416715
-0.0090488624 0.014478177 0.67927974
-0.0088788494 0.01243037 0.67517531
-0.0088104652 0.010572553 0.67352438
-0.011867248 0.011867255 0.74732161
-0.011756219 0.0094050169 0.74464113
-0.01170408 0.0070224702 0.74338239
-0.011751525 0.0047006309 0.74452788
-0.011896932 0.0023794174 0.74803829
-0.0081420029 2.9802322e-08 0.65738624
-0.0080781179 -0.0016156137 0.65584391
-0.0080154585 -0.0032061636 0.65433121
-0.0079648811 -0.0047789216 0.65311015
-0.00791624 -0.0063329935 0.65193582
-0.0078754956 -0.0078754723 0.65095216
-0.0078402767 -0.009408325 0.6501019
-0.0078055901 -0.010927796 0.64926451
-0.0077464003 -0.012394249 0.64783555
-0.0076482636 -0.013766855 0.64546633
-0.0075533348 -0.015106618 0.64317453
-0.0074884025 -0.016474456 0.64160693
-0.0074451473 -0.01786834 0.64056271
-0.0074283029 -0.019313544 0.64015597
-0.0074533992 -0.020869493 0.64076185
-0.0078171017 -0.023451298 0.64954239
-0.0078694262 -0.025182158 0.65080571
-0.0079468424 -0.027019233 0.65267462
-0.0080713416 -0.029056787 0.65568036
-0.0083566932 -0.031755418 0.66256928
-0.0079542911 0.025851488 0.70086282
-0.0078335274 0.023500592 0.69721848
-0.0077675851 0.021360874 0.69522852
-0.0076246294 0.019061625 0.69091445
-0.0074379826 0.016735494 0.68528187
-0.0072846729 0.014569372 0.68065536
-0.0071541639 0.012519807 0.67671686
-0.0096664345 0.014499694 0.75253135
-0.0095987031 0.011998415 0.75048739
-0.0095230704 0.0095230937 0.74820501
-0.009518587 0.0071389675 0.74806964
-0.0096505871 0.0048253238 0.75205314
-0.0066406578 0.0016601682 0.66122055
-0.006585421 2.9802322e-08 0.65955359
-0.0065331841 -0.0016332865 0.65797722
-0.0064874846 -0.0032437146 0.65659809
-0.0064471518 -0.0048353076 0.6553809
-0.0064099231 -0.0064099133 0.65425748
-0.0063807825 -0.0079759955 0.65337807
-0.0063523282 -0.0095284581 0.65251935
-0.0063123787 -0.011046618 0.65131378
-0.0062393327 -0.01247865 0.64910942
-0.0061554755 -0.013849825 0.64657879
-0.0060967295 -0.015241802 0.64480603
-0.0060566198 -0.016655684 0.64359558
-0.0060380013 -0.018113971 0.64303374
-0.0060506328 -0.019664526 0.64341491
-0.0063440125 -0.022204012 0.65226841
-0.0063874009 -0.023952723 0.6535778
-0.0064485436 -0.025794148 0.65542293
-0.0065435651 -0.027810127 0.65829039
-0.0067421282 -0.030339539 0.66428256
-0.0062015639 0.028940648 0.7103526
-0.0060162647 0.026070505 0.70289671
-0.0059483191 0.02379328 0.70016277
-0.0058846348 0.021577001 0.69760036
-0.0057426025 0.019142032 0.69188541
-0.0056111217 0.016833395 0.68659496
-0.0055016312 0.014671028 0.68218946
-0.0054594111 0.012738645 0.68049061
-0.0073478804 0.014695793 0.75647676
-0.0072780526 0.012130111 0.75366712
-0.0072477604 0.0096637011 0.75244826
-0.0072977608 0.0072977841 0.7544601
-0.0050802645 0.0033868849 0.66523492
-0.0050348188 0.001678288 0.66340637
-0.0049941307 -0 0.66176921
-0.0049555344 -0.0016518235 0.66021621
-0.0049241274 -0.0032827854 0.65895247
-0.0048934352 -0.0048934519 0.65771753
-0.0048698755 -0.006493181 0.65676957
-0.0048474343 -0.0080790222 0.65586662
-0.0048220982 -0.0096441805 0.65484715
-0.004772881 -0.011136711 0.65286684
-0.0047056256 -0.012548327 0.65016067
-0.004654903 -0.013964713 0.64811975
-0.0046204152 -0.015401363 0.64673203
-0.0046023531 -0.016875267 0.64600533
-0.0046072402 -0.018428922 0.64620197
-0.0048261913 -0.020913482 0.65501183
-0.0048626186 -0.022692204 0.65647757
-0.0049067112 -0.02453354 0.6582517
-0.0049749636 -0.026533127 0.66099799
-0.0051142243 -0.028980583 0.66660136
-0.0041271127 0.028889805 0.70991415
-0.0040527675 0.026343018 0.70542705
-0.0040166709 0.024100065 0.70324844
-0.0039482261 0.021715254 0.69911742
-0.0038470633 0.019235313 0.69301176
-0.0037645861 0.016940683 0.68803376
-0.0036950156 0.014780074 0.68383485
-0.0049915086 0.0174703 0.76208508
-0.0049540233 0.014862061 0.75982267
-0.0049160821 0.012290239 0.75753266
-0.0049187155 0.0098374188 0.75769162
-0.0049902392 0.0074853599 0.76200849
-0.0034235148 0.0034235418 0.66744828
-0.0033947015 0.0016973615 0.66570926
-0.0033669698 2.9802322e-08 0.6640355
-0.0033441405 -0.0016720593 0.66265762
-0.0033227212 -0.0033226907 0.66136491
-0.0033047914 -0.0049571693 0.66028273
-0.0032892902 -0.0065785646 0.65934712
-0.0032739446 -0.0081848204 0.65842098
-0.0032451518 -0.009735465 0.65668321
-0.0031995205 -0.011198312 0.653929
-0.0031612644 -0.012645036 0.65162015
-0.0031351182 -0.014108002 0.65004206
-0.0031195984 -0.015597969 0.64910537
-0.0031191024 -0.017155021 0.64907539
-0.0031600764 -0.018960446 0.65154839
-0.0032916707 -0.021395862 0.65949076
-0.0033193817 -0.023235619 0.66116333
-0.0033645246 -0.025233895 0.66388792
-0.0034492505 -0.027594 0.66900158
-0.0020787476 0.029102474 0.711748
-0.0020514491 0.026668847 0.7084527
-0.0020307673 0.02436924 0.70595622
-0.0019827259 0.021810025 0.70015711
-0.0019351745 0.019351751 0.69441712
-0.0018959228 0.017063349 0.68967903
-0.0018814296 0.015051454 0.68792951
-0.0025301445 0.017711014 0.76623636
-0.0025058412 0.015035093 0.76330268
-0.0024968504 0.012484282 0.7622174
-0.002521843 0.010087371 0.76523423
-0.0017470258 0.005241096 0.67170554
-0.0017313028 0.0034626126 0.66980767
-0.0017168673 0.001716882 0.66806513
-0.0017039344 2.9802322e-08 0.66650397
-0.0016928143 -0.0016927719 0.66516161
-0.0016825792 -0.0033651292 0.66392612
-0.0016745268 -0.0050235689 0.66295415
-0.0016667619 -0.0066670179 0.66201687
-0.0016546141 -0.0082730651 0.66055048
-0.0016327951 -0.0097967684 0.65791667
-0.0016111651 -0.011278123 0.65530574
-0.0015966106 -0.012772888 0.6535489
-0.0015873918 -0.014286518 0.65243608
-0.001584657 -0.01584655 0.65210593
-0.00159737 -0.017571032 0.65364051
-0.0016715842 -0.02005899 0.66259897
-0.0016851176 -0.021906495 0.66423255
-0.0017069047 -0.023896635 0.66686249
-0.0017463489 -0.026195198 0.67162383
0 0.032231748 0.72020173
0 0.029405326 0.71435916
0 0.027029127 0.71179795
0 0.024564624 0.7079218
0 0.021913588 0.70129389
0 0.019476563 0.69592381
0 0.01719442 0.69143718
0 0.020642072 0.77228582
0 0.01791653 0.76977968
0 0.015245974 0.76754534
0 0.012730002 0.76814944
0 0.010323673 0.77236456
0 0.005300045 0.67407632
0 0.0035032332 0.67225927
0 0.0017372966 0.67052746
0 2.9802322e-08 0.66910493
0 -0.0017141998 0.66774631
0 -0.0034110248 0.66669464
0 -0.0050920248 0.66570926
0 -0.0067486465 0.6644789
0 -0.0083361268 0.66207319
0 -0.0098594427 0.65917695
0 -0.011387348 0.65718877
0 -0.012927741 0.65588611
0 -0.014506251 0.65538341
0 -0.016197592 0.65634334
0 -0.018679589 0.66580522
0 -0.020537704 0.66741437
0 -0.022519529 0.66992486
0 -0.024779588 0.67447537
0.0021598188 0.03239727 0.72153407
0.0021255231 0.029757351 0.71739423
0.0021049923 0.027364939 0.71491593
0.0020563307 0.024675965 0.70904195
0.0020046262 0.022050917 0.70280069
0.0019623141 0.01962316 0.69769311
0.0019473757 0.017526358 0.69588995
0.0026165016 0.020932019 0.77666062
0.0025910963 0.018137693 0.7735939
0.0025838977 0.015503377 0.77272499
0.0026178844 0.013089418 0.77682751
0.001804232 0.0072169602 0.67861092
0.0017877932 0.0053633749 0.67662662
0.001772417 0.003544867 0.67477059
0.0017594349 0.0017594397 0.67320347
0.0017476176 5.9604645e-08 0.67177701
0.0017376702 -0.0017376542 0.67057627
0.0017291012 -0.0034581721 0.66954184
0.0017201843 -0.0051605403 0.6684655
0.001702566 -0.0068102479 0.6663388
0.0016771142 -0.0083855689 0.66326654
0.001658074 -0.0099484622 0.66096818
0.0016456081 -0.011519223 0.65946335
0.0016399071 -0.013119221 0.65877521
0.0016439967 -0.014795959 0.65926886
0.0017255651 -0.017255634 0.66911501
0.0017386664 -0.019125313 0.6706965
0.001758421 -0.021101058 0.6730811
0.0017942362 -0.023325056 0.67740434
0.0043604248 0.032703191 0.7239958
0.0043098521 0.03016901 0.72094351
0.0042494391 0.027621388 0.71729726
0.0041317474 0.024790496 0.71019393
0.0040354603 0.022195041 0.70438242
0.0039558429 0.019779235 0.69957709
0.0053413776 0.024036229 0.78320158
0.0052953069 0.021181226 0.78042096
0.0052594887 0.018408239 0.77825916
0.0052779079 0.015833765 0.77937078
0.005344287 0.013360769 0.78337711
0.0036510006 0.0073019862 0.68117833
0.0036189167 0.0054283738 0.6792419
0.0035895023 0.0035895109 0.67746651
0.0035648362 0.0017824471 0.67597783
0.0035423122 2.9802322e-08 0.67461836
0.0035243225 -0.0017621517 0.67353261
0.0035071664 -0.0035071373 0.67249715
0.0034769706 -0.0052154362 0.67067462
0.0034258468 -0.0068517029 0.66758907
0.0033819897 -0.0084549487 0.66494209
0.0033526891 -0.010058075 0.66317362
0.0033380052 -0.011682987 0.66228735
0.0033426099 -0.013370425 0.66256523
0.0035065764 -0.015779555 0.67246151
0.0035334816 -0.017667413 0.67408538
0.0035726505 -0.019649535 0.67644942
0.003640031 -0.021840155 0.68051618
0.0067458344 0.03597784 0.73225236
0.0066169556 0.03308478 0.72706664
0.0065521714 0.030576795 0.72445989
0.0064068609 0.027763098 0.71861309
0.0062377462 0.024950981 0.71180844
0.0061005466 0.022368699 0.70628798
0.0060543134 0.02018106 0.7044276
0.0081269303 0.024380803 0.78782332
0.0080470284 0.021458775 0.78460836
0.0080316998 0.018740684 0.78399158
0.0081480173 0.016296029 0.78867179
0.0055959979 0.0093266666 0.68598646
0.0055442839 0.0073924065 0.68390566
0.0054960111 0.0054960549 0.68196326
0.0054559978 0.0036373734 0.68035328
0.0054187728 0.001806289 0.67885548
0.0053895311 -0 0.67767888
0.0053628245 -0.0017876029 0.67660433
0.0053253057 -0.0035501719 0.67509466
0.0052525578 -0.0052525103 0.67216754
0.0051779808 -0.0069039762 0.6691668
0.0051286221 -0.0085476935 0.66718072
0.0050989711 -0.010197908 0.66598761
0.0050986074 -0.011896759 0.66597307
0.0053432384 -0.014248639 0.67581624
0.0053874422 -0.016162276 0.67759478
0.0054454287 -0.018151432 0.67992806
0.0055426462 -0.020323008 0.68383974
0.009066401 0.036265612 0.73442376
0.0089446809 0.033542544 0.73075056
0.0088313669 0.030909836 0.72733092
0.0085836602 0.027896911 0.71985579
0.0083731888 0.025119573 0.71350425
0.0082011232 0.022553116 0.70831168
0.011070744 0.027676851 0.79491019
0.010968453 0.024679065 0.79182327
0.010899581 0.021799207 0.78974485
0.010969535 0.019196719 0.79185587
0.0076291636 0.011443764 0.69105124
0.0075536389 0.009442091 0.68877208
0.0074850768 0.0074851215 0.68670309
0.0074257026 0.005569309 0.68491125
0.0073733153 0.0036866665 0.68333042
0.0073289005 0.001832217 0.68199003
0.0072910683 -0 0.68084836
0.0072489744 -0.0018121898 0.67957807
0.0071620233 -0.0035809875 0.67695409
0.0070511289 -0.0052883029 0.67360753
0.0069766059 -0.0069766045 0.67135859
0.006929887 -0.008662343 0.66994876
0.0069159744 -0.01037392 0.6695289
0.0069907387 -0.012233734 0.67178512
0.0073060528 -0.014612049 0.68130052
0.0073795947 -0.016604096 0.6835199
0.0075037107 -0.01875928 0.6872654
0.0078421514 -0.021565855 0.69747877
0.011750918 0.039953142 0.74451315
0.011464549 0.036686569 0.73759961
0.011344563 0.034033716 0.73470294
0.011106299 0.031097651 0.72895062
0.010798208 0.028075337 0.72151268
0.010550438 0.025321096 0.71553099
0.010470866 0.023035944 0.71360993
0.014041143 0.028082341 0.79980403
0.01390133 0.025022417 0.79642868
0.013887824 0.022220522 0.7961027
0.014098747 0.019738257 0.80119479
0.0096536204 0.011584342 0.6938799
0.0095630288 0.009562999 0.69169283
0.0094797574 0.0075838268 0.68968248
0.0094101559 0.0056461394 0.68800211
0.0093478858 0.0037391782 0.68649888
0.0092973746 0.0018594563 0.68527937
0.0092497319 2.9802322e-08 0.68412918
0.0091550238 -0.0018309653 0.68184274
0.0090091731 -0.0036036968 0.6783216
0.0089009618 -0.0053405762 0.67570913
0.0088328924 -0.0070662796 0.67406577
0.0088068368 -0.0088067949 0.67343676
0.0088665765 -0.010639876 0.67487901
0.0092913667 -0.013007879 0.68513429
0.0093782675 -0.015005171 0.68723226
0.0095261047 -0.017146975 0.69080144
0.0098822238 -0.019764423 0.69939888
0.01417996 0.040176541 0.74609965
0.013944498 0.037185341 0.74136257
0.013780445 0.034451157 0.73806202
0.013394395 0.031253636 0.7302953
0.013048809 0.02827242 0.72334272
0.012768868 0.025537789 0.71771073
0.017231967 0.031591952 0.80750132
0.017061373 0.028435677 0.80406928
0.016963331 0.025445014 0.80209678
0.017138025 0.022850722 0.80561137
0.011854126 0.013829887 0.6993075
0.011734904 0.011734903 0.69690895
0.011626019 0.0096883774 0.69471836
0.011534982 0.0076899827 0.69288683
0.011452389 0.0057261884 0.69122517
0.011386583 0.0037955344 0.68990123
0.011327977 0.0018880069 0.68872219
0.011233413 2.9802322e-08 0.68681973
0.011059891 -0.0018433034 0.68332869
0.010907555 -0.0036358237 0.680264
0.010812332 -0.0054061413 0.67834818
0.010769859 -0.0071798861 0.67749375
0.010805716 -0.0090047419 0.67821515
0.011346987 -0.011346966 0.68910462
0.011448764 -0.013356864 0.69115222
0.011621339 -0.015495121 0.69462419
0.011995078 -0.017992586 0.70214319
0.016516918 0.037752956 0.74564493
0.016198458 0.034711033 0.74015331
0.01572551 0.031451046 0.73199761
0.015348495 0.028504372 0.72549623
0.01523341 0.026114434 0.72351164
0.014007243 0.01400727 0.70236713
0.013872539 0.011890769 0.70004421
0.01375319 0.0098237395 0.69798619
0.013650862 0.0078004897 0.69622159
0.013563637 0.0058130026 0.69471747
0.013490861 0.0038545132 0.69346249
0.01340002 0.0019143224 0.69189596
0.013211189 -0 0.68863976
0.013009072 -0.0018584132 0.68515432
0.012877588 -0.0036793053 0.68288696
0.012809251 -0.0054896474 0.68170857
0.012831825 -0.007332474 0.68209779
0.013476638 -0.0096261501 0.69321722
0.013593961 -0.011651963 0.69524038
0.013787406 -0.013787389 0.69857621
0.014186122 -0.016212702 0.70545185
0.020728126 0.044047296 0.77358419
0.019382859 0.038765728 0.75328565
0.018609259 0.03489238 0.74161297
0.018103277 0.031680733 0.73397827
0.017697249 0.028758049 0.72785181
0.016393512 0.016393512 0.70817989
0.016225724 0.014197558 0.70564818
0.016074814 0.012056142 0.70337111
0.015947752 0.0099673569 0.70145392
0.015836643 0.007918328 0.69977736
0.015745567 0.0059045851 0.69840318
0.015655963 0.0039140284 0.69705111
0.015467337 0.0019334257 0.69420505
0.01520876 2.9802322e-08 0.69030333
0.015038374 -0.0018797815 0.68773246
0.014936581 -0.0037341416 0.68619657
0.014937083 -0.0056014061 0.68620414
0.015680188 -0.0078400671 0.69741666
0.015816618 -0.0098853707 0.69947523
0.016027955 -0.012020975 0.70266408
0.016448211 -0.014392167 0.70900524
0.022913 0.043280125 0.76813686
0.021847293 0.038839668 0.75384331
0.021065768 0.035109669 0.74336123
0.020537369 0.031947017 0.73627424
0.020384258 0.029443949 0.73422062
0.01889929 0.018899322 0.71430379
0.018691955 0.016615093 0.711523
0.018506367 0.014393836 0.70903379
0.018350115 0.012233436 0.70693815
0.018211788 0.01011768 0.70508277
0.018100012 0.0080444813 0.70358366
0.018001609 0.0060005784 0.70226377
