# .PCD v0.7 - Point Cloud Data file format
VERSION 0.7
FIELDS x y z
SIZE 4 4 4
TYPE F F F
COUNT 1 1 1
WIDTH 229
HEIGHT 1
VIEWPOINT 0 0 0 1 0 0 0
POINTS 229
DATA ascii
0.02721294 -0.0071612895 0.63371003
0.030423628 -0.011589915 0.63569981
0.024639567 -0.0086963177 0.63577729
0.024623731 0.01158765 0.63566488
0.029318688 -0.016125292 0.63777483
0.022120185 -0.0073733926 0.63883042
0.035380721 0.022112936 0.63877219
0.013579685 0.0030177236 0.64295566
0.024283065 0.018212348 0.64402246
0.044041507 0.025817454 0.6441409
0.044041373 0.027336001 0.64414036
0.016842606 -0.0045934021 0.64564657
0.047663305 -0.023062855 0.64641666
0.047663305 -0.023062855 0.64641666
0.024674339 -0.016963601 0.64697444
0.053240635 -0.020356685 0.6498419
0.018722551 0.015602142 0.6491552
0.015739547 -0.0094437301 0.65081406
0.0079226326 0.0031690598 0.65209019
0.027040223 0.023859054 0.65282345
0.0064185774 0.0032093227 0.6545186
0.051406484 0.022490352 0.65473688
0.035512414 -0.025827229 0.65567219
0.0096890172 -0.0032296777 0.6557489
0.006487506 -0.0016218722 0.65659869
0.063517958 -0.0016286671 0.65741825
0.065064661 0.0048798621 0.65717089
0.062084503 0.011436641 0.65803832
0.034324765 0.02942127 0.65812397
0.060919754 0.0032929778 0.65956861
0.0082368441 0.0082368553 0.65967596
0.047951307 -0.018188387 0.66041517
0.0016638024 0.0016638339 0.6616596
0.020037055 -0.020036995 0.66237807
0.015000508 0.020000666 0.66201222
0.028582411 0.026901126 0.66377395
0.032066047 -0.02700299 0.66454273
0.0067467652 -0.0084334314 0.66442257
0 0.0016859472 0.66433132
0.056355923 0.003415525 0.66696519
0.0034425228 0.010327578 0.66859555
0.0034425228 0.010327578 0.66859555
0 -0.0034971237 0.67189127
0.054460898 0.0087839961 0.67288584
0.024828965 -0.026602447 0.67490101
0.021230049 -0.022999227 0.67437869
0.0088404147 -0.017680824 0.67424744
0.0017705668 -0.010623395 0.67454726
0.0088450098 0.021228045 0.67435825
0.046386499 0.014272779 0.67618036
-0.0072394828 -0.0018098652 0.67929167
-0.0072394828 -0.0018098652 0.67929167
-0.005469895 -0.0036465526 0.68091249
-0.0054714107 0.0072952509 0.68097341
0.018240694 -0.023712903 0.6810056
0.04790343 -0.0055273175 0.68322301
0.04790343 -0.0055273175 0.68322301
-0.007440222 0.0093002915 0.68534946
0.0037148357 0.022289038 0.68503106
0.016841549 -0.02619797 0.68670475
0.014992806 -0.024363309 0.68704486
0.043786239 0.0076150298 0.69062382
0.042166457 0.0095832944 0.69218183
0.011564977 0.028912425 0.69349027
0.0096646585 0.027061075 0.69414639
0.0097820694 0.029346198 0.69698095
0.007844734 -0.023534209 0.69755673
-0.0078338338 -0.015667647 0.69722778
-0.015695434 -0.0039238334 0.69764674
-0.013817974 0.013817996 0.69910336
-0.020233845 -0.0040467381 0.70506501
-0.022609601 -0.0041108131 0.70893186
-0.031728655 2.9802322e-08 0.71615338
-0.02972134 -0.0021229088 0.71708393
-0.027757496 -0.0064055622 0.71856129
-0.03023107 0.0086374879 0.721479
-0.0065711308 -0.026284486 0.72522277
-0.03312245 -0.0066244602 0.72736979
-0.039224461 -0.0092292726 0.73933923
-0.048065208 -0.0048064888 0.75092006
-0.05117663 0.0073109567 0.7549907
-0.049059596 0.014717907 0.75692171
-0.053197596 -0.012666047 0.76660746
-0.061630353 0.0025679469 0.77079767
-0.065846741 0.0079016089 0.7787571
0.024074422 -0.0028322935 0.63176447
0.022531539 0.00070412457 0.63080823
0.02125778 0.0042515695 0.6318903
0.018707251 0.00071871281 0.6345259
0.030423628 0.011589944 0.63569981
0.030423628 0.013038725 0.63569981
0.020443302 0.0058409572 0.63708699
0.028195487 -0.016323656 0.63995224
0.020700537 -0.0044358075 0.63930488
0.020700537 -0.0044358075 0.63930488
0.03250204 0.0221605 0.63915473
0.020785917 -0.005938828 0.64004111
0.02753257 -0.018355042 0.64545846
0.044938996 0.022849172 0.64469677
0.041117854 0.027411908 0.64464927
0.040066414 -0.024656266 0.64683801
0.040066414 -0.024656266 0.64683801
0.04149178 0.029197961 0.64632094
0.021041898 -0.014807239 0.6489675
0.018722551 0.015602142 0.6491552
0.020528505 -0.015791148 0.65143704
0.012751564 -0.0063757896 0.65322721
0.02389898 0.022305757 0.65314502
0.027040223 0.023859054 0.65282345
0.051251646 -0.019219309 0.65415275
0.06102287 -0.0088322461 0.65466595
0.063549601 -0.0065178871 0.65751618
0.065064661 -0.001626581 0.65717089
0.061889287 0.0016286969 0.65741819
0.065064661 0.0048798621 0.65717089
0.06506487 0.0089464486 0.65717149
0.011357774 0.011357784 0.65667874
0.013011452 0.014637917 0.65714854
0.0082379561 -0.004942745 0.65970278
0.0082379561 -0.004942745 0.65970278
0.062084503 0.011436641 0.65803832
0.054958113 -0.0099923611 0.66185212
0.055255126 -0.013395131 0.66293859
0.060523391 0.0067248344 0.6637603
0.006705984 0.010058999 0.66319185
0.0050959075 -0.0067945123 0.66586435
0.0084610078 0.015229851 0.6650877
0.057947583 -0.0017043054 0.66655302
0.057042867 0.011068031 0.6663636
0.02727391 0.027273953 0.66658664
0.05516139 0.0034476221 0.66890121
0.055816151 0.0069770515 0.6713711
0.0034924417 0.013969779 0.67160839
0.024475794 0.02797237 0.67185587
0.054349653 -0.0017531812 0.67245257
0.049075045 0.012268782 0.67238814
0.0017705668 -0.010623395 0.67454726
0.047692742 -0.010598361 0.67404401
0.053325895 -0.0035550296 0.67538774
-0.0017930724 0.01075846 0.67726386
-0.007246586 0.0054349303 0.67950606
0.050553683 0.0054164827 0.67876267
0.043628477 -0.0090892613 0.68025523
-0.0073978156 -0.0036989152 0.68406975
0.043181308 0.0018774867 0.68744898
-0.0074845729 0.011226863 0.68668789
-0.0018690533 0.018690556 0.68643564
-0.0094336811 -0.0056601763 0.68857014
-0.0094336811 -0.0056601763 0.68857014
-0.01726806 0.00095762312 0.69242525
0.042223554 0.0057577789 0.69249517
-0.0096621579 -0.011594564 0.69408607
-0.011786597 0.01571551 0.69794893
-0.015788108 0.0098676085 0.69904506
-0.013817974 0.013817996 0.69910336
0.0019817678 0.025762975 0.70004147
-0.024168512 5.9604645e-08 0.70393741
-0.016041508 0.014036328 0.70286858
0.0040392228 -0.024235308 0.70460957
-0.020707298 0.014495134 0.71078008
-0.025401929 -0.008467257 0.71634454
-0.03023107 0.0086374879 0.721479
-0.022544472 -0.020289987 0.73295677
-0.036264453 -0.0090660751 0.73441505
-0.035027683 -0.016346246 0.74270189
-0.048429009 -0.0072643459 0.75311583
-0.055344418 -0.0075469613 0.76448739
-0.053197596 -0.012666047 0.76660746
-0.058509897 -0.0050877929 0.76789778
-0.065579899 0.0052464008 0.77746868
0.023127876 -0.0043364763 0.63530725
0.021909509 0.0057495162 0.63424444
0.018316114 -0.0014712587 0.63768834
0.033385523 0.019073568 0.63792729
0.02993929 0.021458864 0.6415385
0.03443037 0.02395159 0.64152145
0.029349264 -0.020081013 0.64728242
0.013811253 0.0053756787 0.64605618
0.013811253 0.0053756787 0.64605618
0.045568597 0.022401154 0.64517164
0.040497843 -0.026479334 0.64884096
0.020852342 0.018250098 0.64962423
0.020852342 0.018250098 0.64962423
0.040455777 0.021783888 0.64864564
0.051355384 0.024899602 0.64867371
0.051355384 0.024899602 0.64867371
0.040456027 0.029564023 0.64864683
0.0096187536 -0.0026732585 0.65437979
0.04949417 -0.017134305 0.65779507
0.0048729721 0.0020305887 0.65689421
0.061754491 0.0017985225 0.6580534
0.003329044 0.0049935877 0.66174644
0.054722123 0.013962626 0.66303635
0.04579708 0.022054594 0.66560745
0.022373011 -0.022372991 0.66856408
0.010448701 -0.01741448 0.67103255
0.0051674997 -0.010334998 0.66874504
0.054520022 0.0021639653 0.6697619
0.055695742 0.0060936213 0.67091691
0.017274298 0.024184048 0.66934013
0.051044874 0.0060092313 0.67831111
-0.005469895 -0.0036465526 0.68091249
0.0018158084 0.019188821 0.68149054
0.04570277 -0.0065274909 0.68601954
0.043025877 -0.00696069 0.68997115
-0.015137643 0.0023661107 0.68923026
-0.0056970725 0.017091274 0.69005334
0.0038488833 -0.021168828 0.69312155
0.0038488833 -0.021168828 0.69312155
0.03884441 0.0019427687 0.69526768
-0.015898598 0.011923969 0.7007122
-0.015898598 0.011923969 0.7007122
-0.022688124 0.0092845112 0.70979357
-0.031593889 0.0021063089 0.71506888
-0.02097263 0.016778111 0.71398294
-0.017273033 -0.019432127 0.72145087
-0.01984833 -0.019848317 0.7270326
-0.030814698 -0.0099106878 0.72651112
-0.039902255 0.0022168159 0.72841138
-0.038639497 0.0090916455 0.73518562
-0.04189479 -0.0069824457 0.74177361
-0.054634359 0.0074501336 0.76059139
-0.058170084 -0.0025291443 0.76611441
-0.048514072 -0.017873615 0.76904023
-0.055990186 -0.010180026 0.76803058
-0.059921347 0.015631676 0.77530551
-0.059921347 0.015631676 0.77530551
-0.057132818 0.018178672 0.77430004
-0.065769881 -0.0026307702 0.778386
