# .PCD v0.7 - Point Cloud Data file format
VERSION 0.7
FIELDS x y z
SIZE 4 4 4
TYPE F F F
COUNT 1 1 1
WIDTH 1335
HEIGHT 1
VIEWPOINT 0 0 0 1 0 0 0
POINTS 1335
DATA ascii
-0.025699839 0.029983163 0.71934134
-0.025533501 0.027661353 0.71766806
-0.025381636 0.025381655 0.71614045
-0.025243765 0.023140132 0.71475357
-0.025119355 0.020932823 0.71350211
-0.025008142 0.018756121 0.71238339
-0.024912473 0.016608328 0.71142101
-0.024831492 0.014485091 0.7106064
-0.024730548 0.012365282 0.70959103
-0.024541624 0.010225683 0.7076906
-0.024308631 0.0081028938 0.70534682
-0.024125978 0.0060315132 0.70350951
-0.024002625 0.0040004849 0.70226866
-0.02394901 0.0019957721 0.70172936
-0.024022406 2.9802322e-08 0.70246768
-0.024898939 -0.0020748973 0.71128494
-0.02510906 -0.0041848123 0.71339852
-0.025538823 -0.0063846707 0.71772158
-0.028016327 0.066220433 0.76826358
-0.027035397 0.061444104 0.75749922
-0.026414171 0.057630956 0.75068212
-0.025924103 0.054204941 0.74530423
-0.02551336 0.051026732 0.74079692
-0.025154114 0.048021495 0.73685455
-0.024837079 0.045158327 0.73337549
-0.024504131 0.042325348 0.72972184
-0.024248702 0.039679706 0.72691882
-0.024015822 0.037115365 0.72436327
-0.023802495 0.034621835 0.72202229
-0.023606686 0.032190949 0.71987355
-0.023427928 0.029817373 0.71791184
-0.02326463 0.027494609 0.71611989
-0.023114946 0.025216341 0.7144773
-0.022978012 0.022978008 0.71297467
-0.022853218 0.020775676 0.71160519
-0.022740383 0.018605798 0.71036696
-0.0226402 0.016465634 0.70926762
-0.022553552 0.014352292 0.70831674
-0.022479031 0.012261331 0.70749897
-0.022397345 0.010180622 0.70660263
-0.022243828 0.0080886781 0.70491797
-0.022035792 0.0060097873 0.70263499
-0.021862743 0.0039750636 0.70073605
-0.021739861 0.0019764006 0.69938755
-0.021669162 2.9802322e-08 0.69861174
-0.021699492 -0.0019727051 0.69894457
-0.022495845 -0.0040901005 0.70768344
-0.022652686 -0.0061779618 0.70940459
-0.02295099 -0.0083458126 0.71267813
-0.025019066 0.062547684 0.76282775
-0.024210636 0.058105558 0.75306916
-0.023671616 0.05444476 0.7465626
-0.023242339 0.051133186 0.74138069
-0.022881808 0.048051775 0.73702872
-0.022564908 0.045129865 0.73320341
-0.022239156 0.042254418 0.72927123
-0.021989925 0.039581895 0.72626281
-0.021763718 0.036998332 0.7235322
-0.021556966 0.034491122 0.72103649
-0.021367604 0.032051444 0.71875066
-0.02119338 0.029670745 0.71664762
-0.021034878 0.027345359 0.71473432
-0.020889362 0.02506724 0.71297789
-0.020755658 0.022831261 0.71136385
-0.02063318 0.020633191 0.70988542
-0.020521307 0.018469214 0.70853496
-0.020419804 0.016335875 0.70730972
-0.020330859 0.014231622 0.70623612
-0.020252354 0.01215142 0.70528847
-0.020184381 0.010092229 0.70446795
-0.020116379 0.0080465674 0.70364708
-0.019993156 0.0059979856 0.70215964
-0.019812813 0.0039625764 0.69998276
-0.019650731 0.0019650757 0.69802624
-0.019533206 2.9802322e-08 0.69660759
-0.01946073 -0.0019460618 0.69573265
-0.019451953 -0.0038903952 0.6956268
-0.020160878 -0.0060482323 0.70418417
-0.020285854 -0.0081143379 0.70569283
-0.020498021 -0.010248989 0.70825386
-0.022142056 0.059045494 0.75779676
-0.0214692 0.054865777 0.7487722
-0.021006707 0.051349759 0.74256915
-0.020633539 0.048144937 0.73756415
-0.020320054 0.045155704 0.73335958
-0.019999772 0.042221755 0.72906381
-0.019758023 0.039516091 0.72582138
-0.019539667 0.036908299 0.72289276
-0.019341107 0.034384221 0.72022957
-0.019159496 0.031932503 0.71779376
-0.018992871 0.029544502 0.71555895
-0.018839754 0.027213007 0.71350527
-0.018700261 0.024933726 0.71163434
-0.018571852 0.022698969 0.70991206
-0.018453661 0.020504087 0.70832688
-0.018345108 0.018345147 0.70687091
-0.018245729 0.016218424 0.70553809
-0.018156495 0.014121741 0.70434129
-0.018077269 0.012051553 0.70327854
-0.01800679 0.010003805 0.70233339
-0.017945368 0.0079757273 0.70150954
-0.017888837 0.0059629381 0.7007513
-0.017791165 0.0039536059 0.69944131
-0.017638069 0.0019598007 0.69738793
-0.017488061 2.9802322e-08 0.69537604
-0.017377319 -0.0019308031 0.69389069
-0.017305067 -0.0038455427 0.69292158
-0.017281823 -0.0057605803 0.69260985
-0.017399948 -0.0077332854 0.6941942
-0.017988665 -0.0099937022 0.70209026
-0.018151373 -0.012100905 0.70427257
-0.018486159 -0.014378101 0.70876276
-0.019363731 0.055670768 0.75299704
-0.018808801 0.051724225 0.74462378
-0.018415602 0.048340976 0.73869079
-0.018040048 0.045100123 0.73302412
-0.017782472 0.042233378 0.72913772
-0.01754898 0.039485246 0.72561461
-0.017339852 0.036847234 0.72245902
-0.017150844 0.034301728 0.71960717
-0.016978651 0.03183502 0.71700901
-0.016821044 0.029436857 0.71463084
-0.016676262 0.027098924 0.71244621
-0.01654345 0.024815172 0.7104423
-0.016421963 0.022580236 0.7086091
-0.016310018 0.02038756 0.70692003
-0.016206803 0.018232673 0.70536268
-0.016111758 0.016111761 0.70392859
-0.016024617 0.014021575 0.70261371
-0.015947117 0.011960387 0.70144427
-0.015877284 0.0099233091 0.70039058
-0.015814869 0.0079075098 0.69944882
-0.015760137 0.0059100688 0.69862294
-0.015712377 0.0039281249 0.69790238
-0.015635537 0.0019544959 0.69674289
-0.015510189 -0 0.69485164
-0.015373183 -0.0019216239 0.69278431
-0.015270552 -0.0038176477 0.69123578
-0.015200443 -0.0057001412 0.69017786
-0.015170257 -0.0075850785 0.68972236
-0.015212748 -0.0095079243 0.69036353
-0.01576622 -0.011824667 0.69871485
-0.01588352 -0.013898075 0.70048475
-0.016105535 -0.016105503 0.70383471
-0.01667672 0.052412599 0.74840063
-0.016224043 0.048672169 0.74059451
-0.015724098 0.044925988 0.73197329
-0.015579595 0.042287499 0.72948146
-0.015358658 0.03949374 0.72567147
-0.015160352 0.036818027 0.72225177
-0.014982339 0.034245402 0.71918207
-0.014821115 0.03175953 0.71640182
-0.014674136 0.029348314 0.71386731
-0.014539455 0.027001858 0.71154481
-0.014415524 0.024712354 0.70940775
-0.014302093 0.022474736 0.7074517
-0.014197968 0.020282805 0.70565617
-0.014101819 0.018130928 0.70399803
-0.01401307 0.016014934 0.70246762
-0.013931193 0.013931245 0.70105571
-0.013856513 0.011877 0.69976795
-0.013789685 0.0098497868 0.69861555
-0.013729145 0.0078452528 0.69757152
-0.013674686 0.0058605671 0.69663239
-0.013626697 0.0038934052 0.69580483
-0.013586103 0.001940906 0.6951049
-0.013527908 2.9802322e-08 0.69410139
-0.013428018 -0.0019182563 0.69237876
-0.013308574 -0.0038024485 0.69031906
-0.013214179 -0.0056632161 0.68869132
-0.013147069 -0.0075125992 0.68753397
-0.013110603 -0.0093646944 0.68690515
-0.013128786 -0.011253208 0.68721879
-0.013606898 -0.013606876 0.69546342
-0.013694575 -0.015650898 0.69697547
-0.013850487 -0.017807752 0.699664
-0.013494641 0.047231287 0.73231208
-0.013381737 0.044605792 0.73004067
-0.013307472 0.042140365 0.72854656
-0.013182021 0.039546102 0.72602266
-0.01299695 0.036824703 0.72229934
-0.012831686 0.034217864 0.71897447
-0.012683096 0.031707764 0.71598506
-0.012548443 0.029279739 0.71327609
-0.012425458 0.026921868 0.71080178
-0.012312683 0.024625361 0.70853299
-0.012208784 0.022382796 0.70644265
-0.012113854 0.020189762 0.70453286
-0.01202636 0.018039525 0.70277262
-0.011945489 0.015927345 0.70114553
-0.011870719 0.013849169 0.69964135
-0.011801609 0.01180163 0.69825095
-0.011739034 0.0097825527 0.69699204
-0.011682436 0.0077883005 0.69585335
-0.011630929 0.0058154762 0.69481719
-0.011584477 0.0038615167 0.69388258
-0.011543409 0.0019238889 0.69305634
-0.011509245 2.9802322e-08 0.69236904
-0.011466473 -0.0019110441 0.69150853
-0.01138831 -0.0037961006 0.68993604
-0.011288493 -0.005644232 0.68792784
-0.011204861 -0.0074698925 0.68624532
-0.011144011 -0.0092866719 0.68502116
-0.011106823 -0.011106789 0.68427289
-0.011104071 -0.012954742 0.68421751
-0.011505805 -0.015341073 0.69229984
-0.011571529 -0.01735726 0.69362205
-0.011678935 -0.01946488 0.69578296
-0.011932148 -0.02187559 0.70087719
-0.011248112 0.047242105 0.73237431
-0.011099253 0.044397026 0.72878057
-0.011012629 0.041848004 0.72668928
-0.010951165 0.039424241 0.72520548
-0.010844689 0.03687197 0.72263485
-0.010694626 0.034222811 0.71901202
-0.010560681 0.031682044 0.71577823
-0.010440105 0.029232323 0.71286738
-0.010330648 0.026859701 0.71022481
-0.010230653 0.024553567 0.7078107
-0.010138775 0.022305369 0.70559263
-0.010054026 0.020108104 0.70354652
-0.0099767651 0.017958224 0.70168138
-0.0099053476 0.015848547 0.69995713
-0.0098391604 0.013774842 0.69835925
-0.0097778635 0.011733472 0.69687939
-0.0097211394 0.0097211599 0.69550991
-0.0096701877 0.0077361763 0.69427985
-0.0096235406 0.0057741702 0.69315374
-0.0095810108 0.0038323998 0.69212699
-0.0095424196 0.0019085109 0.69119531
-0.0095089795 2.9802322e-08 0.69038796
-0.009480333 -0.0018960536 0.68969643
-0.0094483597 -0.0037793219 0.68892449
-0.0093906578 -0.0056343675 0.68753147
-0.0093101077 -0.0074480772 0.68558681
-0.0092381863 -0.0092381537 0.68385047
-0.0091849044 -0.011021882 0.68256414
-0.0091502694 -0.012810349 0.68172795
-0.009139739 -0.014623582 0.68147373
-0.0091981757 -0.01655668 0.68288451
-0.0095084738 -0.019016922 0.69037575
-0.0095862607 -0.021089762 0.69225371
-0.0097332792 -0.023359835 0.69580305
-0.0088755433 0.044377744 0.7286641
-0.0087654218 0.041635782 0.72534084
-0.008701778 0.039158016 0.72342026
-0.008652945 0.036775023 0.7219466
-0.0085663199 0.03426528 0.71933252
-0.0084494725 0.031685561 0.71580631
-0.008345224 0.029208302 0.71266031
-0.0082512302 0.026816517 0.70982385
-0.0081658559 0.024497598 0.70724738
-0.008087717 0.022241235 0.70488936
-0.008015871 0.020039678 0.70272124
-0.0079496466 0.017886758 0.70072269
-0.0078891385 0.015778303 0.69889677
-0.0078330981 0.013707936 0.69720554
-0.007781114 0.011671692 0.69563675
-0.0077328919 0.0096661448 0.69418156
-0.007688452 0.0076885223 0.69284046
-0.0076483181 0.0057362914 0.69162929
-0.0076114363 0.0038057268 0.69051629
-0.0075776619 0.0018944442 0.68949705
-0.0075470302 2.9802322e-08 0.68857265
-0.0075207697 -0.0018801689 0.6877802
-0.0074977232 -0.0037488639 0.68708473
-0.007474008 -0.005605489 0.68636906
-0.0074335346 -0.0074335337 0.6851477
-0.0073720925 -0.0092151165 0.68329346
-0.0073128603 -0.010969251 0.68150592
-0.0072682444 -0.012719393 0.68015957
-0.0072378074 -0.014475614 0.67924106
-0.0072250045 -0.016256243 0.6788547
-0.0072435439 -0.018108815 0.67941415
-0.0075064125 -0.020642638 0.68734694
-0.0075564333 -0.022669286 0.68885642
-0.0076490194 -0.024859279 0.69165039
-0.0065687443 0.041602045 0.72512674
-0.0064917579 0.038950562 0.72202909
-0.0064470633 0.036533386 0.72023064
-0.0064106919 0.034190387 0.71876717
-0.0063446579 0.031723291 0.71611017
-0.0062593878 0.029210478 0.71267915
-0.0061832988 0.026794285 0.70961767
-0.0061145872 0.024458349 0.70685291
-0.0060521164 0.022191137 0.70433927
-0.0059948801 0.019982934 0.70203626
-0.0059421971 0.017826617 0.69991642
-0.0058936686 0.015716463 0.69796383
-0.0058492068 0.013648182 0.6961748
-0.0058079939 0.011615992 0.69451648
-0.0057697082 0.0096161962 0.692976
-0.0057341345 0.0076455474 0.69154465
-0.0057015517 0.0057015717 0.69023365
-0.0056718653 0.0037812889 0.68903911
-0.0056444798 0.00188151 0.68793726
-0.0056193559 -0 0.68692636
-0.0055969157 -0.0018655956 0.68602341
-0.0055772229 -0.0037181377 0.68523109
-0.0055598291 -0.0055598319 0.68453121
-0.0055433623 -0.007391125 0.68386859
-0.0055158637 -0.0091930926 0.68276209
-0.0054732459 -0.010946482 0.68104732
-0.0054275901 -0.012664318 0.67921025
-0.0053927065 -0.014380515 0.67780668
-0.0053679254 -0.016103745 0.67680955
-0.0053551905 -0.017850637 0.67629713
-0.0053625563 -0.019662678 0.67659348
-0.0055564949 -0.022225946 0.68439698
-0.0055896007 -0.024221599 0.68572909
-0.0056442888 -0.026340008 0.68792963
-0.0057837134 -0.028918564 0.69353956
-0.0043221004 0.038898915 0.72168273
-0.0042747073 0.036335021 0.7188223
-0.004246464 0.033971727 0.71711773
-0.0042222939 0.031667203 0.7156589
-0.0041776458 0.029243559 0.71296412
-0.004122369 0.026795417 0.70962787
-0.004072974 0.024437845 0.70664662
-0.004028345 0.022155941 0.70395303
-0.0039877002 0.019938529 0.70149994
-0.0039504236 0.017776906 0.69925004
-0.0039160587 0.01566425 0.69717598
-0.0038844405 0.013595551 0.69526768
-0.0038554077 0.011566222 0.69351536
-0.0038284454 0.009571135 0.69188803
-0.0038033749 0.0076067448 0.69037491
-0.0037800292 0.0056700408 0.68896586
-0.0037587888 0.0037587881 0.68768388
-0.003739266 0.0018696487 0.68650562
-0.0037212179 -0 0.68541628
-0.0037045905 -0.0018522739 0.68441272
-0.0036899606 -0.0036899447 0.68352973
-0.0036768503 -0.0055152476 0.68273842
-0.0036652149 -0.0073304176 0.68203622
-0.0036548674 -0.0091371536 0.68141168
-0.0036385353 -0.010915577 0.68042594
-0.0036125022 -0.012643725 0.6788547
-0.0035822808 -0.014329106 0.67703068
-0.0035582324 -0.016012043 0.67557925
-0.0035406952 -0.017703444 0.67452073
-0.0035300662 -0.019415319 0.67387927
-0.0035298422 -0.02117905 0.67386574
-0.0036566972 -0.023768485 0.68152213
-0.0036759861 -0.025731891 0.68268633
-0.0037071707 -0.027803749 0.68456841
-0.0037687542 -0.030150026 0.68828535
-0.002133244 0.036265165 0.71832621
-0.002111441 0.033783078 0.71569443
-0.0020980544 0.031470865 0.71407849
-0.0020858101 0.029201359 0.71260047
-0.0020633945 0.026824147 0.70989472
-0.00203652 0.024438292 0.70665061
-0.0020124633 0.022137105 0.70374668
-0.0019907008 0.019907057 0.70111978
-0.0019708627 0.017737776 0.6987251
-0.0019526498 0.015621215 0.69652659
-0.0019358407 0.013550937 0.69449759
-0.0019203868 0.011522323 0.69263208
-0.0019061574 0.0095308125 0.69091445
-0.0018929319 0.0075717568 0.689318
-0.0018806163 0.0056418777 0.6878314
-0.0018691303 0.0037382841 0.68644494
-0.0018587428 0.0018587708 0.68519098
-0.0018491055 2.9802322e-08 0.68402767
-0.0018401763 -0.0018401444 0.68294984
-0.001831997 -0.0036639869 0.68196249
-0.0018247813 -0.005474329 0.68109149
-0.0018182298 -0.0072728992 0.68030071
-0.0018123814 -0.009061873 0.6795947
-0.0018073538 -0.010844111 0.6789878
-0.0018002981 -0.012602061 0.67813611
-0.001788298 -0.014306366 0.6766876
-0.0017735541 -0.015961975 0.67490786
-0.0017611008 -0.017611027 0.67340457
-0.0017518394 -0.019270211 0.67228663
-0.0017458553 -0.020950228 0.67156428
-0.0017441515 -0.022673935 0.67135859
-0.0017546102 -0.024564505 0.67262113
-0.0018138532 -0.027207762 0.67977238
-0.0018270467 -0.029232711 0.68136495
-0.0018501857 -0.031453133 0.68415809
0 0.036541671 0.72028971
0 0.033698499 0.71505606
0 0.03129214 0.71264035
0 0.029028565 0.71111047
0 0.026794076 0.70961559
0 0.024462909 0.70689899
0 0.022136778 0.7037428
0 0.019889981 0.70091438
0 0.01771 0.69835269
0 0.01558727 0.6960144
0 0.013514191 0.69386458
0 0.011484891 0.69187921
0 0.0094951987 0.69005513
0 0.0075404048 0.6883719
0 0.0056163371 0.68680447
0 0.0037200153 0.68534362
0 0.0018487573 0.68398559
0 2.9802322e-08 0.68275231
0 -0.0018290281 0.68160361
0 -0.0036403239 0.68053699
0 -0.0054365396 0.67957091
0 -0.0072200298 0.67870528
0 -0.0089923739 0.67791665
0 -0.010755599 0.67720729
0 -0.012513787 0.67661357
0 -0.014252633 0.67587668
0 -0.015936196 0.67456234
0 -0.017563075 0.67282629
0 -0.019177914 0.67127353
0 -0.020804644 0.6700995
0 -0.022452205 0.66929984
0 -0.024141371 0.66897291
0 -0.025927901 0.66947269
0 -0.028656185 0.67701519
0 -0.030635566 0.67835289
0 -0.032783508 0.68067217
0.0021167917 0.03386867 0.7163403
0.0020801651 0.031202495 0.71191907
0.0020614476 0.028860271 0.7096597
0.0020494494 0.026642859 0.70821136
0.0020369096 0.024442941 0.70669758
0.0020143508 0.022157878 0.7039746
0.0019889046 0.019889057 0.700903
0.0019660769 0.017694712 0.69814736
0.0019453692 0.015562952 0.69564772
0.0019264496 0.013485163 0.69336396
0.0019090374 0.011454225 0.69126207
0.0018929391 0.0094647408 0.68931884
0.0018781598 0.007512629 0.68753487
0.0018644845 0.0055934787 0.68588412
0.0018517469 0.0037035048 0.6843465
0.0018398447 0.0018398464 0.68290979
0.0018288365 2.9802322e-08 0.68158096
0.0018187651 -0.0018187761 0.68036532
0.0018093734 -0.003618747 0.67923158
0.001800635 -0.0054019094 0.67817676
0.0017928027 -0.007171154 0.67723131
0.0017856751 -0.0089283586 0.67637092
0.0017791479 -0.010674864 0.67558306
0.0017733342 -0.012413323 0.67488128
0.0017684392 -0.01414749 0.67429042
0.001762838 -0.015865505 0.67361426
0.0017532391 -0.017532378 0.67245555
0.0017393918 -0.0191333 0.67078412
0.0017261426 -0.020713687 0.66918474
0.0017159664 -0.022307545 0.66795641
0.001708735 -0.023922294 0.6670835
0.0017050668 -0.025575966 0.66664064
0.0017073882 -0.02731818 0.6669209
0.0017687392 -0.030068547 0.67432666
0.0017785028 -0.032013059 0.67550516
0.0017940112 -0.034086198 0.67737722
0.0018270467 -0.036540955 0.68136495
0.0041734469 0.031300873 0.71271074
0.004110246 0.028771698 0.70889616
0.004074649 0.026485264 0.70674771
0.0040519796 0.0243119 0.70537949
0.0040266104 0.022146404 0.70384836
0.0039813858 0.019906968 0.70111883
0.0039318446 0.017693341 0.6981287
0.0038873528 0.015549451 0.69544339
0.0038469303 0.013464242 0.69300371
0.0038099778 0.011429965 0.69077337
0.0037759214 0.0094397962 0.6887179
0.0037443731 0.0074887574 0.68681377
0.0037154704 0.0055732131 0.68506938
0.0036886551 0.003688693 0.68345088
0.0036636319 0.0018318594 0.68194062
0.0036402165 2.9802322e-08 0.68052739
0.0036186813 -0.0018093586 0.67922765
0.0035988353 -0.003598839 0.67802984
0.0035802943 -0.0053703785 0.67691076
0.0035630087 -0.0071260035 0.6758675
0.0035476491 -0.0088690817 0.67494047
0.0035334816 -0.010600418 0.67408538
0.0035204669 -0.012321591 0.67329985
0.0035090726 -0.014036268 0.67261219
0.0034992073 -0.015746415 0.67201674
0.0034887649 -0.017443776 0.67138648
0.0034715065 -0.019093275 0.67034483
0.0034456048 -0.020673573 0.66878152
0.0034183576 -0.0222193 0.66713703
0.0033974792 -0.023782313 0.66587692
0.0033822872 -0.025367141 0.66495997
0.0033731549 -0.026985228 0.6644088
0.0033735191 -0.028674901 0.66443074
0.0034940271 -0.031446248 0.67170411
0.0035110423 -0.033354908 0.6727311
0.0035382791 -0.035382777 0.67437494
0.0035872506 -0.037666082 0.67733061
0.0061784126 0.028832614 0.70942104
0.0060920049 0.026398689 0.7059443
0.0060413014 0.024165213 0.70390409
0.0060092802 0.022034019 0.70261574
0.0059707016 0.019902349 0.70106339
0.0059027304 0.017708212 0.69832844
0.005830395 0.015547723 0.69541788
0.0057653198 0.013452441 0.69279945
0.0057061687 0.011412382 0.69041938
0.005651982 0.0094200075 0.6882391
0.0056020124 0.0074693561 0.68622851
0.0055556726 0.0055557191 0.6843639
0.0055132499 0.0036755204 0.68265694
0.0054737846 0.0018246174 0.68106902
0.005436928 -0 0.67958599
0.0054023913 -0.0018007457 0.67819631
0.0053707683 -0.0035804808 0.67692393
0.0053414134 -0.0053413808 0.67574275
0.0053139571 -0.0070852339 0.67463803
0.0052885702 -0.0088142455 0.67361653
0.0052657509 -0.010531485 0.67269838
0.0052446113 -0.0122374 0.67184776
0.0052251322 -0.013933659 0.67106396
0.0052083982 -0.015625179 0.67039061
0.0051934952 -0.017311633 0.66979104
0.0051789456 -0.018989444 0.66920555
0.0051555019 -0.020621985 0.66826224
0.0051197186 -0.022185445 0.66682243
0.0050793365 -0.023703545 0.66519761
0.0050469222 -0.02523461 0.6638934
0.0050227395 -0.026787907 0.66292036
0.0050071916 -0.028374076 0.66229475
0.0050031026 -0.030018598 0.66213018
0.0050312919 -0.031864822 0.66326445
0.0052013053 -0.03467536 0.67010528
0.0052348445 -0.036643893 0.67145473
0.0052947258 -0.038827986 0.67386425
0.0081317155 0.026428103 0.70621717
0.0080271559 0.024081498 0.7030617
0.0079629626 0.02189815 0.70112455
0.0079228347 0.01980713 0.69991362
0.007870771 0.017709255 0.69834244
0.007779995 0.015560001 0.69560301
0.0076860902 0.013450652 0.69276917
0.0076014623 0.01140219 0.69021535
0.0075244457 0.0094055831 0.68789113
0.0074538551 0.0074538887 0.68576086
0.0073886397 0.0055414736 0.68379283
0.0073281219 0.0036640763 0.68196654
0.0072727343 0.0018182099 0.68029511
0.0072211465 -0 0.6787383
0.0071728555 -0.0017932355 0.67728102
0.0071275658 -0.0035637915 0.67591423
0.0070862798 -0.005314678 0.67466831
0.0070477021 -0.007047683 0.67350411
0.0070115314 -0.0087643862 0.67241257
0.0069783814 -0.010467559 0.67141217
0.0069482191 -0.012159377 0.67050201
0.0069202068 -0.013840377 0.66965663
0.0068946751 -0.015513033 0.66888613
0.0068724449 -0.017181098 0.66821527
0.0068524443 -0.018844217 0.66761172
0.0068343566 -0.020503074 0.66706586
0.006806327 -0.022120565 0.66622001
0.0067621516 -0.023667514 0.66488689
0.0067095361 -0.02516076 0.66329908
0.0066647613 -0.026659012 0.66194785
0.0066307574 -0.028180689 0.66092169
0.0066076401 -0.029734373 0.66022408
0.0065984912 -0.031342804 0.65994799
0.0066139507 -0.03306976 0.66041458
0.006851553 -0.035970658 0.66758484
0.0068909954 -0.037900448 0.66877508
0.0069544725 -0.03998819 0.67069072
0.007102449 -0.042614698 0.67515624
0.010035273 0.024084717 0.70309383
0.0099173626 0.021818191 0.70024729
0.0098416768 0.019683391 0.69841999
0.0097940937 0.017629385 0.69727129
0.0097278673 0.01556462 0.69567239
0.0096146651 0.013460547 0.6929394
0.0095003126 0.011400402 0.69017875
0.0093971482 0.0093971193 0.68768817
0.0093031488 0.007442534 0.68541873
0.0092168469 0.0055301189 0.6833353
0.0091370689 0.0036548376 0.68140924
0.0090629579 0.0018125772 0.67962009
0.00899518 2.9802322e-08 0.67798376
0.0089319143 -0.001786381 0.67645633
0.0088725826 -0.0035490096 0.67502403
0.0088169547 -0.0052901506 0.67368102
0.0087663494 -0.0070130527 0.67245924
0.0087188119 -0.0087187886 0.67131168
0.0086741326 -0.010408938 0.67023295
0.0086335717 -0.012086987 0.66925377
0.008596194 -0.013753891 0.66835135
0.0085613644 -0.015410453 0.66751051
0.0085301297 -0.01706025 0.66675645
0.0085022999 -0.01870501 0.66608459
0.0084771207 -0.020345062 0.66547668
0.0084551182 -0.021983296 0.66494548
0.008424907 -0.0235897 0.66421616
0.0083740074 -0.025122017 0.66298729
0.0083097555 -0.026591212 0.66143614
0.0082518952 -0.028056443 0.66003931
0.008207255 -0.029546082 0.65896153
0.0081755277 -0.031066954 0.65819561
0.0081596617 -0.032638609 0.6578126
0.008170668 -0.034316778 0.65807825
0.008462525 -0.037235111 0.66512436
0.0085058548 -0.039126933 0.66617042
0.0085739801 -0.04115507 0.66781509
0.0087031005 -0.043515474 0.67093235
0.011897345 0.021811813 0.70017701
0.011764104 0.019606829 0.69749641
0.011680071 0.01752013 0.69580579
0.011623994 0.015498668 0.69467765
0.011543099 0.013466984 0.69305009
0.011408173 0.01140821 0.69033563
0.011274461 0.0093954206 0.68764555
0.0111537 0.0074358284 0.68521601
0.011043495 0.0055217743 0.68299884
0.010942263 0.0036474168 0.6809622
0.010848551 0.0018081069 0.67907691
0.010761403 -0 0.6773237
0.010681724 -0.0017802715 0.67572057
0.010607186 -0.0035357177 0.67422104
0.01053723 -0.0052686036 0.67281365
0.010471843 -0.0069811642 0.67149818
0.010412027 -0.0086766481 0.67029476
0.010355783 -0.010355741 0.66916317
0.010302865 -0.012019992 0.66809857
0.010255142 -0.013673514 0.66713846
0.010210671 -0.01531601 0.66624373
0.010169167 -0.016948581 0.66540879
0.010132409 -0.018576056 0.66466922
0.01009904 -0.020198047 0.66399789
0.010068625 -0.02181536 0.66338599
0.010042758 -0.023433089 0.66286558
0.010010843 -0.025027096 0.66222346
0.0099560982 -0.026549578 0.66112208
0.009880797 -0.027995586 0.65960717
0.0098091904 -0.029427588 0.65816659
0.0097531676 -0.030885041 0.65703952
0.0097123384 -0.032374442 0.65621805
0.00968883 -0.033910871 0.65574515
0.0096913632 -0.035534978 0.65579605
0.010035607 -0.038469821 0.66272169
0.010080796 -0.040323168 0.66363084
0.010152351 -0.042301446 0.66507047
0.010271423 -0.0445095 0.66746598
0.013716242 0.019594669 0.69734901
0.013568892 0.017445743 0.69480807
0.013478453 0.015403956 0.69324851
0.013414185 0.013414204 0.69214022
0.013317785 0.011415243 0.69047785
0.013161891 0.009401381 0.68778956
0.013009846 0.0074342191 0.68516767
0.012872335 0.0055167377 0.68279636
0.012746786 0.003641963 0.6806314
0.012631219 0.001804471 0.67863846
0.012524175 2.9802322e-08 0.67679256
0.012424656 -0.0017749369 0.67507643
0.012333479 -0.0035238266 0.67350411
0.012248126 -0.0052491426 0.6720323
0.012167876 -0.0069530904 0.6706484
0.012093135 -0.0086379349 0.66935956
0.012024425 -0.010306656 0.66817474
0.011959716 -0.011959702 0.66705883
0.011898933 -0.01359874 0.66601062
0.01184413 -0.015228152 0.66506565
0.011792727 -0.016846746 0.66417921
0.011744721 -0.018455982 0.66335136
0.011702575 -0.020061523 0.6626246
0.011663604 -0.021660954 0.66195256
0.011627941 -0.023255855 0.66133761
0.01159837 -0.024853647 0.66082764
0.0115636 -0.026431084 0.66022801
0.011506541 -0.027944446 0.65924406
0.011423415 -0.02937448 0.65781063
0.011337517 -0.030773222 0.65632939
0.01127184 -0.032205254 0.65519685
0.011222649 -0.033667922 0.65434855
0.011191201 -0.035172343 0.65380627
0.011183698 -0.036746413 0.65367687
0.011242967 -0.038547307 0.65469891
0.011623234 -0.041511536 0.66125643
0.011692652 -0.043429852 0.66245347
0.011810063 -0.045553088 0.66447818
0.012104753 -0.048418999 0.66955996
0.015492599 0.017429233 0.69458616
0.015334961 0.015334964 0.69220757
0.015238113 0.01333338 0.69074625
0.015165889 0.011374414 0.6896565
0.015052852 0.0094079971 0.68795091
0.014877127 0.0074386001 0.6852994
0.014707726 0.0055153966 0.68274331
0.014554353 0.0036386251 0.6804291
0.014414106 0.001801759 0.67831296
0.014284941 5.9604645e-08 0.676364
0.014165086 -0.0017706156 0.67455554
0.014053686 -0.0035133958 0.67287463
0.013951508 -0.0052317977 0.67133296
0.013855697 -0.0069278181 0.66988719
0.013765592 -0.0086034834 0.66852766
0.013681841 -0.010261387 0.66726393
0.013604512 -0.011903912 0.6660971
0.013531527 -0.013531506 0.66499591
0.013463485 -0.015146405 0.66396916
0.013401506 -0.016751856 0.66303396
0.013343253 -0.018346936 0.66215503
0.013289473 -0.019934207 0.66134357
0.013241511 -0.021517456 0.66061991
0.013197025 -0.023094803 0.65994871
0.013156945 -0.02466926 0.6593439
0.013122913 -0.026245803 0.65883034
0.013085847 -0.027807415 0.65827107
0.013026441 -0.029309481 0.65737474
0.012938608 -0.030729175 0.65604937
0.012842015 -0.032105058 0.65459198
0.012763925 -0.033505291 0.65341365
0.012704374 -0.034937024 0.65251511
0.012663981 -0.036408931 0.65190566
0.012648574 -0.037945688 0.65167314
0.012677536 -0.0396173 0.65211016
0.013130403 -0.042673796 0.65894341
0.013200725 -0.044552416 0.66000444
0.013309491 -0.046583205 0.66164559
0.013525262 -0.049029052 0.66490138
0.017567404 0.017567426 0.69644016
0.017228005 0.015313774 0.69188803
0.017063951 0.013272017 0.68968773
0.016960289 0.011306882 0.68829739
0.016880438 0.0093780458 0.68722636
0.016749902 0.0074444413 0.68547553
0.016555134 0.0055183768 0.6828633
0.016369304 0.0036376417 0.68037087
0.016200876 0.0018000901 0.67811191
0.016046679 -0 0.67604375
0.01590443 -0.0017671585 0.67413586
0.01577241 -0.0035049915 0.67236519
0.015649576 -0.0052164793 0.67071766
0.015536837 -0.0069052279 0.66920561
0.015430997 -0.0085727572 0.66778606
0.015331285 -0.010220826 0.66644871
0.015238988 -0.011852533 0.66521072
0.015153251 -0.013469547 0.66406083
0.015072254 -0.015072227 0.66297442
0.014997162 -0.016663462 0.66196728
0.014928207 -0.018245578 0.66104245
0.014863266 -0.01981765 0.66017145
0.014803899 -0.021383375 0.65937519
0.014750172 -0.022944719 0.65865457
0.014700145 -0.024500221 0.6579836
0.014655938 -0.026054978 0.65739071
0.014617309 -0.027610451 0.65687263
0.014578458 -0.029156923 0.65635157
0.01451797 -0.030648977 0.65554023
0.014426208 -0.032058239 0.65430951
0.014320008 -0.033413321 0.65288508
0.014228882 -0.034781665 0.65166289
0.014158243 -0.036182165 0.65071547
0.014108032 -0.037621409 0.65004206
0.014083324 -0.039120287 0.6497106
0.014102157 -0.040739506 0.6499632
0.014603185 -0.043809503 0.65668315
0.014672603 -0.045648098 0.65761423
0.014780479 -0.047625959 0.65906107
0.01496611 -0.049887002 0.66155082
0.019249156 0.015399367 0.69317877
0.018923806 0.013246685 0.68925142
0.01875576 0.011253476 0.68722296
0.018646166 0.0093231201 0.68590003
0.018558128 0.0074232519 0.68483728
0.018410362 0.0055231452 0.68305361
0.01819711 0.0036394596 0.68047947
0.017995793 0.0017996132 0.67804933
0.017813014 -0 0.67584306
0.017645476 -0.0017645061 0.67382061
0.017490838 -0.0034981072 0.67195398
0.017347062 -0.0052041113 0.67021847
0.017213326 -0.0068853199 0.66860408
0.017090444 -0.0085451901 0.66712081
0.016974891 -0.010184914 0.66572595
0.016865946 -0.01180613 0.66441083
0.01676541 -0.013412327 0.66319734
0.016671563 -0.015004396 0.66206443
0.016582772 -0.016582727 0.66099262
0.016500961 -0.018151075 0.66000515
0.016425181 -0.019710213 0.6590904
0.016353566 -0.021259636 0.65822589
0.016288936 -0.022804499 0.65744573
0.016229443 -0.024344206 0.65672767
0.016173888 -0.025878191 0.656057
0.016125776 -0.027413815 0.65547627
0.016082443 -0.028948367 0.65495318
0.016042329 -0.030480415 0.65446889
0.015981967 -0.031963885 0.65374029
0.015887577 -0.033363879 0.65260094
0.015772143 -0.034698695 0.65120745
0.015667444 -0.036035091 0.64994371
0.015585069 -0.03740415 0.64894933
0.015524189 -0.038810432 0.64821446
0.015488917 -0.040271193 0.64778864
0.015495151 -0.041836917 0.64786392
0.016041351 -0.044915766 0.65445715
0.016111445 -0.046723157 0.65530324
0.016214088 -0.048642248 0.65654218
0.016386451 -0.050797969 0.65862286
0.020888552 0.01329273 0.6900456
0.020583192 0.01122722 0.68669462
0.020411443 0.0092779398 0.68480992
0.020296879 0.007380724 0.68355268
0.020200336 0.0055091977 0.68249333
0.020035403 0.0036428273 0.68068331
0.019804133 0.0018003881 0.67814553
0.019588178 2.9802322e-08 0.67577571
0.019391764 -0.001762867 0.67362022
0.019211581 -0.0034929812 0.67164302
0.019045057 -0.005194068 0.6698156
0.018890077 -0.0068691075 0.6681149
0.018745959 -0.0085208714 0.66653341
0.018613273 -0.010152668 0.66507733
0.018488413 -0.011765331 0.66370714
0.018370489 -0.013360292 0.66241312
0.018262051 -0.014941663 0.66122317
0.018160339 -0.016509384 0.66010696
0.018063903 -0.018063933 0.65904874
0.017975705 -0.019609839 0.65808082
0.01789319 -0.021146476 0.65717536
0.017815061 -0.022673696 0.65631801
0.017745331 -0.024198145 0.6555528
0.017680231 -0.025716662 0.65483844
0.017619615 -0.027230263 0.65417325
0.017567201 -0.028746307 0.65359807
0.017519169 -0.030260354 0.65307093
0.017476391 -0.031775206 0.65260154
0.017419035 -0.033254474 0.65197212
0.017323364 -0.03464669 0.6509223
0.017199181 -0.035961896 0.6495595
0.017080318 -0.037266105 0.64825517
0.016985649 -0.038603753 0.64721632
0.016918035 -0.039988071 0.6464743
0.016875191 -0.041420907 0.64600414
0.016866142 -0.042931974 0.6459049
0.016950391 -0.04468739 0.64682943
0.017524078 -0.047792941 0.65312487
0.017621815 -0.049661458 0.65419734
0.017775532 -0.051710635 0.65588427
0.018101808 -0.054305404 0.65946466
0.022516452 0.011258245 0.68731886
0.022210851 0.009254545 0.68424487
0.022032203 0.0073440671 0.68244779
0.021913519 0.0054784119 0.68125385
0.021808535 0.0036347806 0.68019783
0.021626143 0.001802206 0.67836314
0.021377442 2.9802322e-08 0.67586136
0.021147575 -0.0017623007 0.67354906
0.020938283 -0.0034897029 0.67144376
0.020746058 -0.005186528 0.66951013
0.020568179 -0.0068560243 0.66772079
0.0204024 -0.0085009634 0.66605318
0.020248281 -0.010124147 0.66450286
0.020106232 -0.011728615 0.66307396
0.019972337 -0.013314873 0.66172707
0.019845789 -0.014884323 0.66045415
0.019729776 -0.016441464 0.65928715
0.019620432 -0.017985374 0.65818727
0.019516606 -0.019516587 0.65714276
0.019422162 -0.021040618 0.65619278
0.019333109 -0.022555292 0.65529704
0.019249065 -0.024061322 0.65445155
0.019174011 -0.025565356 0.6536966
0.019103248 -0.027062923 0.65298474
0.019038374 -0.028557569 0.65233219
0.018981079 -0.030053347 0.65175581
0.018928243 -0.03154701 0.65122426
0.018882526 -0.033044398 0.65076441
0.018825691 -0.034513742 0.65019274
0.018732948 -0.035904795 0.64925981
0.018601729 -0.037203431 0.64793986
0.018468812 -0.038476676 0.64660281
0.018366558 -0.039794207 0.64557421
0.018288182 -0.041148394 0.64478582
0.018235251 -0.042548895 0.64425337
0.018215889 -0.044021726 0.64405859
0.018256709 -0.04564175 0.6444692
0.018905416 -0.048838973 0.65099472
0.018999757 -0.050666004 0.65194368
0.019144056 -0.05264616 0.65339518
0.019406907 -0.054986238 0.65603936
0.024105987 0.0092715621 0.68465555
0.023803672 0.0073242188 0.68184841
0.023619222 0.0054506361 0.68013573
0.023497125 0.0036149919 0.67900193
0.023381751 0.0017986298 0.67793071
0.023183659 2.9802322e-08 0.67609131
0.022918025 -0.001762867 0.67362475
0.022674996 -0.0034883916 0.67136812
0.022453485 -0.005181551 0.66931129
0.022249725 -0.0068460405 0.66741931
0.022060994 -0.0084849894 0.66566688
0.021885009 -0.010100752 0.66403276
0.021721233 -0.011696041 0.66251206
0.021570187 -0.013273925 0.66110951
0.021427646 -0.014834523 0.65978599
0.021292692 -0.016378969 0.65853286
0.021169413 -0.017912567 0.65738815
0.021052662 -0.0194332 0.65630406
0.020941708 -0.020941675 0.6552738
0.020841263 -0.022444397 0.6543411
0.020745743 -0.023937374 0.65345418
0.020656474 -0.025423318 0.65262532
0.020575648 -0.02690661 0.65187478
0.020499326 -0.028383642 0.65116614
0.020430434 -0.029859841 0.6505264
0.02036825 -0.031335741 0.64994901
0.020310566 -0.032809347 0.64941341
0.020261977 -0.034289509 0.6489622
0.020204265 -0.035745978 0.64842635
0.020112431 -0.037130624 0.64757359
0.019980285 -0.038423598 0.64634657
0.019838786 -0.039677531 0.6450327
0.019723529 -0.040964216 0.6439625
0.019633692 -0.042287916 0.64312828
0.019569838 -0.043655783 0.64253539
0.019538976 -0.0450899 0.64224881
0.019564893 -0.046654701 0.64248949
0.020256488 -0.049862117 0.64891124
0.020345952 -0.051647365 0.64974195
0.020483317 -0.053571731 0.65101743
0.02070711 -0.055749863 0.65309548
0.025658574 0.0073310137 0.68205404
0.025362594 0.0054348409 0.67950201
0.025173377 0.0035962164 0.67787063
0.025048709 0.0017892122 0.67679566
0.024922427 -0 0.67570686
0.024708545 -0.0017648935 0.6738627
0.024426889 -0.0034895837 0.67143422
0.024171414 -0.0051796138 0.66923153
0.023938233 -0.006839484 0.66722089
0.023723638 -0.0084727108 0.66537064
0.023524543 -0.010081947 0.66365403
0.023338635 -0.011669278 0.66205108
0.023165748 -0.013237566 0.66056043
0.023005975 -0.014789551 0.65918285
0.022855029 -0.016325027 0.65788138
0.022712233 -0.017845333 0.65665013
0.022581764 -0.019355774 0.65552521
0.022457819 -0.020853668 0.6544565
0.022340573 -0.022340596 0.6534456
0.022233643 -0.023821741 0.65252364
0.022131927 -0.025293618 0.65164661
0.022037514 -0.026759803 0.65083259
0.021951122 -0.028222829 0.65008765
0.021869229 -0.029679656 0.64938158
0.02179642 -0.031137705 0.64875376
0.021729348 -0.032593995 0.64817554
0.021667313 -0.034048647 0.64764059
0.021615498 -0.035511136 0.64719385
0.021557424 -0.036955565 0.64669311
0.021467378 -0.038334608 0.64591676
0.02133498 -0.039622098 0.64477515
0.021185862 -0.040858448 0.64348942
0.021057026 -0.042114049 0.64237863
0.020955108 -0.043406993 0.64149988
0.020964893 -0.044924736 0.64158416
0.021158472 -0.04685086 0.64325327
0.021355662 -0.048812956 0.64495349
0.021573424 -0.050851643 0.6468311
0.021761142 -0.052848458 0.64844966
0.021969849 -0.054924577 0.65024912
0.022182386 -0.057040423 0.65208173
0.022452854 -0.059339657 0.6544137
0.027177945 0.0054356158 0.67953205
0.026888764 0.0035851598 0.67720497
0.026695855 0.0017797351 0.67565256
0.026569221 2.9802322e-08 0.6746335
0.026431954 -0.0017620921 0.67352879
0.026201088 -0.003493458 0.67167103
0.025905186 -0.0051810145 0.66928971
0.025637766 -0.0068366826 0.66713774
0.025393587 -0.0084644854 0.6651727
0.025168523 -0.010067374 0.66336155
0.024959609 -0.011647791 0.66168028
0.024764182 -0.013207585 0.66010767
0.024582492 -0.014749497 0.65864551
0.024414329 -0.016276211 0.65729225
0.024255421 -0.017787278 0.65601349
0.024105228 -0.019284159 0.65480477
0.02396759 -0.020771891 0.65369719
0.023836667 -0.022247523 0.65264356
0.023713378 -0.02371338 0.65165144
0.023600189 -0.025173515 0.65074056
0.023492265 -0.02662459 0.64987206
0.023392975 -0.028071582 0.64907306
0.023301031 -0.029514611 0.64833313
0.023213686 -0.030951589 0.64763021
0.023137115 -0.032391906 0.64701402
0.023065228 -0.033828974 0.6464355
0.022999916 -0.035266489 0.64590991
0.02294381 -0.036710083 0.64545846
0.022885744 -0.03814286 0.6449911
0.022798495 -0.039517373 0.64428902
0.022666918 -0.040800422 0.64323014
0.022510555 -0.042019665 0.64197183
0.022446731 -0.043397009 0.64145827
0.023128843 -0.046257675 0.6469475
0.022944018 -0.047417611 0.64546013
0.023079626 -0.049236536 0.64655137
0.023298718 -0.051257163 0.64831448
0.023825239 -0.054003835 0.65255159
0.02374932 -0.055415064 0.6519407
0.023981299 -0.057555139 0.65380752
0.024217853 -0.059737355 0.65571117
0.024459042 -0.061962888 0.65765208
0.028676419 0.0035845935 0.67716771
0.028383205 0.0017739534 0.67495567
0.028187431 -0 0.67347866
0.028059889 -0.0017537177 0.67251641
0.027911093 -0.0034888685 0.67139381
0.027662752 -0.0051867366 0.66952026
0.02735452 -0.0068385899 0.66719478
0.027074952 -0.0084608793 0.66508561
0.026820343 -0.010057598 0.66316479
0.026585389 -0.011631101 0.66139215
0.026366929 -0.013183475 0.65974402
0.026162459 -0.014716357 0.65820134
0.025972333 -0.016232699 0.65676701
0.025796171 -0.017734855 0.65543795
0.025629433 -0.019222051 0.65418005
0.025472295 -0.020696193 0.65299451
0.02532772 -0.022161722 0.65190375
0.025189852 -0.023615479 0.65086365
0.025060847 -0.025060833 0.64989036
0.024941547 -0.026500374 0.64899033
0.024827534 -0.027930945 0.64813018
0.024723565 -0.029359221 0.64734584
0.02462622 -0.030782759 0.64661139
0.024534598 -0.032201678 0.64592016
0.024453212 -0.033623159 0.64530617
0.024376448 -0.035041153 0.64472699
0.024308132 -0.036462188 0.64421159
0.024247613 -0.037886888 0.64375502
0.024189953 -0.039308697 0.64332002
0.024106478 -0.040679663 0.64269018
0.023976598 -0.041959047 0.64171034
0.02414698 -0.043766379 0.64299577
0.024572477 -0.046073377 0.64620596
0.024600642 -0.047663718 0.64641845
0.028337194 -0.056674361 0.67460853
0.028169777 -0.058100164 0.67334545
0.025521666 -0.054233521 0.65336704
0.025560942 -0.055914551 0.65366334
0.026099341 -0.058723509 0.65772521
0.02606985 -0.060286492 0.65750271
0.026331894 -0.062538207 0.65947968
0.030142834 0.0017731488 0.67485392
0.029847002 -0 0.67275333
0.029649539 -0.0017440617 0.67135125
0.029521529 -0.003473103 0.67044228
0.029360933 -0.0051813126 0.66930199
0.029094899 -0.0068458617 0.66741294
0.028775018 -0.0084632635 0.66514164
0.028483924 -0.010053128 0.66307461
0.028219331 -0.011619717 0.66119587
0.027974876 -0.013164639 0.65946007
0.027747467 -0.014689833 0.65784538
0.027534325 -0.016196668 0.6563319
0.027336115 -0.017688036 0.65492451
0.027152171 -0.019166231 0.6536184
0.02697796 -0.020630181 0.65238136
0.026814079 -0.02208218 0.6512177
0.026662705 -0.023525894 0.65014291
0.026518241 -0.024958342 0.64911705
0.026383674 -0.026383668 0.64816159
0.026258329 -0.027802914 0.64727151
0.026138423 -0.029213518 0.64642012
0.026029959 -0.030623466 0.64564997
0.025927212 -0.032027721 0.64492047
0.025831627 -0.033429146 0.64424169
0.025745466 -0.03483209 0.64362991
0.025663827 -0.036231279 0.64305019
0.02559248 -0.037635952 0.64254355
0.02552758 -0.039042175 0.64208281
0.025468802 -0.040450424 0.64166534
0.02563807 -0.042227387 0.64286733
0.025876574 -0.044142365 0.64456081
0.0261194 -0.046093047 0.64628506
0.030360378 -0.055363059 0.67639869
0.030075371 -0.056612432 0.67437494
0.029861461 -0.057966322 0.67285609
0.029686999 -0.059374005 0.67161727
0.029490618 -0.060715973 0.67022288
0.029201474 -0.061838359 0.66816974
0.028737009 -0.06254521 0.66487169
0.028239848 -0.063124359 0.66134155
0.028529398 -0.065449789 0.66339755
0.032291275 0.0017939806 0.67737097
0.031578332 2.9802322e-08 0.6725899
0.03128089 -0.0017378032 0.67059517
0.031087188 -0.003454119 0.66929621
0.030953953 -0.0051589608 0.66840273
0.030782145 -0.0068404675 0.66725051
0.030498413 -0.008471787 0.66534781
0.030167529 -0.01005584 0.66312885
0.029866016 -0.011614561 0.66110682
0.02959126 -0.013151646 0.65926433
0.029337944 -0.014668912 0.65756553
0.029101802 -0.016167641 0.6559819
0.028880356 -0.017649084 0.65449691
0.028674392 -0.019116253 0.65311569
0.028483052 -0.020571083 0.65183252
0.028301539 -0.022012264 0.65061522
0.028131194 -0.023442656 0.64947289
0.027973311 -0.02486515 0.64841413
0.027822431 -0.026276737 0.64740229
0.027682528 -0.027682513 0.64646405
0.027551355 -0.02908197 0.64558434
0.027425842 -0.030473143 0.64474267
0.027312895 -0.031865031 0.64398521
0.027204819 -0.033250332 0.64326048
0.027105425 -0.03463468 0.64259392
0.027014365 -0.036019176 0.64198327
0.026927944 -0.037399888 0.64140368
0.026879644 -0.038826168 0.64107978
0.027127141 -0.04069069 0.64273953
0.033725858 -0.052462429 0.68699151
0.03346508 -0.053915918 0.68524271
0.033183582 -0.055305988 0.68335497
0.032222304 -0.055493921 0.67690849
0.031909723 -0.056728363 0.67481226
0.031605147 -0.057942748 0.67276973
0.031364661 -0.059244365 0.67115694
0.031179635 -0.060627043 0.66991621
0.030986968 -0.0619739 0.6686241
0.030723762 -0.06315437 0.66685903
0.030275019 -0.063913912 0.66384971
0.030496348 -0.066075429 0.66533399
0.033533618 2.9802322e-08 0.67386645
0.032983776 -0.0017359555 0.6703732
0.03268845 -0.0034408867 0.66849697
0.032497041 -0.0051310658 0.66728091
0.032358553 -0.0068123043 0.66640103
0.032175768 -0.0084672868 0.66523981
0.031874146 -0.010065496 0.66332352
0.031532977 -0.011617392 0.66115606
0.031221576 -0.013145894 0.65917766
0.030937094 -0.014654398 0.65737021
0.030675158 -0.016144782 0.65570611
0.030430861 -0.017617851 0.654154
0.030201359 -0.019074559 0.65269601
0.029987961 -0.020518064 0.65134025
0.029789502 -0.021950126 0.65007937
0.029601026 -0.023369193 0.64888191
0.029424477 -0.024778515 0.64776027
0.029260198 -0.026180178 0.64671659
0.029103085 -0.02757135 0.64571846
0.028957967 -0.028957933 0.64479649
0.028821101 -0.030337989 0.64392692
0.028691065 -0.031711161 0.6431008
0.028572841 -0.033084303 0.64234972
0.028459508 -0.034450918 0.6416297
0.028356453 -0.035818636 0.64097494
0.028353155 -0.037306786 0.64095402
0.035516124 -0.048601002 0.68646175
0.035394609 -0.050297558 0.68568969
0.035433922 -0.052218378 0.68593949
0.035299327 -0.05387792 0.68508434
0.03504416 -0.055332839 0.68346322
0.034754496 -0.0567047 0.68162292
0.033772826 -0.056880534 0.67538619
0.033434201 -0.058069944 0.67323488
0.033112906 -0.059254616 0.6711936
0.032850422 -0.060513943 0.66952598
0.032647811 -0.061858982 0.66823876
0.03245987 -0.063211322 0.66704476
0.032202803 -0.06440559 0.66541153
0.032501262 -0.066713125 0.66730773
0.032844409 -0.069146097 0.66948783
0.034856297 -0.00174281 0.67119724
0.03435998 -0.0034359694 0.66820168
0.034072306 -0.0051108301 0.66646546
0.033879895 -0.0067759454 0.66530418
0.03373621 -0.0084340572 0.664437
0.033542395 -0.010062695 0.66326714
0.03322291 -0.011627972 0.66133893
0.032871943 -0.013148755 0.65922064
0.03255127 -0.01464805 0.65728521
0.032257475 -0.016128719 0.65551198
0.031987432 -0.017593086 0.65388215
0.031735152 -0.019041061 0.65235949
0.031498119 -0.020473748 0.65092885
0.031277496 -0.021894246 0.64959729
0.031072192 -0.023304135 0.64835817
0.030876899 -0.024701476 0.64717942
0.030694399 -0.026090264 0.64607799
0.030524001 -0.027471572 0.64504957
0.030360829 -0.028842777 0.64406472
0.030210786 -0.030210793 0.64315915
0.030068364 -0.031571776 0.64229953
0.02993381 -0.032927155 0.64148742
0.029810488 -0.034282058 0.64074314
0.029824704 -0.035789639 0.64082891
0.038146399 -0.047682971 0.69105476
0.03734215 -0.048544794 0.68620074
0.03706992 -0.050044388 0.68455768
0.036915395 -0.051681548 0.68362498
0.036961757 -0.053594559 0.68390489
0.036845941 -0.055268884 0.68320584
0.036598265 -0.05672729 0.68171096
0.036301017 -0.058081627 0.67991698
0.03599133 -0.059385687 0.67804778
0.034936123 -0.059391379 0.67167908
0.034598522 -0.060547411 0.66964149
0.034313329 -0.061763942 0.66792017
0.034092735 -0.063071549 0.66658878
0.034184508 -0.064950556 0.66714263
0.034769706 -0.067800879 0.67067468
0.034913573 -0.069827124 0.67154294
0.036186449 -0.0034463108 0.66882527
0.035708081 -0.0051011145 0.66607547
0.035429232 -0.0067484081 0.6644727
0.035236526 -0.008389622 0.66336489
0.03508791 -0.010025054 0.66251069
0.03488278 -0.011627585 0.66133159
0.034545384 -0.01316011 0.65939218
0.034185287 -0.014650822 0.65732229
0.033855837 -0.016121775 0.65542859
0.033553019 -0.017575383 0.65368795
0.033275265 -0.019014388 0.65209138
0.033015557 -0.020438194 0.65059853
0.032771107 -0.021847367 0.64919341
0.032543749 -0.023245513 0.64788651
0.032331761 -0.024633706 0.64666802
0.032129977 -0.026009977 0.64550817
0.031941764 -0.027378649 0.64442623
0.031765342 -0.028740048 0.64341211
0.031596273 -0.030091643 0.64244032
0.031441506 -0.03144148 0.64155072
0.031293552 -0.032783717 0.64070022
0.031294111 -0.034274459 0.64070344
0.031581651 -0.036093295 0.64235628
0.039939534 -0.047547042 0.69039845
0.039714009 -0.04916966 0.68910211
0.03890742 -0.050023824 0.68446577
0.038601257 -0.051468313 0.68270582
0.038418483 -0.053054094 0.68165523
0.038455464 -0.054936379 0.68186784
0.038364198 -0.056632847 0.6813432
0.0381281 -0.058099926 0.67998606
0.037823953 -0.059437633 0.67823774
0.037506938 -0.06072551 0.67641556
0.036414944 -0.060691535 0.6701386
0.036064111 -0.061824173 0.66812199
0.035865065 -0.063190818 0.66697788
0.036615182 -0.066256046 0.67128968
0.036629476 -0.068026155 0.67137176
0.037499841 -0.0051135719 0.66657686
0.03703941 -0.0067344308 0.66405058
0.036760237 -0.0083546042 0.6625188
0.036567662 -0.0099729598 0.66146213
0.036414273 -0.011586368 0.66062057
0.036196947 -0.013162494 0.65942806
0.035842542 -0.014662832 0.65748352
0.035473734 -0.016124398 0.65545994
0.035135973 -0.017567992 0.65360665
0.034824625 -0.018995225 0.65189832
0.034539539 -0.020409703 0.65033412
0.034272525 -0.021809757 0.6488691
0.034021061 -0.023196131 0.64748931
0.033787154 -0.024572432 0.6462059
0.033568826 -0.025939524 0.64500797
0.033360675 -0.027295083 0.64386594
0.033166982 -0.028644204 0.64280313
0.032984812 -0.029986203 0.64180362
0.032810006 -0.031318605 0.64084446
0.032761477 -0.032761455 0.64057815
0.033062182 -0.034565002 0.64222813
0.033368565 -0.036402047 0.64390922
0.041705247 -0.047392309 0.68965131
0.04148614 -0.049029052 0.68844914
0.041255403 -0.050631642 0.68718308
0.040482391 -0.051523 0.68294162
0.040108033 -0.052869678 0.68088758
0.039897103 -0.054405123 0.6797303
0.039918955 -0.05624941 0.67985016
0.039850596 -0.057964504 0.67947513
0.039631512 -0.059447259 0.67827308
0.039322603 -0.060771286 0.67657804
0.038999252 -0.062044233 0.67480397
0.037871011 -0.061970711 0.66861337
0.037938487 -0.06380561 0.66898364
0.038342327 -0.066227645 0.67119944
0.038785271 -0.006745249 0.66437727
0.038344726 -0.008335799 0.66206515
0.038065817 -0.0099301934 0.66060138
0.037874021 -0.011526853 0.65959477
0.037716009 -0.013118595 0.65876549
0.037482731 -0.014667124 0.65754116
0.037115 -0.016136914 0.65561116
0.036737986 -0.017570317 0.65363252
0.036392249 -0.018987238 0.65181804
0.036072847 -0.020388991 0.65014172
0.035780679 -0.021779537 0.64860833
0.0355069 -0.023156673 0.64717144
0.035248607 -0.024520755 0.64581585
0.035008419 -0.025875777 0.64455521
0.034783989 -0.027222246 0.64337736
0.034569785 -0.028557628 0.64225316
0.034370832 -0.029887646 0.64120901
0.034226798 -0.031250536 0.6404531
0.043400336 -0.041513354 0.68859851
0.043161545 -0.043161571 0.68734527
0.043073989 -0.04494679 0.68688571
0.04335472 -0.047124654 0.68835908
0.043229967 -0.048868626 0.68770432
0.043006063 -0.050485373 0.68652922
0.042770308 -0.052068174 0.68529189
0.042522822 -0.053615689 0.68399304
0.041589867 -0.054247648 0.67909664
0.041354928 -0.055739254 0.6778636
0.041340221 -0.057516813 0.67778641
0.041312024 -0.05927372 0.67763841
0.04110691 -0.060766727 0.67656195
0.040796373 -0.062081426 0.67493212
0.040466573 -0.063338995 0.6732012
0.040123593 -0.064546645 0.67140114
0.040043373 -0.0083423853 0.66222352
0.039624784 -0.0099061728 0.6601181
0.039346937 -0.011476159 0.65872073
0.039156288 -0.013052076 0.65776181
0.038993668 -0.014622599 0.65694392
0.038742691 -0.016142756 0.65568161
0.03836346 -0.017583221 0.6537742
0.037978724 -0.018989325 0.65183914
0.037625544 -0.020380467 0.6500628
0.037298329 -0.021757364 0.648417
0.036999535 -0.023124725 0.64691424
0.036719076 -0.024479359 0.64550364
0.03645445 -0.025821865 0.64417261
0.036208235 -0.027156144 0.64293432
0.035977826 -0.028482407 0.64177543
