# .PCD v0.7 - Point Cloud Data file format
VERSION 0.7
FIELDS x y z
SIZE 4 4 4
TYPE F F F
COUNT 1 1 1
WIDTH 1330
HEIGHT 1
VIEWPOINT 0 0 0 1 0 0 0
POINTS 1330
DATA ascii
-0.044203639 -0.031826586 0.67425495
-0.044579353 -0.033880293 0.67606908
-0.044984631 -0.035987675 0.67802596
-0.045089543 -0.037875205 0.67853248
-0.04521079 -0.039785475 0.67911792
-0.045364749 -0.04173553 0.67986125
-0.045562703 -0.043740213 0.68081713
-0.045811325 -0.045811325 0.68201756
-0.046125188 -0.047970176 0.68353301
-0.046556599 -0.050281137 0.68561602
-0.047202226 -0.052866489 0.6887334
-0.049011339 -0.056853145 0.69746858
-0.049305167 -0.059166163 0.69888729
-0.047641303 0.0059551895 0.70043814
-0.04735741 0.0039464533 0.69901025
-0.047104593 0.0019626915 0.69773871
-0.04630414 -0 0.69371277
-0.04570286 -0.001904279 0.69068849
-0.045624021 -0.0038020015 0.69029206
-0.050230306 -0.0062787831 0.71345985
-0.051599775 -0.0085999966 0.72034776
-0.051453859 -0.010719538 0.71961379
-0.044088833 -0.01102221 0.68257064
-0.043903951 -0.012805313 0.68164074
-0.043732069 -0.014577329 0.68077624
-0.043597117 -0.016348898 0.68009746
-0.043474164 -0.018114179 0.67947912
-0.043380249 -0.01988259 0.67900676
-0.043286897 -0.02164346 0.67853719
-0.04304963 -0.023318499 0.67734385
-0.042682704 -0.024898231 0.67549837
-0.042510752 -0.026569188 0.6746335
-0.042449143 -0.028299391 0.67432362
-0.04248729 -0.03009513 0.67451543
-0.042696968 -0.032022715 0.67557007
-0.043228775 -0.034222782 0.67824483
-0.04335973 -0.036133111 0.67890352
-0.0434663 -0.038033009 0.67943954
-0.043603294 -0.039969653 0.68012851
-0.043775752 -0.041951746 0.68099594
-0.043990958 -0.04399094 0.68207836
-0.044273488 -0.0461182 0.68349934
-0.044636853 -0.048356563 0.68532693
-0.045162462 -0.050807774 0.68797058
-0.046206504 -0.053907603 0.69322169
-0.047364138 -0.057231665 0.69904417
-0.046102524 0.008017838 0.70278037
-0.045588426 0.0059463382 0.70008218
-0.045399051 0.0039477646 0.69908834
-0.044817723 0.001948595 0.69603735
-0.044134848 -0 0.69245338
-0.043665126 -0.0018984675 0.68998814
-0.04808649 -0.0041814148 0.7131927
-0.049525548 -0.0064598322 0.72074538
-0.049539406 -0.0086155236 0.72081804
-0.042444251 -0.0092270076 0.68358064
-0.042253818 -0.011022717 0.68258119
-0.04208 -0.012806952 0.681669
-0.041939836 -0.01458776 0.68093336
-0.041811232 -0.016360939 0.68025845
-0.041714843 -0.018136829 0.67975247
-0.041625973 -0.019908041 0.67928612
-0.04148208 -0.021642834 0.67853093
-0.041119099 -0.023241192 0.67662585
-0.040896408 -0.024893463 0.67545712
-0.040789146 -0.026601613 0.67489415
-0.040793046 -0.028377771 0.67491466
-0.040912837 -0.03023994 0.67554337
-0.041386161 -0.032389164 0.67802751
-0.041623864 -0.034384906 0.67927504
-0.041716658 -0.036275357 0.67976201
-0.041837681 -0.038199604 0.68039715
-0.041991409 -0.040165693 0.68120396
-0.042184737 -0.042184711 0.68221867
-0.042426884 -0.044271499 0.68348944
-0.042746954 -0.046464086 0.68516928
-0.043183252 -0.048815817 0.68745917
-0.043888938 -0.051521778 0.69116282
-0.045421805 -0.055296063 0.69920772
-0.045720819 -0.057647973 0.70077705
-0.043854043 0.0079734623 0.70144147
-0.043613572 0.0059473217 0.700122
-0.043324679 0.0039386451 0.69853687
-0.042576306 0.0019352734 0.69443071
-0.042043578 2.9802322e-08 0.6915077
-0.042089876 -0.0019131601 0.69176167
-0.046376355 -0.0042159855 0.71528095
-0.047541257 -0.0064828694 0.72167259
-0.047370631 -0.0086128116 0.72073644
-0.040589418 -0.0092248619 0.6835289
-0.040421739 -0.011024088 0.68260884
-0.040269874 -0.012813121 0.68177563
-0.040145043 -0.014598191 0.68109071
-0.040038012 -0.016379148 0.68050349
-0.039950971 -0.018159509 0.68002582
-0.039855212 -0.019927591 0.67950046
-0.039579786 -0.021588951 0.67798924
-0.039283589 -0.023212999 0.676364
-0.03914877 -0.024912834 0.67562431
-0.039107326 -0.026664048 0.67539692
-0.039168272 -0.028486013 0.6757313
-0.039416801 -0.030458391 0.67709494
-0.039869074 -0.032620132 0.67957652
-0.039969247 -0.034518898 0.68012613
-0.040074013 -0.036430895 0.68070096
-0.040207654 -0.038380027 0.68143427
-0.040376373 -0.040376335 0.68235999
-0.040593609 -0.042438775 0.68355191
-0.0408682 -0.044583499 0.68505859
-0.041239794 -0.046863347 0.68709743
-0.041788999 -0.049386978 0.69011086
-0.043415416 -0.053282529 0.69903469
-0.043699969 -0.055618107 0.70059609
-0.042179447 0.010042757 0.70327377
-0.041809376 0.007963717 0.70114654
-0.041633777 0.0059476793 0.7001372
-0.041025978 0.0039072633 0.69664341
-0.040436447 0.0019255579 0.69325483
-0.040123004 2.9802322e-08 0.69145298
-0.044161547 -0.0021028817 0.71466708
-0.045474362 -0.0043308437 0.72221333
-0.0454317 -0.0064902306 0.72196811
-0.038920388 -0.0074133575 0.68454027
-0.038749445 -0.009226054 0.68355769
-0.038591191 -0.011026025 0.682648
-0.038467005 -0.0128223 0.68193418
-0.038351875 -0.014610201 0.68127239
-0.038265981 -0.016399711 0.68077862
-0.038184769 -0.018183202 0.6803118
-0.038020074 -0.019915253 0.67936516
-0.037678555 -0.021530598 0.67740202
-0.037497837 -0.02321291 0.67636329
-0.037429582 -0.024953067 0.67597091
-0.037449993 -0.026749998 0.67608827
-0.037594303 -0.02864328 0.67691779
-0.038071595 -0.030819833 0.67966127
-0.038217962 -0.032758206 0.68050259
-0.03830909 -0.034660608 0.68102646
-0.038427334 -0.036597461 0.68170619
-0.038576595 -0.038576543 0.68256408
-0.038763456 -0.04060933 0.68363822
-0.039004616 -0.042719334 0.68502444
-0.039319593 -0.044936657 0.68683493
-0.03976601 -0.047340482 0.68940097
-0.0405958 -0.050261438 0.69417071
-0.041744266 -0.053671181 0.70077229
-0.040034942 0.010008782 0.7024532
-0.039833512 0.007966727 0.70123744
-0.039506268 0.0059259832 0.69926238
-0.038827978 0.0038827956 0.6951685
-0.038357973 0.0019179285 0.69233173
-0.038510013 -0 0.6932494
-0.043325417 -0.0021662116 0.72231299
-0.043434862 -0.0043434501 0.72297347
-0.043263793 -0.0064895451 0.72194093
-0.037062783 -0.007412523 0.68451458
-0.036908999 -0.0092272162 0.68358636
-0.03677607 -0.01103279 0.68278408
-0.036661685 -0.012831569 0.68209374
-0.036569376 -0.014627725 0.68153656
-0.03648977 -0.016420364 0.68105614
-0.036387209 -0.018193573 0.68043715
-0.036089197 -0.019849002 0.67863846
-0.035863891 -0.02151832 0.67727864
-0.035755355 -0.023240954 0.67662358
-0.035733778 -0.025013626 0.67649341
-0.035823833 -0.026867837 0.67703688
-0.036163144 -0.028930485 0.67908478
-0.036458261 -0.030989498 0.680866
-0.036540534 -0.032886475 0.68136251
-0.036642488 -0.034810334 0.68197787
-0.036774583 -0.036774546 0.68277514
-0.03694129 -0.038788348 0.68378133
-0.037150566 -0.0408656 0.68504441
-0.037422307 -0.043035626 0.68668449
-0.037791871 -0.045350224 0.68891501
-0.03838652 -0.04798314 0.69250405
-0.039783314 -0.051718265 0.70093441
-0.040032219 -0.054043442 0.70243675
-0.038300421 0.012094885 0.70415092
-0.038001269 0.010000348 0.7022503
-0.037824221 0.0079630017 0.7011255
-0.037220761 0.0058769882 0.69729161
-0.036712229 0.0038644671 0.69406086
-0.036535446 0.0019229352 0.69293761
-0.040210366 2.9802322e-08 0.71628517
-0.041369058 -0.0021772981 0.72364658
-0.04128211 -0.0043454468 0.72309411
-0.035366956 -0.00558424 0.68551403
-0.035214078 -0.0074134767 0.68454278
-0.035073381 -0.0092297792 0.68364882
-0.034962323 -0.011040747 0.68294334
-0.034861553 -0.012843698 0.68230313
-0.034784634 -0.014646143 0.68181443
-0.03470996 -0.016441554 0.68133998
-0.034518771 -0.018167764 0.68012536
-0.034221549 -0.019812465 0.67823702
-0.034084376 -0.021526933 0.67736554
-0.034036297 -0.023287982 0.67706013
-0.034070209 -0.025104344 0.67727554
-0.034253363 -0.027042121 0.67843908
-0.03467856 -0.029202998 0.68114054
-0.034773439 -0.031113088 0.68174332
-0.03486206 -0.033027202 0.68230629
-0.034975957 -0.034975946 0.68302995
-0.035119247 -0.036967635 0.68394029
-0.035302866 -0.039018959 0.68510681
-0.03553883 -0.041150182 0.68660593
-0.035852451 -0.043400317 0.68859845
-0.036314383 -0.045870751 0.69153321
-0.037694044 -0.049597412 0.70029843
-0.038016465 -0.052022517 0.7023468
-0.036183588 0.012061208 0.70347345
-0.036016177 0.01000452 0.70235074
-0.035646688 0.0079214871 0.69987291
-0.035057399 0.0058428943 0.69592106
-0.034647547 0.0038497448 0.69317251
-0.038104184 0.0021169484 0.7163533
-0.039233226 -0 0.72392476
-0.039280109 -0.0021821856 0.72423917
-0.033660814 -0.0037400723 0.68655539
-0.033504665 -0.0055840909 0.68550813
-0.03336503 -0.0074144304 0.68457174
-0.033250105 -0.0092361271 0.68380105
-0.033147067 -0.011049002 0.68311012
-0.033068083 -0.012859792 0.68258035
-0.032997206 -0.014665425 0.68210506
-0.032883242 -0.016441584 0.68134081
-0.032592528 -0.018106937 0.67939121
-0.032414928 -0.019809097 0.67820024
-0.032331847 -0.0215545 0.67764306
-0.032338113 -0.023355335 0.67768514
-0.032438513 -0.025229901 0.67835838
-0.032842472 -0.027368695 0.68106741
-0.033000231 -0.029333502 0.68212533
-0.033076584 -0.031238943 0.68263733
-0.033176251 -0.033176214 0.68330574
-0.033302851 -0.035153031 0.68415475
-0.033461843 -0.037179828 0.68522102
-0.033663206 -0.039273739 0.68657142
-0.033931825 -0.041472226 0.68837279
-0.034305997 -0.043835402 0.69088209
-0.034965668 -0.046620846 0.69530582
-0.036042549 -0.05005908 0.70252758
-0.036406346 -0.052586943 0.70496732
-0.034393225 0.014161915 0.70503438
-0.034158431 0.012055963 0.70336717
-0.033982527 0.0099948943 0.70211816
-0.033407029 0.0078604817 0.69803184
-0.032964002 0.0058172047 0.69488603
-0.032901272 0.0038707554 0.6944406
-0.036231931 0.0021312833 0.71809042
-0.037209854 2.9802322e-08 0.72503424
-0.037093025 -0.0021818876 0.72420466
-0.031782337 -0.003739059 0.68649548
-0.031647414 -0.0055848658 0.68553746
-0.031524613 -0.0074175298 0.68466544
-0.031425618 -0.0092428029 0.68396258
-0.031339474 -0.011060953 0.68335086
-0.031270463 -0.012876034 0.68286085
-0.031195687 -0.014680296 0.68232989
-0.030978464 -0.016400337 0.68078744
-0.030745227 -0.01808542 0.67913133
-0.030639574 -0.019825578 0.67838109
-0.030608593 -0.021606028 0.67816114
-0.030663652 -0.023448646 0.67855209
-0.030887233 -0.025436521 0.68013972
-0.031213662 -0.027541459 0.68245745
-0.031289902 -0.029449314 0.68299884
-0.031374846 -0.031374842 0.68360204
-0.031483077 -0.033335 0.68437052
-0.031623177 -0.035343558 0.68536532
-0.031800039 -0.037411809 0.68662119
-0.032025248 -0.039560586 0.68822032
-0.032335322 -0.041845679 0.690422
-0.032819774 -0.044403195 0.6938619
-0.034059953 -0.048084617 0.70266795
-0.034264378 -0.050388753 0.7041195
-0.032301135 0.014131784 0.70451415
-0.032162413 0.01206094 0.70346755
-0.03176742 0.0099273324 0.70048761
-0.031266067 0.0078165233 0.69670516
-0.03092416 0.00579831 0.69412565
-0.034058135 0.0042572916 0.71776974
-0.035081815 0.0021926463 0.72549272
-0.035078585 2.9802322e-08 0.7254684
-0.030050894 -0.0018781424 0.68753737
-0.029914798 -0.003739357 0.68651068
-0.029790347 -0.0055856705 0.68557173
-0.029691793 -0.007422924 0.68482816
-0.02960155 -0.0092504621 0.6841473
-0.029533409 -0.01107499 0.68363327
-0.029470459 -0.012893319 0.6831584
-0.029343108 -0.014671534 0.68219757
-0.029077098 -0.016355842 0.68019068
-0.028937206 -0.018085718 0.67913526
-0.028886151 -0.019859225 0.6787501
-0.028904609 -0.021678448 0.67888933
-0.029028386 -0.023585558 0.67982316
-0.029398277 -0.025723487 0.68261373
-0.029500432 -0.027656645 0.68338454
-0.029573554 -0.02957353 0.68393612
-0.029668136 -0.031522363 0.68464971
-0.029787576 -0.033511013 0.68555081
-0.029937845 -0.035551161 0.68668455
-0.030135281 -0.037669092 0.68817407
-0.030393152 -0.039891005 0.69011956
-0.030771421 -0.042310715 0.69297338
-0.03163486 -0.045475066 0.69948745
-0.03224935 -0.048374027 0.70412344
-0.030462869 0.016246915 0.70596713
-0.030283168 0.014132142 0.70452106
-0.030098818 0.012039512 0.7030375
-0.029569231 0.0098564625 0.69877571
-0.029191321 0.0077843964 0.6957345
-0.029219847 0.0058439672 0.6959641
-0.032211661 0.0042948723 0.72004032
-0.033002727 0.0022001863 0.7264064
-0.032878395 2.9802322e-08 0.72540581
-0.028167216 -0.0018777847 0.68749321
-0.028048795 -0.0037398338 0.68654013
-0.027944464 -0.0055888891 0.6857006
-0.027856512 -0.0074283779 0.68499285
-0.027784225 -0.0092613995 0.68441111
-0.027723365 -0.011089295 0.68392134
-0.027645551 -0.012901247 0.68329513
-0.027416714 -0.014622211 0.68145359
-0.027244639 -0.016346753 0.68006879
-0.027162405 -0.018108249 0.67940706
-0.027149731 -0.019909799 0.67930508
-0.0272227 -0.021778136 0.6798923
-0.027510475 -0.023842424 0.68220812
-0.02770474 -0.025857747 0.68377143
-0.027766956 -0.027766943 0.68427211
-0.027848555 -0.029705107 0.68492877
-0.02795279 -0.031679839 0.68576765
-0.028084269 -0.033701092 0.68682563
-0.028249487 -0.035782665 0.68815529
-0.028470233 -0.037960291 0.68993163
-0.028774768 -0.040284663 0.69238234
-0.029292032 -0.042961657 0.696545
-0.030257044 -0.04639411 0.70431083
-0.03051923 -0.048830748 0.70642072
-0.028701343 0.018450886 0.70828933
-0.028391564 0.016223788 0.70561838
-0.028270109 0.014135063 0.70457119
-0.027869703 0.011944205 0.70111883
-0.027454203 0.0098051131 0.69753635
-0.02723485 0.0077814162 0.69564503
-0.029979169 0.0064240992 0.71930701
-0.030870283 0.0044100583 0.72699034
-0.030831965 0.0022022724 0.72666001
-0.026410423 5.9604645e-08 0.68853658
-0.026292857 -0.0018780231 0.68752289
-0.02618582 -0.0037408173 0.68660009
-0.026100451 -0.0055929422 0.68586397
-0.026023947 -0.0074353814 0.68520433
-0.025965007 -0.009273231 0.6846962
-0.02590902 -0.011103839 0.6842134
-0.025765881 -0.012882948 0.68297929
-0.025541814 -0.0145953 0.68104726
-0.02543978 -0.016354114 0.68016756
-0.025405088 -0.018146485 0.67986846
-0.025432851 -0.019982934 0.68010777
-0.025581084 -0.021926612 0.68138587
-0.025892548 -0.024043024 0.68407142
-0.025960678 -0.025960624 0.68465883
-0.026029263 -0.027888477 0.68525022
-0.026117384 -0.029848397 0.68601
-0.026229059 -0.031849533 0.68697286
-0.026373634 -0.033908963 0.68821943
-0.026556907 -0.036041498 0.68979961
-0.026808245 -0.038297474 0.69196671
-0.027187284 -0.040780902 0.69523489
-0.028241048 -0.044378757 0.70432061
-0.028415751 -0.046682984 0.70582694
-0.026514366 0.018356085 0.70701838
-0.026370648 0.016228139 0.70568389
-0.026170336 0.01409173 0.70382392
-0.025709826 0.011866093 0.69954789
-0.025391186 0.0097658932 0.69658911
-0.025489992 0.0078430772 0.69750661
-0.028680934 0.0066187084 0.72713596
-0.028745066 0.0044223964 0.72773141
-0.028632201 0.0022025108 0.72668344
-0.02452147 2.9802322e-08 0.68851346
-0.024418004 -0.0018782914 0.68755275
-0.024330961 -0.0037432015 0.68674445
-0.024254659 -0.005597204 0.68603599
-0.024194935 -0.0074445903 0.68548143
-0.024142761 -0.0092856586 0.68499696
-0.024059443 -0.011104345 0.68422329
-0.023844508 -0.012839377 0.68222761
-0.023713853 -0.014593124 0.68101436
-0.023654781 -0.016376346 0.68046588
-0.023661494 -0.018201143 0.68052828
-0.023739126 -0.020086914 0.68124902
-0.024044856 -0.02219525 0.68408787
-0.024148494 -0.024148464 0.68505025
-0.02420664 -0.026068687 0.68559009
-0.024282275 -0.028017998 0.68629247
-0.024378376 -0.030004144 0.68718481
-0.024499027 -0.032037139 0.68830502
-0.024656245 -0.034139395 0.68976498
-0.024861215 -0.036335588 0.69166815
-0.025158921 -0.038706005 0.69443244
-0.025761757 -0.041615129 0.70003009
-0.026396761 -0.044671416 0.70592636
-0.024661172 0.020550966 0.70889318
-0.024447594 0.0183357 0.70674473
-0.02433691 0.016224623 0.70563132
-0.023951303 0.013971627 0.70175242
-0.023615379 0.01180774 0.69837332
-0.023497086 0.0097904503 0.69718337
-0.02586524 0.0086217523 0.72100508
-0.026607869 0.0066519678 0.72847533
-0.026540594 0.0044234693 0.7277987
-0.022737719 0.0018948317 0.68954468
-0.022638189 2.9802322e-08 0.68854344
-0.022548074 -0.0018789768 0.68763703
-0.022475826 -0.0037459731 0.68691021
-0.022412399 -0.005603075 0.68627226
-0.022362482 -0.0074541271 0.68577015
-0.022309221 -0.0092954636 0.68523431
-0.022152508 -0.011076272 0.68365794
-0.021984689 -0.012824327 0.68196976
-0.0219092 -0.014606118 0.6812104
-0.021888036 -0.016416013 0.68099755
-0.02193273 -0.018277228 0.68144715
-0.02211416 -0.020271301 0.68327218
-0.022327308 -0.022327304 0.68541634
-0.022380071 -0.024245083 0.68594706
-0.022442976 -0.026183456 0.68657982
-0.022524983 -0.028156191 0.68740475
-0.022629315 -0.030172408 0.68845427
-0.022760646 -0.032244205 0.68977535
-0.022933209 -0.034399807 0.69151115
-0.023170924 -0.036687255 0.69390237
-0.023558857 -0.039264768 0.69780469
-0.024384746 -0.04267329 0.7061125
-0.024561603 -0.04502961 0.70789152
-0.02253167 0.020483345 0.7080766
-0.022419605 0.018343359 0.70684683
-0.022203088 0.016147673 0.70447093
-0.021825725 0.013889104 0.70032984
-0.02156372 0.011762083 0.69745469
-0.023713583 0.010778934 0.72104657
-0.024419224 0.0088797212 0.7287901
-0.024442321 0.0066660941 0.72904354
-0.020940768 0.0038074553 0.69061852
-0.020842751 0.0018948317 0.68954301
-0.02075449 -0 0.68857443
-0.020683827 -0.0018803179 0.68779898
-0.020619897 -0.0037490726 0.68709743
-0.020571191 -0.0056102872 0.68656296
-0.020527152 -0.0074643791 0.68607962
-0.020438351 -0.0092901289 0.68510514
-0.020251175 -0.011046082 0.68305117
-0.020153958 -0.012825251 0.68198436
-0.020119112 -0.014632076 0.681602
-0.020133907 -0.016473204 0.68176436
-0.020228995 -0.01838997 0.68280774
-0.020487497 -0.020487487 0.68564451
-0.02055122 -0.022419482 0.68634379
-0.020604074 -0.024350286 0.6869238
-0.020672329 -0.026310176 0.68767273
-0.02075856 -0.02830708 0.68861908
-0.020869939 -0.030356258 0.68984127
-0.0210132 -0.032474935 0.6914134
-0.021206377 -0.034701318 0.6935333
-0.021494582 -0.037126988 0.69669592
-0.022340525 -0.040619105 0.70597905
-0.022485459 -0.042926759 0.70756954
-0.020627141 0.022689909 0.70981252
-0.020468839 0.020468861 0.70790166
-0.020366196 0.01832962 0.70666265
-0.020022437 0.016017944 0.7025131
-0.019751184 0.013825864 0.69923878
-0.019710103 0.011826098 0.69874287
-0.021710835 0.010855407 0.72289389
-0.022290576 0.0089162886 0.7298919
-0.022213683 0.0066641271 0.72896373
-0.019032426 0.0038065016 0.69056261
-0.018950468 0.0018950403 0.68957329
-0.018877685 5.9604645e-08 0.68869472
-0.018817622 -0.0018817484 0.68796968
-0.018767226 -0.0037534237 0.68736136
-0.018725788 -0.005617708 0.68686116
-0.018673304 -0.0074692965 0.68622762
-0.018517127 -0.0092585683 0.68434244
-0.018400274 -0.011040151 0.6829319
-0.018344821 -0.012841344 0.68226242
-0.018338906 -0.014671087 0.68219101
-0.01839128 -0.01655212 0.6828233
-0.018603876 -0.018603832 0.68538952
-0.018715842 -0.020587415 0.68674111
-0.018759558 -0.022511423 0.68726873
-0.018816844 -0.024461865 0.68796027
-0.018889941 -0.026445895 0.68884265
-0.018982101 -0.028473109 0.68995512
-0.019099992 -0.030559987 0.69137824
-0.019256935 -0.032736748 0.69327265
-0.01947929 -0.035062701 0.69595677
-0.019900043 -0.037810087 0.70103568
-0.020456873 -0.040913731 0.70775723
-0.018514661 0.022629023 0.70914507
-0.018430097 0.020477891 0.70801085
-0.018213922 0.018213928 0.70511144
-0.017916095 0.015925437 0.70111692
-0.017714739 0.01377815 0.69841623
-0.01951215 0.013008118 0.72252369
-0.02010056 0.01116702 0.73041558
-0.020091053 0.0089294016 0.73028809
-0.017209636 0.0057365596 0.69164163
-0.017130682 0.0038068295 0.69058269
-0.017059686 0.0018955469 0.68963045
-0.017002424 -0 0.6888625
-0.016951798 -0.0018835068 0.68818343
-0.016912326 -0.0037582815 0.68765402
-0.016875694 -0.0056252182 0.68716276
-0.016782112 -0.0074586868 0.6859076
-0.016634695 -0.0092414618 0.6839304
-0.016568594 -0.011045694 0.68304384
-0.016546678 -0.012869596 0.68274987
-0.016567193 -0.014726371 0.683025
-0.016670719 -0.016670704 0.68441355
-0.016869118 -0.018743426 0.68707454
-0.016912136 -0.020670384 0.68765152
-0.016958501 -0.02261132 0.68827337
-0.01701791 -0.024581403 0.68907011
-0.017095175 -0.026592493 0.69010651
-0.017193079 -0.028655112 0.6914196
-0.017319443 -0.030790091 0.6931144
-0.017492952 -0.033042252 0.6954416
-0.017775083 -0.035550117 0.6992256
-0.018424895 -0.038897008 0.70794111
-0.018547606 -0.04121688 0.70958692
-0.016563028 0.024844557 0.71073771
-0.016453417 0.022623479 0.7090838
-0.016359344 0.020449191 0.70766437
-0.016069392 0.018078089 0.70328927
-0.015859293 0.015859336 0.70011914
-0.01587275 0.013888657 0.70032221
-0.017865648 0.013399303 0.73039269
-0.017926857 0.011204332 0.73131633
-0.017855925 0.0089280009 0.73024601
-0.015294707 0.0057355165 0.6916002
-0.015229301 0.0038073659 0.69061327
-0.01517319 0.0018966496 0.68976665
-0.015125087 2.9802322e-08 0.68904084
-0.015086608 -0.0018858016 0.68846023
-0.01505387 -0.0037634671 0.68796629
-0.015001966 -0.0056257248 0.68718314
-0.014866518 -0.0074332654 0.68513936
-0.014784593 -0.0092403591 0.68390322
-0.014748857 -0.011061639 0.68336397
-0.014754348 -0.012910068 0.68344688
-0.014807453 -0.014807433 0.68424809
-0.01500056 -0.016875625 0.68716186
-0.015059704 -0.018824607 0.68805432
-0.015097306 -0.020758778 0.6886217
-0.01514632 -0.022719473 0.68936121
-0.015208413 -0.024713665 0.6902982
-0.015287114 -0.026752412 0.69148564
-0.015390739 -0.028857589 0.69304919
-0.015528059 -0.031056076 0.69512123
-0.015732262 -0.033431023 0.69820243
-0.016350457 -0.036788523 0.70753026
-0.01647597 -0.039130419 0.70942402
-0.014464938 0.024797052 0.71025985
-0.014401654 0.022631168 0.70916855
-0.01420436 0.020291954 0.70576632
-0.013984703 0.017980337 0.7019785
-0.013869463 0.015850842 0.69999123
-0.015268672 0.015268683 0.72411972
-0.015722405 0.013476372 0.73194408
-0.01569753 0.011212558 0.73151511
-0.013445339 0.0076830685 0.6926775
-0.013384658 0.0057363212 0.69163108
-0.013330407 0.0038087368 0.69069552
-0.013286412 0.0018980801 0.68993682
-0.013248317 2.9802322e-08 0.68927997
-0.01321797 -0.0018882751 0.68875664
-0.013186568 -0.0037675798 0.68821514
-0.013093204 -0.0056113601 0.6866051
-0.012993339 -0.0074247718 0.68488306
-0.012948714 -0.0092490613 0.6841135
-0.012936854 -0.011088699 0.68390894
-0.012966547 -0.012966514 0.684421
-0.013086796 -0.014956295 0.68649459
-0.013200385 -0.016971916 0.68845344
-0.013230653 -0.018900931 0.68897527
-0.013269901 -0.020852685 0.6896522
-0.01332052 -0.022835135 0.69052505
-0.013384505 -0.024856925 0.6916284
-0.013465188 -0.026930362 0.69301975
-0.013574203 -0.029087573 0.69489968
-0.013726401 -0.031374633 0.69752419
-0.013997613 -0.033994198 0.70220113
-0.014427518 -0.037099332 0.70961457
-0.012473005 0.027024835 0.71175843
-0.012400157 0.02480036 0.71029276
-0.012312532 0.022572994 0.70852995
-0.012092093 0.020153522 0.70409501
-0.011938602 0.017907917 0.70100701
-0.011984161 0.015978903 0.70192361
-0.013486032 0.015733719 0.73213893
-0.013512254 0.013512254 0.73266649
-0.01345961 0.011216372 0.73160732
-0.011523647 0.0076824725 0.69265878
-0.011474144 0.0057370961 0.69166285
-0.011433721 0.00381127 0.6908496
-0.011397823 0.0018996596 0.69012743
-0.011370151 -0 0.68957067
-0.011345701 -0.0018909574 0.68907881
-0.011296564 -0.0037654936 0.68809021
-0.011192079 -0.0055960119 0.68598813
-0.011138388 -0.0074255764 0.68490797
-0.011119617 -0.0092663169 0.68453032
-0.01112885 -0.011128843 0.68471611
-0.011186449 -0.013050824 0.68587488
-0.011328747 -0.015104949 0.68873763
-0.011360772 -0.017041117 0.68938196
-0.011391075 -0.018985093 0.68999159
-0.011430196 -0.020955324 0.69077861
-0.011480067 -0.022960097 0.691782
-0.011544963 -0.025014073 0.69308758
-0.011627415 -0.027130604 0.69474638
-0.011741973 -0.0293549 0.69705117
-0.011921534 -0.031790733 0.70066363
-0.012374652 -0.035061508 0.70977962
-0.012453808 -0.037361413 0.7113722
-0.010489393 0.029370338 0.71405721
-0.010380025 0.026988119 0.71141684
-0.010333934 0.024801463 0.71030408
-0.010173284 0.022381216 0.70642567
-0.01002514 0.020050317 0.70284915
-0.0099728676 0.01795119 0.7015872
-0.010980438 0.017568678 0.72591215
-0.011293506 0.015810937 0.73347026
-0.011261074 0.013513267 0.73268729
-0.0096471421 0.009647131 0.6937235
-0.0096043292 0.0076834857 0.69268996
-0.0095662829 0.0057397783 0.69177139
-0.0095354365 0.0038141906 0.69102675
-0.0095090875 0.0019018352 0.69039059
-0.0094879195 -0 0.68987954
-0.009461402 -0.0018922389 0.68923938
-0.0093813976 -0.0037525296 0.68730789
-0.0093218666 -0.0055930912 0.68587065
-0.0092938524 -0.0074350536 0.68519431
-0.0092921946 -0.0092921853 0.68515432
-0.0093203736 -0.011184454 0.68583459
-0.0094363857 -0.013210952 0.68863541
-0.0094842147 -0.015174717 0.68979007
-0.0095072445 -0.017113 0.69034612
-0.0095373997 -0.019074768 0.69107413
-0.0095758401 -0.021066815 0.69200212
-0.009624281 -0.02309826 0.69317162
-0.0096879741 -0.025188684 0.6947093
-0.0097717149 -0.027360767 0.69673097
-0.0098958258 -0.029687464 0.6997273
-0.010189236 -0.032605529 0.70681083
-0.010375505 -0.035276711 0.71130776
-0.0083518047 0.029231369 0.71285892
-0.0083069494 0.026997596 0.71150529
-0.0082321567 0.024696499 0.70924819
-0.0080882721 0.022242785 0.70490605
-0.0079886755 0.019971699 0.70190054
-0.0087844655 0.019765019 0.72591561
-0.0090469746 0.018094003 0.73383754
-0.0090528671 0.015842557 0.73401535
-0.0077544637 0.011631697 0.69483256
-0.0077178031 0.00964728 0.69372618
-0.0076852045 0.0076852441 0.69274247
-0.0076586786 0.00574404 0.69194198
-0.0076355082 0.0038177669 0.69124275
-0.0076172296 0.0019043386 0.69069111
-0.0076006544 2.9802322e-08 0.69019091
-0.0075583742 -0.0018895566 0.68891501
-0.0074912966 -0.0037456751 0.68689084
-0.0074616643 -0.0055962205 0.68599653
-0.007452107 -0.0074521005 0.68570811
-0.007463139 -0.009328872 0.686041
-0.0075155455 -0.011273295 0.68762255
-0.0075995871 -0.013299257 0.69015872
-0.00761839 -0.015236765 0.6907261
-0.0076399972 -0.01718998 0.69137818
-0.0076683033 -0.019170761 0.69223237
-0.0077045825 -0.021187574 0.69332725
-0.0077504399 -0.023251295 0.69471115
-0.0078113615 -0.02538693 0.69654953
-0.007896265 -0.027636886 0.69911176
-0.0080421865 -0.030158162 0.70351535
-0.0083069839 -0.033227921 0.71150637
-0.0083911624 -0.035662413 0.7140466
-0.0063116043 0.031558067 0.71478021
-0.006257691 0.02920258 0.71261096
-0.0062271366 0.026984304 0.71138149
-0.0061223931 0.024489611 0.70716697
-0.006037632 0.02213797 0.70375645
-0.0060239425 0.020079851 0.70320565
-0.0066371146 0.019911379 0.7278778
-0.0068124533 0.018166572 0.7349329
-0.0067876549 0.015837848 0.73393512
-0.0058144955 0.011628985 0.6947782
-0.0057891342 0.0096485615 0.69375765
-0.0057670921 0.007689476 0.6928708
-0.0057485844 0.0057485998 0.69212604
-0.0057334998 0.0038223565 0.69151908
-0.0057209567 0.001906991 0.69101441
-0.0057012485 2.9802322e-08 0.69022143
-0.0056492379 -0.0018830597 0.68812871
-0.0056179049 -0.0037452579 0.68686795
-0.0056047523 -0.0056046844 0.68633866
-0.0056073698 -0.0074764788 0.68644404
-0.0056300205 -0.0093833208 0.6873554
-0.0057037622 -0.011407524 0.69032252
-0.0057240543 -0.01335609 0.6911391
-0.0057389135 -0.015303731 0.691737
-0.0057582208 -0.017274678 0.69251382
-0.0057826885 -0.019275606 0.69349831
-0.0058145183 -0.021319866 0.69477904
-0.0058555501 -0.023422182 0.69643009
-0.0059116567 -0.025617182 0.69868761
-0.005996916 -0.027985603 0.70211822
-0.0062321262 -0.031160593 0.7115823
-0.0062718885 -0.033450067 0.71318221
-0.0041942974 0.031457245 0.71396917
-0.0041736909 0.029215872 0.7127254
-0.0041271462 0.026826471 0.70991623
-0.0040576644 0.024345994 0.70572257
-0.0040103449 0.022056907 0.70286667
-0.0044177887 0.022088975 0.72745806
-0.004551095 0.020479947 0.73550379
-0.0045474758 0.018189907 0.7352854
-0.0038948725 0.013632059 0.69589722
-0.0038767511 0.011630267 0.69480348
-0.0038607477 0.0096518695 0.69383764
-0.0038476405 0.0076953173 0.69304657
-0.0038364006 0.0057546496 0.69236815
-0.0038274205 0.0038274527 0.69182616
-0.0038183224 0.0019091964 0.69127703
-0.0037910554 -0 0.68963134
-0.0037619397 -0.0018809438 0.68787408
-0.0037490299 -0.0037489831 0.68709487
-0.0037457745 -0.0056186616 0.68689835
-0.0037553329 -0.0075106621 0.68747532
-0.0037942177 -0.0094855428 0.6898222
-0.0038229027 -0.011468679 0.69155353
-0.0038319053 -0.013411701 0.69209689
-0.0038437683 -0.015375048 0.69281286
-0.0038589907 -0.017365426 0.69373167
-0.0038782384 -0.019391149 0.6948933
-0.003903091 -0.021467 0.69639331
-0.0039361441 -0.02361685 0.69838822
-0.0039839377 -0.025895596 0.70127285
-0.004082961 -0.028580725 0.70724946
-0.0041818703 -0.031364024 0.71321911
-0.0021118422 0.033789486 0.71574277
-0.0020959452 0.031439185 0.71382391
-0.0020846196 0.029184699 0.7124567
-0.0020475374 0.026617974 0.70798051
-0.002020125 0.024241507 0.70467156
-0.0020215695 0.022237301 0.70484591
-0.0022756925 0.022756964 0.73552126
-0.0022828565 0.020545751 0.736386
-0.0022736655 0.018189341 0.73527658
-0.0019471255 0.013629884 0.69585973
-0.001938646 0.011631876 0.69483614
-0.0019315809 0.0096579492 0.69398338
-0.0019254193 0.007701695 0.69323957
-0.0019206079 0.005761832 0.69265878
-0.0019164663 0.0038329363 0.69215888
-0.0019081492 0.0019081533 0.6911549
-0.0018903216 -0 0.68900287
-0.0018812739 -0.0018812716 0.6879108
-0.0018781739 -0.0037563443 0.6875366
-0.001879924 -0.0056397319 0.68774784
-0.0018905288 -0.0075621009 0.68902791
-0.0019141862 -0.0095709264 0.69188368
-0.001919326 -0.011515945 0.69250405
-0.0019246342 -0.013472408 0.6931448
-0.0019314841 -0.015451849 0.69397163
-0.0019404278 -0.017463833 0.69505131
-0.0019518272 -0.019518256 0.69642729
-0.0019667028 -0.021633714 0.69822294
-0.0019873958 -0.023848712 0.70072085
-0.0020215535 -0.026280165 0.704844
-0.0020926755 -0.029297441 0.71342915
-0.0021107462 -0.031661153 0.7156105
0 0.033702821 0.7150892
0 0.031453967 0.71394265
0 0.028969139 0.71059817
0 0.026468426 0.70659161
0 0.024224609 0.70450139
0 0.02444917 0.72911865
0 0.022886664 0.73708689
0 0.020556301 0.73652822
0 0.015650779 0.69697261
0 0.013631731 0.6958918
0 0.011637151 0.6949423
0 0.009665519 0.69416624
0 0.0077105165 0.69350553
0 0.0057698488 0.69298053
0 0.0038357973 0.69233179
0 0.0019015372 0.6903531
0 2.9802322e-08 0.68888915
0 -0.0018836856 0.68820482
0 -0.0037672818 0.68819797
0 -0.0056691468 0.68892884
0 -0.0076572597 0.69190037
0 -0.009613961 0.69292337
0 -0.011565894 0.6935091
0 -0.013537943 0.69427443
0 -0.015536606 0.69525039
0 -0.017571539 0.69649625
0 -0.019660056 0.69813895
0 -0.021827161 0.70034599
0 -0.024142057 0.70367151
0 -0.027195215 0.71334046
0 -0.029481769 0.71501863
0.0021198767 0.036037892 0.71671265
0.0021063213 0.033701152 0.71507639
0.0020925968 0.031388968 0.71341968
0.0020544732 0.028762668 0.70881772
0.0020277551 0.02636084 0.70559257
0.0020353354 0.024424046 0.70650762
0.0022907159 0.025197923 0.73733479
0.0022944554 0.02294457 0.73778617
0.0019658066 0.017692268 0.69811475
0.0019562149 0.015649736 0.69695693
0.0019478002 0.013634622 0.69594121
0.0019408794 0.011645287 0.69510579
0.0019349125 0.0096745789 0.69438547
0.0019301503 0.0077206492 0.69381064
0.0019259306 0.005777806 0.69330132
0.0019151827 0.0038304031 0.69200385
0.0018980013 0.0018980205 0.6899299
0.0018905288 -0 0.68902791
0.001888196 -0.0018881857 0.68874633
0.001891465 -0.0037828982 0.68914092
0.001906644 -0.0057199001 0.69097322
0.0019261531 -0.0077046156 0.69332814
0.0019307613 -0.0096538067 0.69388437
0.0019365075 -0.011619002 0.69457805
0.001944039 -0.013608247 0.69548714
0.0019535953 -0.015628725 0.69664061
0.0019656983 -0.017691284 0.69810164
0.0019821525 -0.019821465 0.70008785
0.0020054376 -0.022059798 0.70289862
0.0020503227 -0.024603844 0.7083168
0.002107013 -0.027391165 0.71515989
0.0042866827 0.038580209 0.71954507
0.0042326343 0.035977423 0.71628296
0.004213423 0.03370738 0.71512347
0.0041498062 0.031123519 0.71128386
0.0040872302 0.028610647 0.70750707
0.0040648999 0.026421875 0.70615935
0.0044767824 0.026860684 0.7310186
0.0046031801 0.02531752 0.7386474
0.004588448 0.022942245 0.73775822
0.0039306558 0.017687976 0.69805694
0.0039129807 0.015651941 0.69699013
0.0038975726 0.013641536 0.69606024
0.0038849234 0.011654794 0.69529682
0.0038743948 0.0096859932 0.69466132
0.0038658632 0.0077317655 0.69414639
0.0038525583 0.0057788193 0.6933434
0.0038170116 0.0038170516 0.69119793
0.0037957146 0.0018979013 0.68991256
0.0037871248 2.9802322e-08 0.68939412
0.003789261 -0.001894623 0.6895231
0.0038062828 -0.0038062334 0.69055033
0.0038562252 -0.0057843029 0.69356465
0.0038685682 -0.0077371001 0.69430965
0.0038789751 -0.0096974075 0.69493777
0.003892509 -0.011677504 0.69575465
0.0039098309 -0.013684392 0.69680011
0.0039324937 -0.015729964 0.69816792
0.0039615268 -0.017826855 0.69992024
0.0040020053 -0.020010024 0.70236325
0.0040680398 -0.022374213 0.70634884
0.0042174896 -0.025304914 0.71536893
0.0042477259 -0.027610213 0.71719384
0.0063873678 0.038324237 0.71782875
0.0063504553 0.035985887 0.71634346
0.0062976233 0.033587337 0.71421766
0.0061843689 0.030921847 0.70966071
0.0061063292 0.028496236 0.70652068
0.0067139422 0.029093713 0.73096907
0.0069155223 0.027662098 0.73908007
0.0069173705 0.025363743 0.7391544
0.0059245834 0.019748598 0.69920772
0.0058961688 0.017688543 0.69806439
0.0058713537 0.015656948 0.69706595
0.0058508939 0.013652146 0.69624269
0.0058334768 0.011666983 0.69554186
0.0058195228 0.0096991956 0.69498044
0.0058056358 0.0077408552 0.69442165
0.0057638367 0.0057638586 0.69273978
0.0057192785 0.0038128793 0.69094688
0.0056996467 0.0018998981 0.690157
0.0056952569 2.9802322e-08 0.68998033
0.0057110316 -0.0019036531 0.69061506
0.0057769688 -0.0038513243 0.69326818
0.0058134375 -0.0058134198 0.69473553
0.0058276565 -0.0077702105 0.69530773
0.0058464045 -0.0097439587 0.69606209
0.0058704349 -0.011740863 0.69702899
0.0059008044 -0.013768524 0.69825089
0.0059410911 -0.015842885 0.6998719
0.0059946892 -0.017984033 0.70202857
0.0060751894 -0.020250618 0.70526767
0.0063188309 -0.023169041 0.71507102
0.0063650236 -0.025460064 0.71692967
0.0085917301 0.040810734 0.72009933
0.0085056685 0.03827554 0.71750218
0.0084653404 0.035977721 0.71628511
0.0083234981 0.033294022 0.7120046
0.008205696 0.030771375 0.70844972
0.0081854928 0.028649271 0.70783997
0.0090210401 0.029318392 0.73305488
0.0092566889 0.027770102 0.74016619
0.0092212064 0.025358319 0.73909545
0.0078976052 0.019744039 0.69915223
0.0078626703 0.017691046 0.69809794
0.0078330366 0.015666097 0.6972037
0.0078076739 0.013663441 0.69643831
0.0077875932 0.011681408 0.69583231
0.0077707213 0.0097134113 0.69532317
0.0077369274 0.0077369511 0.69430333
0.007663928 0.0057479739 0.69210041
0.0076272734 0.003813684 0.69099426
0.007615027 0.0019037724 0.69062465
0.0076229163 -0 0.69086277
0.0076695662 -0.0019173622 0.69227052
0.007763457 -0.0038816929 0.69510388
0.0077836253 -0.0058377385 0.69571257
0.0078059076 -0.0078059137 0.69638503
0.007835214 -0.0097939968 0.69726938
0.0078731244 -0.011809677 0.69841349
0.0079211732 -0.013862044 0.69986343
0.0079857437 -0.015971452 0.70181203
0.0080768159 -0.01817283 0.7045604
0.0082410034 -0.020602524 0.70951521
0.0084933611 -0.023356706 0.71713072
0.010693436 0.040635109 0.71898329
0.010636606 0.038291812 0.71761125
0.010524916 0.035784721 0.71491486
0.010342478 0.033095956 0.71051037
0.010217241 0.030651748 0.70748693
0.011256715 0.031518817 0.73258209
0.011596445 0.030150801 0.74078381
0.011583558 0.02780056 0.74047273
0.0099201147 0.02182427 0.70031363
0.0098732924 0.019746542 0.69918329
0.0098326644 0.017698824 0.69820243
0.0097991573 0.015678704 0.69739354
0.0097708758 0.013679236 0.69671071
0.0097482977 0.011697978 0.69616568
0.0097210631 0.0097211003 0.69550812
0.009637109 0.0077097118 0.69348133
0.0095752897 0.0057452023 0.69198889
0.0095466068 0.0038186312 0.6912964
0.0095478091 0.0019095838 0.69132543
0.0095802397 -0 0.69210839
0.0097081251 -0.0019415915 0.69519573
0.0097473869 -0.0038989186 0.69614363
0.0097728977 -0.0058637261 0.69675958
0.0098062633 -0.0078449845 0.69756508
0.009848767 -0.0098487437 0.69859111
0.0099044451 -0.011885315 0.69993532
0.0099762874 -0.013966769 0.70166981
0.010075891 -0.016121417 0.70407444
0.010233248 -0.018419802 0.70787334
0.010624636 -0.021249235 0.71732235
0.010697003 -0.023533374 0.71906936
0.012930002 0.043100059 0.72095245
0.012821218 0.040600538 0.71876395
0.012753571 0.038260758 0.71740294
0.012527603 0.035494894 0.71285683
0.012355757 0.032948703 0.70939952
0.01236288 0.030907214 0.70954281
0.013918895 0.032477409 0.74084753
0.013958761 0.030243993 0.74164945
0.01390291 0.027805835 0.74052584
0.011902392 0.021821082 0.70027852
0.011850196 0.019750327 0.69922841
0.0118069 0.017710388 0.69835734
0.011769962 0.015693307 0.69761419
0.011740228 0.013696939 0.69701606
0.011714436 0.011714458 0.69649708
0.011648846 0.0097074211 0.69517756
0.011543232 0.0076955259 0.69305277
0.011498005 0.005749017 0.6921429
0.011484326 0.0038281381 0.69186771
0.011507172 0.0019178689 0.69232738
0.011611406 2.9802322e-08 0.69442433
0.011718186 -0.0019530058 0.6965726
0.011746153 -0.0039153695 0.69713521
0.011783035 -0.0058914721 0.69787723
0.011830629 -0.0078870654 0.69883484
0.011890982 -0.0099091232 0.70004904
0.011969636 -0.011969626 0.70163143
0.012074197 -0.014086574 0.70373499
0.012230818 -0.016307771 0.70688605
0.012626712 -0.018940061 0.71485078
0.012829382 -0.021382302 0.71892816
0.015038368 0.042966783 0.72014827
0.014965438 0.040620446 0.71889067
0.014775972 0.037995368 0.71562338
0.014530106 0.03528744 0.71138358
0.014402661 0.03292039 0.7091859
0.01586074 0.033987373 0.73432958
0.016330322 0.032660663 0.74242723
0.016290069 0.030253023 0.74173307
0.013952837 0.023919165 0.70142895
0.013888106 0.021824181 0.70031273
0.013832217 0.019760311 0.69934893
0.013786211 0.01772514 0.69855559
0.013747683 0.015711665 0.69789118
0.013717102 0.013717115 0.69736385
0.013669935 0.011717111 0.69655049
0.01354245 0.0096731782 0.69435209
0.013466431 0.0076951087 0.69304115
0.013437035 0.0057587624 0.69253427
0.013445906 0.0038416982 0.69268727
0.013512565 0.0019303858 0.69383681
0.013688848 -0 0.69687665
0.013728984 -0.001961261 0.69756871
0.013767298 -0.0039334893 0.69822943
0.013817048 -0.0059215724 0.69908738
0.013882381 -0.0079327822 0.70021397
0.013966023 -0.0099757016 0.70165634
0.014076484 -0.01206553 0.70356119
0.014232065 -0.014232039 0.70624405
0.014502672 -0.016574442 0.7109105
0.014979582 -0.019259453 0.71913457
0.017306939 0.04543075 0.72196245
0.017180068 0.042950183 0.72004813
0.017074613 0.040552229 0.71845698
0.016761173 0.037712663 0.71372747
0.016537845 0.035142928 0.71035773
0.016598262 0.033196568 0.71126932
0.018683089 0.035030812 0.74272692
0.018707974 0.032738984 0.74310243
0.016024556 0.026039898 0.70261276
0.015945401 0.023918092 0.7014184
0.015876969 0.021830827 0.70038587
0.01582012 0.019775152 0.69952804
0.015772121 0.017743647 0.69880384
0.015733499 0.01573354 0.69822109
0.015695866 0.013733894 0.69765323
0.015581916 0.011686474 0.69593382
0.015460586 0.0096628666 0.69410318
0.015407562 0.0077038109 0.69330305
0.015397903 0.0057742298 0.69315732
0.015443348 0.0038608611 0.69384301
0.015635537 0.0019544959 0.69674289
0.015719226 -0 0.69800574
0.015759267 -0.0019698739 0.69860983
0.015811933 -0.00395298 0.69940454
0.015879299 -0.0059547424 0.70042098
0.015965944 -0.0079829693 0.7017284
0.016080432 -0.010050267 0.70345592
0.016236451 -0.012177289 0.70581001
0.016475564 -0.014416069 0.709418
0.017128242 -0.017128229 0.71926606
0.017242676 -0.019398004 0.7209928
0.019424031 0.045322776 0.72134185
0.0193338 0.042964011 0.72013158
0.019050883 0.040218532 0.71633703
0.018753372 0.037506759 0.71234667
0.018646138 0.035220504 0.71090847
0.020541117 0.03651759 0.73632443
0.021115255 0.035192132 0.74402493
0.021041356 0.032730997 0.74303383
0.018023368 0.026033789 0.70255566
0.017941149 0.023921549 0.70145291
0.01787116 0.021842539 0.7005142
0.017812628 0.019791812 0.6997292
0.017765267 0.017765313 0.69909394
0.017726524 0.015756935 0.6985743
0.017649198 0.013727158 0.69753718
0.017481068 0.011654079 0.69528222
0.017397663 0.00966537 0.69416356
0.017370416 0.0077202022 0.69379807
0.017390272 0.0057967901 0.69406438
0.017507302 0.0038905442 0.69563407
0.017714599 0.0019683242 0.69841439
0.017759031 -0 0.69901031
0.017812064 -0.0019790828 0.69972157
0.017882656 -0.0039739013 0.70066833
0.017972583 -0.005990833 0.70187455
0.018087579 -0.0080389082 0.70341688
0.018243734 -0.010135382 0.70551127
0.018468494 -0.012312293 0.7085259
0.018946284 -0.014736027 0.71493411
0.01939542 -0.017240345 0.72095805
0.021584213 0.045326829 0.72136545
0.021420566 0.042841166 0.71938998
0.021024182 0.03994596 0.71460521
0.020752214 0.037353963 0.71132231
0.022814825 0.038785219 0.73622024
0.02350294 0.03760469 0.74452651
0.023499848 0.035249829 0.74448919
0.020124955 0.028174937 0.70375061
0.020027086 0.026035219 0.70256925
0.019942952 0.023931563 0.70155364
0.01987309 0.021860421 0.7007103
0.019814694 0.01981473 0.70000541
0.019767882 0.017791092 0.69944036
0.019712588 0.015770108 0.69877291
0.019540682 0.013678491 0.69669783
0.019414442 0.011648685 0.69517392
0.019356536 0.0096782744 0.69447494
0.019361928 0.0077447891 0.69454008
0.01943518 0.005830586 0.69542426
0.019696757 0.0039393604 0.69858176
0.019768976 0.0019769073 0.69945353
0.01982278 2.9802322e-08 0.70010298
0.019893002 -0.0019892752 0.70095062
0.019983334 -0.0039966702 0.70204109
0.020102236 -0.0060306787 0.70347631
0.02025629 -0.0081024766 0.70533592
0.020472942 -0.010236442 0.70795119
0.020834912 -0.012500942 0.71232057
0.021568768 -0.015098155 0.72117901
0.021788074 -0.017430484 0.72382617
0.023349805 0.042454183 0.71705461
0.023010096 0.039744735 0.71332681
0.02294879 0.037552536 0.71265399
0.025298405 0.039097577 0.73843801
0.025951363 0.037747473 0.74560332
0.025846679 0.035245478 0.74445456
0.022132466 0.028168619 0.70369589
0.022033498 0.0260396 0.70260984
0.021950634 0.023946196 0.70170051
0.021880822 0.021880835 0.70093441
0.021824168 0.019840151 0.70031273
0.021775814 0.017816573 0.69978213
0.021653477 0.015748024 0.6984396
0.021454951 0.013653189 0.69626105
0.021371393 0.011657149 0.69534409
0.02134694 0.0097031891 0.69507575
0.021394985 0.0077800155 0.69560301
0.021611646 0.0058941543 0.69798058
0.021786416 0.0039612055 0.69989842
0.021840274 0.0019854903 0.70048952
0.021911571 -0 0.70127183
0.022003373 -0.0020003319 0.70227933
0.022119835 -0.0040217936 0.70355731
0.022275787 -0.0060752332 0.70526862
0.022485459 -0.0081764758 0.70756954
0.022804547 -0.010365665 0.71107113
0.023723599 -0.012940139 0.72115654
0.023886582 -0.015200555 0.72294509
0.025881628 0.045292884 0.72116995
0.025316779 0.042194635 0.71548808
0.024999397 0.039582402 0.71229535
0.02754559 0.041318417 0.73790818
0.028376807 0.040200502 0.74626952
0.02833516 0.037780255 0.74585062
0.02426403 0.030330062 0.70489824
0.024147907 0.028172582 0.70373011
0.024048867 0.026052952 0.70273387
0.023966504 0.023966551 0.70190525
0.023898205 0.021906704 0.70121831
0.023843825 0.019869894 0.70067126
0.023762012 0.01782155 0.69984829
0.023537893 0.015691936 0.69759381
0.023404852 0.013652891 0.69625556
0.023355691 0.011677861 0.69576108
0.023373511 0.0097390115 0.69594026
0.02350058 0.0078335702 0.69721854
0.023803085 0.0059508383 0.70026147
0.02386847 0.0039781034 0.70091915
0.023937555 0.0019947886 0.70161408
0.024028657 2.9802322e-08 0.7025305
0.024147615 -0.0020122528 0.70372719
0.024298891 -0.0040498078 0.70524883
0.024504265 -0.006126076 0.70731479
0.024797445 -0.0082657933 0.71026391
0.025372947 -0.010572016 0.71605301
0.026065554 -0.013032764 0.7230202
0.028583512 0.048372149 0.72623128
0.027771834 0.044862211 0.71869451
0.027356036 0.042086244 0.71483362
0.02731193 0.039917469 0.71442413
0.030754041 0.042582542 0.74638557
0.03083276 0.04031983 0.74711657
0.026417343 0.032513678 0.70611745
0.026282743 0.030326247 0.70486766
0.026167704 0.028180599 0.70379943
0.026071422 0.026071459 0.70290542
0.025990894 0.023991644 0.70215774
0.025925839 0.021937281 0.70155364
0.025863472 0.019894987 0.70097452
0.025674207 0.017774463 0.69921714
0.025472822 0.015675604 0.69734716
0.025385438 0.013669103 0.69653577
0.025373258 0.011710733 0.69642264
0.025452886 0.0097895861 0.69716209
0.025785245 0.0079339147 0.70024812
0.025906011 0.0059783161 0.70136958
0.025974497 0.003996104 0.70200551
0.026064631 0.002004981 0.70284247
0.026179815 -0 0.7039119
0.026331792 -0.002025485 0.7053231
0.026528424 -0.004081279 0.70714891
0.026804343 -0.0061855912 0.70971096
0.027256653 -0.0083866119 0.71391082
0.02826296 -0.010870337 0.7232548
0.028506346 -0.013156772 0.72551477
0.030262021 0.047554612 0.72174591
0.029714532 0.044571817 0.71702528
0.029369809 0.041956902 0.71405298
0.032349788 0.043903321 0.73974699
0.033304598 0.042820215 0.74797958
0.033208448 0.040324569 0.74715042
0.028442515 0.032505751 0.70605773
0.02830861 0.030330658 0.70490319
0.028195122 0.028195143 0.70392466
0.028100906 0.026093751 0.7031123
0.028023789 0.024020404 0.70244735
0.02796215 0.021970302 0.70191592
0.027840018 0.019885749 0.70086288
0.027572203 0.017725021 0.69855374
0.027440866 0.015680522 0.69742131
0.027399007 0.013699532 0.69706041
0.027437318 0.011758864 0.69739068
0.027650347 0.0098751485 0.69922745
0.027950324 0.0079858303 0.70181394
0.028018629 0.0060040355 0.70240289
0.028107446 0.0040153861 0.70316875
0.028223181 0.0020159483 0.70416659
0.02837052 2.9802322e-08 0.70543694
0.028564412 -0.0020402968 0.70710874
0.028824998 -0.0041178465 0.70935559
0.02922071 -0.0062615871 0.71276748
0.030411663 -0.0086890161 0.72303605
0.030631082 -0.010939628 0.72492796
0.032950856 0.050524682 0.72598886
0.032145023 0.047146052 0.71950412
0.031689264 0.044364989 0.71583641
0.031676561 0.042235434 0.71573424
0.035725623 0.045252502 0.74831849
0.035763588 0.042916328 0.74862397
0.030626958 0.034710586 0.70728761
0.030473383 0.032504946 0.70605177
0.030342914 0.030342966 0.70500183
0.030233642 0.028218091 0.70412242
0.030142941 0.026123911 0.70339257
0.030070115 0.024056137 0.70280653
0.029985899 0.021989673 0.70212877
0.029722042 0.01981473 0.70000541
0.029528631 0.017717212 0.69844896
0.029442679 0.015702784 0.69775724
0.029453656 0.01374507 0.69784564
0.029578788 0.011831552 0.6988526
0.029977756 0.0099925995 0.70206332
0.030076623 0.0080204606 0.70285887
0.03016147 0.0060323179 0.7035417
0.030272298 0.0040363073 0.70443356
0.030418422 0.002027899 0.70560944
0.0306066 2.9802322e-08 0.70712376
0.03085777 -0.0020571649 0.70914507
0.031215971 -0.0041621029 0.71202767
0.031869307 -0.0063738525 0.71728528
0.032842282 -0.0087579489 0.72511524
0.034676999 0.049848199 0.72243869
0.034087285 0.046870053 0.71798956
0.033677604 0.044201881 0.71489882
0.03724917 0.046561509 0.74184418
0.038278975 0.04545629 0.74961346
0.038137648 0.042904854 0.7485472
0.032660756 0.034702092 0.70722723
0.032509696 0.032509685 0.70608759
0.032384235 0.030360192 0.70514107
0.032279257 0.028244376 0.7043491
0.032193713 0.026157379 0.7037037
0.032121636 0.024091274 0.70315999
0.03194055 0.021959156 0.70179373
0.031644616 0.019777894 0.69956112
0.03152176 0.017731011 0.69863421
0.03148742 0.015743703 0.69837511
0.031566754 0.013810486 0.69897366
0.031926919 0.011972606 0.70169091
0.032142397 0.010044515 0.70331663
0.032224942 0.008056283 0.70393932
0.032334272 0.0060626864 0.70476419
0.032474879 0.0040594041 0.70582491
0.032657027 0.0020411015 0.70719916
0.032897912 -0 0.7090165
0.033230834 -0.002076894 0.71152818
0.033761401 -0.0042201579 0.71553099
0.035061073 -0.0065739453 0.72533625
0.035315339 -0.0088288188 0.72725451
0.037376467 0.0527668 0.72621727
0.036556281 0.049458504 0.72039348
0.036057916 0.046663195 0.71685475
0.035681292 0.04407692 0.71418047
0.035674404 0.041969895 0.71413159
0.04073061 0.045522481 0.75003386
0.034930635 0.036985368 0.70885032
0.034756217 0.034756243 0.70761192
0.034559511 0.032526612 0.70621514
0.034437925 0.030386388 0.70535183
0.03433783 0.028278232 0.70464104
0.034257893 0.026197225 0.70407349
0.034140196 0.024098963 0.70323771
0.033814605 0.02188006 0.70092583
0.033622269 0.019777805 0.69956017
0.033554494 0.017764121 0.69907892
0.033583641 0.015804082 0.69928586
0.033782911 0.013910621 0.70070076
0.034208436 0.012073576 0.7037223
0.034299199 0.010087997 0.70436674
0.034402128 0.0080946386 0.70509762
0.034540989 0.006095469 0.70608366
0.034718767 0.0040845573 0.70734596
0.034948427 0.0020558238 0.70897669
0.035259608 2.9802322e-08 0.71118629
0.035724446 -0.0021014214 0.71448696
0.037118766 -0.0043669045 0.72438747
0.037490461 -0.0066159368 0.72702676
0.039120413 0.052160561 0.72316819
0.038493246 0.049185842 0.71896237
0.038045757 0.046500385 0.7159614
