# .PCD v0.7 - Point Cloud Data file format
VERSION 0.7
FIELDS x y z
SIZE 4 4 4
TYPE F F F
COUNT 1 1 1
WIDTH 1336
HEIGHT 1
VIEWPOINT 0 0 0 1 0 0 0
POINTS 1336
DATA ascii
-0.034224115 -0.019251019 0.71902192
-0.033206299 -0.02075395 0.71134311
-0.033209603 -0.022831589 0.71136802
-0.033267565 -0.024950624 0.71180528
-0.033364337 -0.02710852 0.71253538
-0.033489112 -0.029302955 0.71347678
-0.033640247 -0.031537712 0.71461701
-0.033819735 -0.033819735 0.71597111
-0.033995084 -0.036119729 0.71729398
-0.034126371 -0.038392127 0.71828449
-0.034209199 -0.040623426 0.71890938
-0.034273788 -0.042842209 0.71939665
-0.034344658 -0.045077324 0.71993136
-0.034422483 -0.047330886 0.72051847
-0.034510177 -0.04960835 0.72118008
-0.034601759 -0.051902592 0.72187108
-0.034704659 -0.054226011 0.72264731
-0.034812104 -0.056569666 0.72345793
-0.034927536 -0.058940172 0.72432876
-0.03505094 -0.06133914 0.7252599
-0.035179704 -0.063763201 0.72623122
-0.035319388 -0.06622386 0.72728509
-0.035463642 -0.068710804 0.72837347
-0.035618428 -0.071236849 0.72954118
-0.035780486 -0.073797226 0.73076379
-0.035950154 -0.076394081 0.73204392
-0.036132041 -0.079038799 0.73341602
-0.032314986 -0.0086172819 0.72087181
-0.032016266 -0.010672063 0.71846783
-0.031847667 -0.012739062 0.71711111
-0.030927451 -0.014432788 0.70970577
-0.030814186 -0.016434193 0.70879436
-0.030826589 -0.018495917 0.70889419
-0.030882655 -0.020588428 0.70934534
-0.030975444 -0.0227153 0.71009201
-0.031095305 -0.024876237 0.71105665
-0.0312391 -0.02707386 0.71221375
-0.031404845 -0.02931115 0.71354759
-0.031561207 -0.031561196 0.71480584
-0.031677231 -0.033789039 0.71573961
-0.031750396 -0.035983771 0.71632838
-0.03180974 -0.038171649 0.71680593
-0.031875804 -0.040375978 0.71733749
-0.031947445 -0.042596579 0.71791404
-0.032028563 -0.044839948 0.71856689
-0.032113254 -0.047099382 0.71924841
-0.032207649 -0.049385041 0.72000808
-0.032306775 -0.051690817 0.72080576
-0.032412812 -0.054021329 0.72165906
-0.032526173 -0.056378692 0.72257137
-0.032644439 -0.058759987 0.72352302
-0.032772589 -0.061175525 0.72455436
-0.032904774 -0.063615888 0.72561812
-0.033046905 -0.066093773 0.72676182
-0.033195257 -0.068603486 0.7279557
-0.033351026 -0.071148813 0.72920918
-0.03351739 -0.073738247 0.73054802
-0.033689655 -0.076363206 0.73193431
-0.033874094 -0.079039544 0.73341858
-0.034067985 -0.081763148 0.73497891
-0.029776676 -0.0042538047 0.71756113
-0.029543342 -0.0063306987 0.71554929
-0.029404327 -0.0084012449 0.71435058
-0.028523469 -0.010186911 0.7067557
-0.028470261 -0.012201518 0.70629692
-0.028490292 -0.014245123 0.70646966
-0.028547417 -0.016312838 0.70696223
-0.028632481 -0.0184066 0.7076956
-0.028746925 -0.020533532 0.70868242
-0.028882995 -0.022693783 0.70985568
-0.029035278 -0.024887353 0.71116865
-0.029173369 -0.027089536 0.71235931
-0.029275663 -0.029275626 0.71324128
-0.029340407 -0.031436145 0.71379954
-0.029394703 -0.033593923 0.71426767
-0.02945601 -0.035768002 0.71479625
-0.029521432 -0.037956119 0.7153604
-0.029596267 -0.040166348 0.71600556
-0.029674124 -0.042391568 0.71667689
-0.02976061 -0.044640899 0.71742254
-0.029851412 -0.046909332 0.71820551
-0.029948408 -0.049200952 0.71904182
-0.030052222 -0.051518083 0.71993691
-0.030160394 -0.053857803 0.7208696
-0.030277587 -0.05622977 0.72188002
-0.030398069 -0.058624864 0.72291893
-0.030528162 -0.061056286 0.72404057
-0.030663265 -0.063516736 0.72520542
-0.030805796 -0.066012412 0.72643441
-0.030957047 -0.068547755 0.7277385
-0.031113798 -0.071117252 0.72908998
-0.031282198 -0.073736608 0.73054206
-0.031458221 -0.076398522 0.73205972
-0.031642385 -0.079105914 0.73364753
-0.031840868 -0.081876516 0.73535895
-0.027717872 0.0021321476 0.71819341
-0.0273125 2.9802322e-08 0.71442938
-0.027129894 -0.0020868778 0.71273386
-0.027012946 -0.0041558146 0.71164793
-0.026207028 -0.0060477257 0.70416462
-0.026173074 -0.0080532134 0.70384932
-0.026199218 -0.010076612 0.70409209
-0.026256643 -0.012118399 0.70462531
-0.026336161 -0.014181018 0.70536375
-0.026442688 -0.016272426 0.70635283
-0.026570685 -0.018395066 0.70754129
-0.026709357 -0.020545632 0.70882893
-0.026831098 -0.02270323 0.70995939
-0.026920378 -0.024849564 0.71078837
-0.026977545 -0.026977509 0.71131921
-0.027026977 -0.029105961 0.71177816
-0.027083579 -0.031250268 0.71230382
-0.027143141 -0.033406913 0.71285677
-0.027211953 -0.035584837 0.71349579
-0.027283173 -0.037776649 0.7141571
-0.02736179 -0.039990276 0.71488708
-0.027444795 -0.042222768 0.71565783
-0.027533082 -0.044476509 0.71647763
-0.02762769 -0.046754539 0.71735609
-0.027726023 -0.049053699 0.71826911
-0.027832557 -0.051383138 0.71925837
-0.027942074 -0.05373472 0.72027528
-0.028060446 -0.056120902 0.72137439
-0.028182996 -0.058533937 0.72251236
-0.028312536 -0.060980827 0.72371513
-0.028449617 -0.063464493 0.72498798
-0.028591301 -0.065979898 0.72630364
-0.02874456 -0.068544716 0.7277267
-0.028903579 -0.071147233 0.72920322
-0.029070864 -0.073795259 0.73075658
-0.029250089 -0.076500177 0.73242074
-0.029437931 -0.079255939 0.73416495
-0.029636165 -0.082069367 0.73600566
-0.02521006 0.0063025653 0.71441454
-0.024920847 0.0041534901 0.71150529
-0.024769109 0.0020641088 0.70997894
-0.024672013 2.9802322e-08 0.7090022
-0.023938794 -0.0019948781 0.70162654
-0.023921248 -0.0039868355 0.70144999
-0.023951972 -0.005987972 0.70175916
-0.024008865 -0.0080029666 0.70233142
-0.024084849 -0.010035306 0.70309579
-0.024181362 -0.012090653 0.70406663
-0.024301054 -0.014175594 0.70527065
-0.024426509 -0.016284317 0.7065326
-0.024533 -0.018399715 0.70760381
-0.024610529 -0.020508766 0.70838368
-0.024660563 -0.022605538 0.70888698
-0.024705412 -0.02470538 0.70933819
-0.024757262 -0.026820332 0.70985973
-0.024811484 -0.028946728 0.71040511
-0.024873979 -0.031092465 0.71103382
-0.024938757 -0.033251643 0.71168548
-0.025010018 -0.035430849 0.71240222
-0.025085248 -0.037627876 0.71315908
-0.025165154 -0.039844751 0.71396273
-0.025250876 -0.042084783 0.71482509
-0.02533986 -0.044344723 0.71572018
-0.025436258 -0.046633124 0.71668988
-0.025535019 -0.048942089 0.71768337
-0.02564211 -0.051284224 0.71876061
-0.025752638 -0.053651303 0.71987247
-0.025869807 -0.056051254 0.7210511
-0.025993224 -0.058484763 0.72229254
-0.02612146 -0.060950071 0.72358251
-0.026259232 -0.063459814 0.72496837
-0.026402066 -0.066005141 0.7264052
-0.026553387 -0.068596214 0.72792733
-0.026714178 -0.071237803 0.72954482
-0.02688246 -0.073926747 0.73123759
-0.027061535 -0.076674312 0.7330389
-0.027253769 -0.079490155 0.73497266
-0.027457917 -0.082373738 0.73702621
-0.022796426 0.010362029 0.71098197
-0.022583717 0.0082122684 0.70864785
-0.022459492 0.0061253309 0.70728457
-0.02237995 0.0040690899 0.70641172
-0.021717386 0.0019743443 0.69914091
-0.021713445 -0 0.69909763
-0.021747505 -0.0019770563 0.69947147
-0.021803072 -0.0039641857 0.70008123
-0.021874908 -0.0059658885 0.70086962
-0.021961845 -0.0079861283 0.70182359
-0.022072731 -0.010033041 0.70304036
-0.022185547 -0.012101203 0.70427841
-0.022278041 -0.014176905 0.70529336
-0.022344608 -0.01625061 0.70602381
-0.022388235 -0.01831761 0.70650262
-0.022428468 -0.020389527 0.70694417
-0.022475727 -0.022475719 0.70746273
-0.022524938 -0.024572641 0.70800281
-0.022581125 -0.026686788 0.70861936
-0.022639737 -0.028814167 0.70926249
-0.022703707 -0.030959547 0.70996451
-0.022771619 -0.033122331 0.71070975
-0.022843447 -0.035303473 0.71149796
-0.022920502 -0.037506253 0.71234357
-0.023000479 -0.039728075 0.71322125
-0.023087021 -0.041976392 0.71417093
-0.023175681 -0.044244468 0.7151438
-0.023271909 -0.046543807 0.71619987
-0.023370825 -0.048866272 0.71728534
-0.023476092 -0.051220566 0.71844041
-0.023586556 -0.053605795 0.71965265
-0.023701632 -0.056022018 0.72091544
-0.02382475 -0.058478892 0.72226655
-0.023952277 -0.060969442 0.72366601
-0.024088029 -0.063504755 0.72515565
-0.024231302 -0.066085368 0.72672784
-0.024381148 -0.068710476 0.72837222
-0.024541827 -0.071394384 0.7301355
-0.024712736 -0.074138194 0.73201102
-0.024893921 -0.076944798 0.73399931
-0.025084183 -0.079813272 0.7360872
-0.025239008 -0.082600355 0.73778617
-0.02047018 0.014329106 0.70791781
-0.02030001 0.01218006 0.70586371
-0.020202229 0.01010111 0.70468342
-0.019625219 0.0078501403 0.6977182
-0.019548392 0.0058645308 0.69679087
-0.019552289 0.0039104819 0.6968379
-0.019584507 0.0019584894 0.69722688
-0.019637927 -0 0.69787163
-0.01970529 -0.0019705296 0.69868481
-0.019785548 -0.0039570928 0.69965363
-0.0198847 -0.0059654117 0.70085049
-0.019985329 -0.0079941154 0.70206517
-0.020064671 -0.010032296 0.7030229
-0.020121556 -0.012072921 0.7037096
-0.02015909 -0.01411134 0.70416266
-0.020195054 -0.016156018 0.70459676
-0.020237692 -0.018213928 0.7051115
-0.020282071 -0.02028206 0.70564723
-0.020332098 -0.022365332 0.70625103
-0.020384697 -0.024461597 0.70688599
-0.020441744 -0.026574254 0.70757461
-0.020502388 -0.028703302 0.70830661
-0.020566517 -0.030849755 0.7090807
-0.020635221 -0.033016324 0.70991009
-0.020706613 -0.035201222 0.71077186
-0.020783678 -0.037410617 0.71170211
-0.020862449 -0.039638609 0.71265292
-0.02094822 -0.041896403 0.71368831
-0.021036204 -0.044176012 0.71475035
-0.021130014 -0.04648602 0.71588278
-0.021227907 -0.048824161 0.71706438
-0.021330528 -0.051193208 0.7183032
-0.021439658 -0.053599119 0.71962053
-0.021552417 -0.056036294 0.7209816
-0.021673406 -0.058518171 0.72244209
-0.021800034 -0.061040044 0.72397059
-0.021932285 -0.06360361 0.72556698
-0.022075398 -0.066226184 0.7272945
-0.022226017 -0.068900645 0.72911263
-0.022385513 -0.071633637 0.73103797
-0.022556463 -0.074436337 0.73310155
-0.022703025 -0.07719025 0.73487061
-0.022801932 -0.079806745 0.73606461
-0.022877309 -0.082358271 0.73697442
-0.022967724 -0.084980577 0.73806584
-0.018512454 0.020569384 0.70911545
-0.018200157 0.018200189 0.70492685
-0.0180756 0.016067237 0.70325619
-0.017995566 0.013996601 0.70218277
-0.017459109 0.011639416 0.69498765
-0.017424859 0.0096804798 0.69452828
-0.017433358 0.0077481568 0.69464231
-0.017463038 0.0058210194 0.69504035
-0.017512476 0.0038917065 0.69570339
-0.017574739 0.0019527674 0.69653851
-0.017648231 5.9604645e-08 0.69752419
-0.017735878 -0.001970619 0.69869977
-0.017823415 -0.0039607584 0.69987386
-0.017892035 -0.005964011 0.70079422
-0.017940005 -0.0079733133 0.70143759
-0.01797208 -0.0099844635 0.70186776
-0.018003911 -0.012002587 0.70229471
-0.018041998 -0.014032662 0.70280552
-0.018081479 -0.016072392 0.70333505
-0.018125655 -0.018125653 0.70392764
-0.01817232 -0.020191431 0.70455343
-0.018222766 -0.022272229 0.70523006
-0.01827646 -0.024368584 0.70595026
-0.018333009 -0.026481003 0.70670861
-0.018393736 -0.028612465 0.70752317
-0.018456763 -0.030761272 0.70836854
-0.018524716 -0.032932788 0.70927989
-0.018594244 -0.035122454 0.71021247
-0.01866987 -0.037339747 0.71122676
-0.018747205 -0.039577425 0.71226394
-0.018829985 -0.041844398 0.71337426
-0.018916043 -0.044137388 0.7145285
-0.019006498 -0.04646033 0.71574175
-0.019102279 -0.048816919 0.71702635
-0.019201159 -0.051203072 0.71835256
-0.019307772 -0.053632677 0.71978247
-0.019418672 -0.056098372 0.72126997
-0.019535258 -0.058605731 0.72283363
-0.019660376 -0.061165601 0.72451174
-0.01979189 -0.06377387 0.72627562
-0.019930907 -0.066436321 0.72814012
-0.020081468 -0.069169492 0.73015952
-0.020219784 -0.07189253 0.73201466
-0.020312814 -0.074480325 0.73326242
-0.020379553 -0.076989412 0.73415756
-0.020454068 -0.079543591 0.73515701
-0.020556588 -0.082226336 0.73653197
-0.020695366 -0.085080922 0.73839331
-0.016194018 0.024291039 0.70516974
-0.015997082 0.021996021 0.70219821
-0.015898094 0.019872636 0.70070463
-0.015833635 0.017812878 0.69973201
-0.01536339 0.015363395 0.69263655
-0.015341661 0.013424009 0.69230866
-0.01535343 0.011515081 0.69248629
-0.01538234 0.0096139312 0.69292253
-0.015425554 0.0077128112 0.69357455
-0.015482293 0.00580585 0.69443065
-0.015548687 0.0038871765 0.69543248
-0.015625345 0.0019531846 0.69658917
-0.015700482 -0 0.69772291
-0.015759081 -0.0019698739 0.69860709
-0.015798077 -0.0039494932 0.6991955
-0.015825871 -0.0059346855 0.69961488
-0.015854079 -0.0079270005 0.70004046
-0.015887303 -0.0099295378 0.70054173
-0.01592206 -0.011941552 0.70106626
-0.015960597 -0.013965517 0.7016477
-0.016001558 -0.016001523 0.70226574
-0.016045496 -0.018051147 0.70292878
-0.016092455 -0.020115525 0.7036373
-0.016141841 -0.022195011 0.70438242
-0.016194869 -0.02429229 0.70518261
-0.016249767 -0.026405841 0.70601094
-0.016309021 -0.02854076 0.70690501
-0.016369579 -0.030692935 0.70781881
-0.016435448 -0.032870859 0.70881259
-0.016502596 -0.035067976 0.70982587
-0.016574755 -0.037293196 0.71091467
-0.016649419 -0.039542347 0.71204126
-0.016728321 -0.041820794 0.7132318
-0.016811293 -0.04412964 0.71448374
-0.016897375 -0.046467751 0.71578264
-0.016989822 -0.048845708 0.71717745
-0.01708569 -0.051257044 0.71862411
-0.017187223 -0.053710043 0.72015607
-0.017295273 -0.056209624 0.72178644
-0.017408703 -0.058754355 0.72349793
-0.017529231 -0.061352313 0.72531658
-0.017659383 -0.064015239 0.72728038
-0.017783578 -0.066688418 0.72915435
-0.017873546 -0.069259971 0.7305119
-0.01793224 -0.071728915 0.73139745
-0.017992692 -0.074219823 0.7323097
-0.018076465 -0.076824933 0.73357368
-0.018190151 -0.079581887 0.7352891
-0.018352445 -0.08258602 0.73773789
-0.013975776 0.027951598 0.70182455
-0.013843753 0.025709867 0.69954783
-0.013765891 0.023598701 0.69820517
-0.013715168 0.021552414 0.69733047
-0.013309385 0.019013435 0.69033301
-0.01329766 0.017097026 0.69013089
-0.013311558 0.015213221 0.6903705
-0.013338985 0.013338983 0.69084346
-0.013376071 0.011465222 0.69148296
-0.01342699 0.0095907152 0.69236106
-0.013485926 0.0077062547 0.69337738
-0.013552091 0.0058080852 0.69451833
-0.013615361 0.0038901269 0.69560939
-0.01366375 0.0019519627 0.69644386
-0.013695754 -0 0.69699568
-0.013719465 -0.0019599199 0.69740462
-0.013744068 -0.0039268434 0.69782895
-0.01377255 -0.005902499 0.69832003
-0.013802673 -0.0078872144 0.69883949
-0.013835768 -0.0098826587 0.6994102
-0.01387111 -0.011889517 0.7000196
-0.013908898 -0.013908893 0.70067132
-0.013949336 -0.015942067 0.70136857
-0.013991687 -0.017989278 0.70209891
-0.014037276 -0.020053238 0.70288503
-0.01408441 -0.022132605 0.70369786
-0.014135226 -0.024231762 0.70457411
-0.014187214 -0.026347697 0.70547068
-0.014243639 -0.028487265 0.70644367
-0.014301101 -0.030645192 0.70743454
-0.01436303 -0.032829762 0.70850253
-0.014426866 -0.035036623 0.70960325
-0.014494509 -0.037271529 0.71076977
-0.014565393 -0.039534628 0.71199208
-0.014639178 -0.041826189 0.71326447
-0.014717978 -0.044153929 0.71462339
-0.014799635 -0.04651311 0.71603143
-0.014886692 -0.048913419 0.71753269
-0.014978558 -0.051355064 0.71911693
-0.015074873 -0.053838819 0.72077781
-0.015178222 -0.056376219 0.72255999
-0.015288533 -0.058970034 0.72446227
-0.015397211 -0.061588794 0.7263363
-0.015479755 -0.064130366 0.72775972
-0.015533923 -0.066573918 0.72869384
-0.015583063 -0.069010675 0.72954118
-0.015651233 -0.071548462 0.73071676
-0.015741695 -0.074210852 0.73227674
-0.015869291 -0.077079415 0.7344771
-0.011837439 0.03156653 0.69897181
-0.011737199 0.029343009 0.69695508
-0.011677709 0.027247995 0.69575828
-0.011638866 0.025217563 0.69497681
-0.011295756 0.022591531 0.68807393
-0.011291763 0.020701617 0.68799359
-0.011306646 0.018844426 0.68829304
-0.011331912 0.016997904 0.68880135
-0.011364728 0.015152961 0.68946159
-0.011407739 0.013309062 0.69032693
-0.01145899 0.011458993 0.69135797
-0.011514939 0.0095958114 0.6924836
-0.011567116 0.0077114403 0.69353324
-0.011606153 0.0058031082 0.69431865
-0.01163174 0.0038772821 0.69483346
-0.011651649 0.0019419193 0.69523406
-0.01167267 2.9802322e-08 0.69565684
-0.011696637 -0.0019494295 0.69613898
-0.011722212 -0.0039073527 0.6966536
-0.011750061 -0.0058750212 0.69721389
-0.011779984 -0.0078532994 0.69781584
-0.011811731 -0.0098430812 0.69845456
-0.011845847 -0.011845827 0.69914097
-0.011881524 -0.013861746 0.69985867
-0.011919877 -0.015893191 0.70063031
-0.011959527 -0.01793924 0.701428
-0.012002272 -0.020003796 0.70228791
-0.012046 -0.022084296 0.70316768
-0.01209336 -0.02418673 0.70412052
-0.012141534 -0.026306659 0.70508981
-0.012193611 -0.028451741 0.70613742
-0.012246984 -0.030617446 0.7072112
-0.012303904 -0.03281039 0.70835638
-0.012363135 -0.035028845 0.70954794
-0.01242515 -0.037275434 0.71079564
-0.012491013 -0.039554834 0.71212065
-0.012559099 -0.04186365 0.71349049
-0.012632238 -0.044212818 0.71496195
-0.01270876 -0.046598762 0.71650141
-0.012788886 -0.049024045 0.71811342
-0.012875657 -0.051502615 0.71985912
-0.012967309 -0.054030418 0.72170305
-0.013060446 -0.056595266 0.72357678
-0.013133694 -0.059101611 0.72505045
-0.013183121 -0.061521202 0.72604477
-0.013224293 -0.063917398 0.72687316
-0.013278279 -0.066391349 0.72795922
-0.013350317 -0.068976611 0.72940856
-0.01344665 -0.071715444 0.73134655
-0.013611069 -0.074860841 0.73465443
-0.009934335 0.037750483 0.70065701
-0.0097493995 0.035097867 0.6961922
-0.0096779307 0.032904983 0.69446683
-0.0096339546 0.030828655 0.69340515
-0.0093617029 0.028085113 0.68683243
-0.0093229087 0.026104182 0.68589586
-0.0093230484 0.024239928 0.68589926
-0.0093376627 0.022410452 0.68625206
-0.0093601262 0.020592302 0.68679434
-0.0093884738 0.018776953 0.68747872
-0.009423661 0.016962618 0.68832815
-0.0094669871 0.015147209 0.68937421
-0.0095129572 0.013318151 0.69048399
-0.009554117 0.011464953 0.69147772
-0.0095853051 0.0095852911 0.69223064
-0.0096051414 0.0076841414 0.69270951
-0.0096214311 0.0057728589 0.69310278
-0.0096388916 0.0038555562 0.6935243
-0.0096585015 0.0019317269 0.69399774
-0.0096796155 -0 0.69450748
-0.0097024022 -0.0019404292 0.69505757
-0.0097269975 -0.0038907826 0.69565141
-0.0097530102 -0.0058518052 0.69627941
-0.0097809983 -0.0078247786 0.69695508
-0.0098101469 -0.0098101199 0.69765878
-0.0098415604 -0.011809886 0.69841719
-0.0098740328 -0.013823628 0.69920111
-0.0099089174 -0.015854239 0.70004332
-0.009944682 -0.017900378 0.70090675
-0.0099833338 -0.019966662 0.70183992
-0.010022609 -0.022049725 0.70278805
-0.01006519 -0.024156421 0.70381606
-0.010108666 -0.026282519 0.70486569
-0.010155155 -0.028434396 0.70598799
-0.010203323 -0.030609936 0.70715094
-0.010254051 -0.032812953 0.70837557
-0.010307494 -0.035045445 0.70966578
-0.010362827 -0.03730613 0.71100163
-0.01042249 -0.039605439 0.71244204
-0.010484514 -0.041938007 0.71393943
-0.010549859 -0.044309378 0.71551704
-0.010620126 -0.046728551 0.71721345
-0.010694169 -0.049193144 0.71900094
-0.010771754 -0.051704407 0.72087407
-0.010834779 -0.054173857 0.7223956
-0.010878121 -0.056566268 0.72344202
-0.01091195 -0.058924496 0.72425866
-0.010953323 -0.061338603 0.72525752
-0.011008945 -0.063851863 0.72660035
-0.011083322 -0.066499889 0.72839594
-0.011195612 -0.069412768 0.73110688
-0.007812215 0.041014165 0.69657534
-0.0077122124 0.038561046 0.6935575
-0.007663752 0.036402851 0.69209504
-0.0076317238 0.034342766 0.69112855
-0.0074058087 0.03147471 0.68431091
-0.0073900856 0.029560357 0.68383646
-0.0073922146 0.027720809 0.68390071
-0.0074037267 0.02591309 0.68424809
-0.0074227829 0.024124056 0.68482322
-0.007446174 0.02233851 0.68552911
-0.0074738404 0.020553052 0.68636405
-0.007508947 0.018772393 0.68742341
-0.0075452379 0.016976804 0.68851864
-0.0075763422 0.015152693 0.6894573
-0.0075999619 0.013299942 0.69016999
-0.007615027 0.011422545 0.69062471
-0.0076278257 0.0095348358 0.69101089
-0.0076417183 0.0076417327 0.69143009
-0.0076571256 0.0057428479 0.69189513
-0.0076738601 0.0038369298 0.6924001
-0.0076917913 0.0019229949 0.69294125
-0.0077112019 -0 0.69352698
-0.007731637 -0.0019328892 0.69414371
-0.0077536525 -0.0038768053 0.69480801
-0.0077765794 -0.0058324039 0.6954999
-0.0078012529 -0.0078012347 0.69624454
-0.0078267567 -0.009783417 0.69701415
-0.0078541543 -0.011781245 0.69784093
-0.0078822402 -0.013793886 0.69868857
-0.0079125296 -0.015825033 0.6996026
-0.0079433359 -0.017872512 0.70053226
-0.0079766717 -0.019941658 0.70153826
-0.0080106426 -0.022029251 0.70256341
-0.0080471663 -0.02414149 0.70366561
-0.0080847768 -0.026275516 0.70480061
-0.0081245527 -0.028435916 0.70600098
-0.0081662554 -0.030623466 0.70725948
-0.0082096672 -0.032838643 0.70856953
-0.0082561318 -0.035088539 0.70997173
-0.008304365 -0.037369639 0.71142727
-0.0083556054 -0.039689094 0.71297359
-0.0084102033 -0.042050987 0.71462125
-0.0084676323 -0.044455051 0.71635431
-0.0085287569 -0.04690817 0.71819896
-0.0085815629 -0.049343973 0.71979249
-0.0086179227 -0.051707536 0.72088975
-0.0086445743 -0.054028541 0.72169399
-0.0086749233 -0.056386977 0.72260988
-0.0087160645 -0.05883342 0.72385144
-0.0087710293 -0.061397195 0.72551018
-0.0088491729 -0.064156473 0.72786832
-0.0094282357 -0.070711732 0.74534309
-0.0058401725 0.044774681 0.69581127
-0.0057486501 0.042156756 0.69212872
-0.0056900755 0.039830536 0.68977189
-0.0056683091 0.037788749 0.68889606
-0.0055006836 0.034837693 0.68215132
-0.0054923105 0.032953888 0.68181443
-0.0054953871 0.031140536 0.68193823
-0.0055041933 0.029355735 0.68229252
-0.0055189254 0.027594686 0.68288529
-0.0055370033 0.025839359 0.6836127
-0.0055579767 0.024084568 0.68445659
-0.0055840486 0.022336185 0.68550569
-0.0056108283 0.02057305 0.68658322
-0.0056328727 0.018776268 0.68747014
-0.005649664 0.016948998 0.68814588
-0.0056603584 0.01509431 0.6885761
-0.0056697871 0.013229519 0.68895549
-0.0056801713 0.011360347 0.68937331
-0.0056915423 0.0094859302 0.6898309
-0.0057039564 0.0076052547 0.69033039
-0.0057171658 0.0057171881 0.69086182
-0.0057315296 0.0038210452 0.69143981
-0.0057465816 0.0019155145 0.69204551
-0.005762863 -0 0.69270062
-0.0057797274 -0.0019265413 0.69337916
-0.0057979436 -0.0038652718 0.69411218
-0.0058167037 -0.0058166981 0.69486701
-0.0058368566 -0.0077824593 0.69567788
-0.0058575375 -0.0097625554 0.69650996
-0.0058797938 -0.011759579 0.69740558
-0.005902498 -0.013772488 0.69831908
-0.0059269457 -0.015805185 0.69930279
-0.0059518567 -0.017855525 0.7003051
-0.0059787161 -0.019929022 0.70138586
-0.0060062506 -0.022022933 0.70249379
-0.0060355202 -0.024142057 0.70367151
-0.0060660075 -0.026286006 0.70489818
-0.0060979449 -0.028457046 0.70618325
-0.0061318967 -0.030659467 0.70754939
-0.0061670658 -0.032891005 0.70896447
-0.0062047685 -0.035160333 0.71048146
-0.0062445188 -0.037467092 0.71208096
-0.0062862821 -0.039813101 0.71376133
-0.006331197 -0.042207986 0.7155686
-0.0063725086 -0.04460755 0.71723092
-0.0064012054 -0.046942115 0.71838546
-0.0064209197 -0.049227029 0.7191788
-0.0064416961 -0.05153355 0.72001475
-0.0064701005 -0.053917527 0.72115767
-0.0065080547 -0.0564031 0.7226848
-0.0065614507 -0.059053034 0.72483325
-0.0069465972 -0.064834893 0.74033046
-0.0038361063 0.047951341 0.69235039
-0.0037914147 0.045497 0.68965304
-0.0037686834 0.043339878 0.68828106
-0.0037536004 0.041289657 0.68737072
-0.0037428045 0.039299488 0.68671918
-0.003733393 0.037333935 0.68615115
-0.0036669343 0.034835905 0.68213993
-0.0036380857 0.032742798 0.68039882
-0.00364774 0.0310058 0.68098146
-0.0036601345 0.02928111 0.68172956
-0.0036743663 0.02755776 0.68258852
-0.0036914581 0.025840223 0.6836201
-0.0037088606 0.024107605 0.68467045
-0.003722907 0.022337466 0.68551821
-0.0037334769 0.020534158 0.68615615
-0.0037402303 0.018701166 0.68656379
-0.0037464194 0.016858906 0.68693733
-0.0037533189 0.015013278 0.68735373
-0.0037607523 0.013162643 0.68780237
-0.0037689675 0.011306912 0.68829823
-0.0037776036 0.0094440281 0.68881947
-0.0037870675 0.007574141 0.68939066
-0.0037969241 0.0056954026 0.68998557
-0.003807615 0.0038076341 0.69063079
-0.0038186575 0.0019093454 0.69129723
-0.0038305852 2.9802322e-08 0.6920172
-0.0038428677 -0.0019214153 0.69275856
-0.0038560615 -0.0038560033 0.69355482
-0.0038696006 -0.0058043897 0.69437194
-0.0038841392 -0.0077682734 0.69524938
-0.003898985 -0.0097474456 0.69614542
-0.0039149555 -0.011744857 0.6971094
-0.0039311959 -0.013759166 0.6980896
-0.003948756 -0.015794992 0.69914937
-0.0039666779 -0.017850041 0.70023108
-0.0039858259 -0.019929111 0.70138675
-0.0040056417 -0.022031039 0.70258272
-0.0040265298 -0.024159163 0.70384347
-0.0040485538 -0.0263156 0.70517272
-0.0040713665 -0.028499544 0.70654953
-0.004096013 -0.030720085 0.7080372
-0.0041217576 -0.032974064 0.70959091
-0.0041487738 -0.035264552 0.71122158
-0.0041780993 -0.037602842 0.71299148
-0.0042060032 -0.039957017 0.71467566
-0.0042262883 -0.042262882 0.7159
-0.0042397357 -0.044517189 0.71671158
-0.0042525455 -0.046777964 0.71748471
-0.0042704204 -0.049109817 0.71856356
-0.0042938008 -0.051525593 0.7199747
-0.004325164 -0.054064542 0.72186768
-0.0043801018 -0.056941301 0.72518343
-0.0018933903 0.051121563 0.68937337
-0.0018759979 0.048775941 0.68727392
-0.0018657569 0.046643943 0.68603766
-0.0018589431 0.044614613 0.68521518
-0.0018539769 0.042641491 0.68461567
-0.0018508015 0.040717661 0.68423247
-0.0018485794 0.038820177 0.68396419
-0.0018471258 0.036942542 0.68378872
-0.0018459196 0.035072535 0.6836431
-0.0018147216 0.032665014 0.67987722
-0.0018219639 0.030973434 0.68075138
-0.0018303685 0.029285908 0.68176597
-0.00183879 0.027581841 0.68278253
-0.001845552 0.025837749 0.6835987
-0.0018505484 0.02405715 0.68420184
-0.0018537433 0.0222449 0.68458754
-0.0018567769 0.020424575 0.68495369
-0.0018602146 0.018602192 0.68536866
-0.0018638665 0.016774833 0.68580949
-0.001867937 0.01494354 0.68630081
-0.0018721794 0.013105303 0.68681288
-0.0018768565 0.011261135 0.68737757
-0.0018816914 0.009408474 0.68796116
-0.0018869569 0.0075478852 0.68859673
-0.0018923878 0.0056771934 0.68925232
-0.0018982461 0.0037965178 0.68995941
-0.0019042784 0.0019043088 0.69068766
-0.0019107504 -0 0.69146895
-0.001917399 -0.001917392 0.69227141
-0.0019245232 -0.0038489997 0.69313139
-0.0019318197 -0.005795449 0.69401217
-0.0019396305 -0.0077584982 0.69495499
-0.001947603 -0.0097379982 0.69591743
-0.0019561844 -0.011737108 0.6969533
-0.0019649342 -0.013754517 0.69800943
-0.0019743312 -0.015794605 0.69914377
-0.0019839916 -0.017855912 0.70030993
-0.0019942396 -0.019942403 0.70154697
-0.0020049715 -0.022054672 0.70284241
-0.0020161527 -0.024193823 0.70419204
-0.0020281496 -0.026365936 0.7056402
-0.0020406563 -0.028569192 0.70714992
-0.0020538997 -0.030808479 0.70874858
-0.002068128 -0.033090025 0.71046603
-0.0020821127 -0.03539592 0.71215415
-0.0020927193 -0.037668943 0.71343446
-0.0020998684 -0.039897472 0.71429741
-0.0021061085 -0.042122155 0.71505076
-0.0021143674 -0.044401705 0.71604764
-0.002125243 -0.046755344 0.7173605
-0.0021396112 -0.049211025 0.71909481
-0.0021622174 -0.051893234 0.72182363
0 0.054285109 0.68677908
0 0.051987439 0.68494368
0 0.049883664 0.6838389
0 0.047876835 0.68309939
0 0.045922011 0.68255186
0 0.044014841 0.68219841
0 0.042135954 0.68196255
0 0.040276259 0.68181038
0 0.038435787 0.68175459
0 0.036609232 0.68177724
0 0.03478834 0.68183786
0 0.032946646 0.68176591
0 0.030998021 0.68092608
0 0.029278725 0.68171179
0 0.027519047 0.68227708
0 0.025727123 0.68264472
0 0.023928195 0.68300462
0 0.022128671 0.68341815
0 0.020324081 0.6838513
0 0.018516809 0.68433833
0 0.016702622 0.68484151
0 0.014883727 0.6853987
0 0.013056546 0.68597305
0 0.011222512 0.68659925
0 0.0093787014 0.68724245
0 0.0075260103 0.68793809
0 0.0056622922 0.68865347
0 0.0037875772 0.68942088
0 0.0019003451 0.69020927
0 -0 0.6910522
0 -0.0019144416 0.69191724
0 -0.0038442016 0.69283956
0 -0.0057897866 0.69378459
0 -0.0077532828 0.69479811
0 -0.0097343624 0.69582957
0 -0.011736572 0.6969431
0 -0.01375863 0.6980803
0 -0.015804589 0.69929433
0 -0.017874241 0.70055604
0 -0.01997 0.70188034
0 -0.022095412 0.70328927
0 -0.024249911 0.70475632
0 -0.026439548 0.70632386
0 -0.028666675 0.70799065
0 -0.030924112 0.70967913
0 -0.03316173 0.71100682
0 -0.035363823 0.71192634
0 -0.037553638 0.71266139
0 -0.03978458 0.71358037
0 -0.042080164 0.71479732
0 -0.044463694 0.71640396
0 -0.046995282 0.71867692
0 -0.052424848 0.73596179
0.0018845903 0.060306907 0.6883111
0.0018512193 0.057387859 0.68428284
0.0018380471 0.055141419 0.68269283
0.001829766 0.053063273 0.6816932
0.0018242156 0.051078051 0.68102324
0.0018201347 0.049143672 0.68053061
0.0018174307 0.047253221 0.68020415
0.0018157029 0.045392573 0.67999566
0.0018146361 0.043551296 0.67986685
0.0018141953 0.0417265 0.67981368
0.0018145044 0.039919138 0.67985094
0.0018151033 0.0381172 0.67992324
0.0018163157 0.036326319 0.68006963
0.0018178666 0.034539491 0.68025678
0.0018197906 0.032756269 0.68048906
0.0018188579 0.030920595 0.68037647
0.0018218379 0.029149413 0.68073624
0.0018247679 0.027371526 0.68108988
0.0018281749 0.025594473 0.68150115
0.001831702 0.023812115 0.68192685
0.0018357002 0.022028416 0.68240952
0.0018397975 0.020237803 0.68290412
0.0018443614 0.018443644 0.68345505
0.0018490303 0.016641319 0.68401861
0.0018541417 0.014833152 0.68463558
0.0018593852 0.013015717 0.68526852
0.0018650475 0.011190295 0.68595207
0.0018708775 0.0093544126 0.68665576
0.00187711 0.0075084865 0.68740815
0.001883526 0.0056506097 0.68818259
0.0018903717 0.0037807524 0.68900895
0.001897411 0.0018974245 0.68985862
0.0019049019 2.9802322e-08 0.69076294
0.0019125837 -0.001912564 0.69169021
0.0019207922 -0.003841579 0.69268107
0.0019291905 -0.0057875514 0.69369483
0.0019381953 -0.0077527761 0.69478178
0.0019473833 -0.0097368956 0.69589084
0.0019572556 -0.011743516 0.69708258
0.0019674452 -0.0137721 0.69831252
0.0019782106 -0.015825659 0.69961202
0.001989569 -0.0179061 0.70098317
0.0020013787 -0.02001375 0.70240867
0.0020141157 -0.022155255 0.70394623
0.002027517 -0.024330199 0.70556384
0.0020414889 -0.026539326 0.70725042
0.0020528717 -0.028740168 0.70862448
0.0020608874 -0.030913264 0.70959198
0.0020668977 -0.033070326 0.71031749
0.0020738798 -0.035255939 0.71116036
0.0020831963 -0.03749752 0.71228492
0.0020954888 -0.039814234 0.71376872
0.002112698 -0.042253911 0.71584618
0.0022385314 -0.04700914 0.73103553
0.0037090941 0.063054651 0.68468451
0.0036632563 0.060443759 0.68191797
0.0036404284 0.058246881 0.6805402
0.0036254984 0.056195259 0.6796391
0.0036148774 0.05422321 0.67899805
0.0036076705 0.052311212 0.67856312
0.0036024889 0.050434887 0.67825031
0.0035994051 0.048591971 0.67806423
0.0035976451 0.046769381 0.67795801
0.0035968174 0.044960231 0.677908
0.0035976451 0.043171734 0.67795795
0.0035990425 0.041388988 0.67804229
0.0036014125 0.039615542 0.6781854
0.0036046298 0.037848622 0.67837954
0.0036084121 0.036084145 0.67860782
0.0036129849 0.034323364 0.67888385
0.0036183933 0.032565564 0.67921031
0.0036241724 0.030805469 0.67955905
0.0036251307 0.029001057 0.67961687
0.0036320779 0.027240604 0.68003619
0.0036399914 0.025479943 0.68051386
0.0036480457 0.023712337 0.68099993
0.0036570581 0.021942377 0.68154389
0.0036662489 0.0201644 0.68209863
0.0036763237 0.018381655 0.68270665
0.0036866167 0.016589791 0.68332791
0.0036977737 0.014791101 0.68400127
0.003709218 0.012982309 0.68469203
0.003721467 0.011164427 0.6854313
0.0037340757 0.0093352199 0.68619227
0.0037474856 0.0074949861 0.68700165
0.003761332 0.0056420267 0.68783736
0.0037759929 0.0037760139 0.68872225
0.0037910987 0.0018955469 0.68963397
0.0038071515 2.9802322e-08 0.69060278
0.0038236328 -0.001911819 0.69159758
0.0038412306 -0.0038411915 0.69265968
0.0038591842 -0.0057887435 0.69374323
0.0038785541 -0.0077570677 0.69491237
0.0038984078 -0.0097460151 0.69611067
0.00391954 -0.011758596 0.69738609
0.0039416635 -0.013795823 0.69872135
0.0039647445 -0.015858918 0.70011437
0.0039895922 -0.017953157 0.70161414
0.0040156068 -0.020078033 0.70318425
0.0040431069 -0.022237092 0.704844
0.0040669651 -0.024401784 0.70628393
0.0040837941 -0.026544631 0.70729971
0.004095661 -0.028669596 0.70801592
0.0041084234 -0.030813128 0.70878619
0.0041255811 -0.033004612 0.7098217
0.0041482234 -0.035259902 0.71118838
0.0041795303 -0.037615746 0.71307784
0.0042408314 -0.040287882 0.71677774
0.0054930542 0.065916687 0.68184435
0.0054388386 0.063453168 0.67966282
0.00540862 0.061297745 0.67844701
0.0053881961 0.059270173 0.67762518
0.0053735366 0.057317734 0.67703533
0.005363476 0.055422574 0.6766305
0.0053562415 0.053562433 0.67633939
0.0053520212 0.051736206 0.67616963
0.0053498275 0.049931735 0.6760813
0.0053489693 0.048140734 0.67604685
0.0053502279 0.046368718 0.67609739
0.0053525935 0.044604957 0.67619264
0.0053561078 0.042848885 0.67633402
0.005361062 0.041101485 0.6765334
0.0053666588 0.039355546 0.67675859
0.0053735557 0.037614912 0.67703605
0.0053816279 0.035877526 0.67736089
0.0053901505 0.034137636 0.6777038
0.0054000593 0.03240037 0.67810249
0.0054103164 0.030658484 0.6785152
0.0054213172 0.028913707 0.67895788
0.00542555 0.027127773 0.67912817
0.0054389178 0.025381625 0.67966604
0.0054524508 0.023627281 0.68021059
0.005467345 0.021869391 0.68080986
0.0054825414 0.02010268 0.68142128
0.0054989909 0.018329978 0.68208319
0.0055158637 0.01654762 0.68276209
0.0055339001 0.014757067 0.68348789
0.005552487 0.012955844 0.68423575
0.0055722333 0.011144519 0.68503022
0.0055926205 0.009321034 0.68585056
0.0056141648 0.0074855685 0.68671745
0.0056364257 0.0056364536 0.68761319
0.0056599742 0.0037733316 0.68856072
0.0056842789 0.0018948019 0.68953866
0.0057100751 -0 0.69057661
0.0057365233 -0.0019121468 0.69164073
0.0057648551 -0.0038432479 0.69278085
0.0057938937 -0.0057938695 0.69394922
0.0058250106 -0.007766664 0.69520122
0.0058573089 -0.0097621679 0.69650084
0.0058913096 -0.011782587 0.69786882
0.0059275315 -0.01383087 0.69932628
0.0059654103 -0.015907735 0.70085049
0.006005866 -0.01801756 0.70247829
0.0060429554 -0.020143181 0.70397067
0.0060692211 -0.022253782 0.70502746
0.0060873358 -0.024349332 0.70575643
0.0061049387 -0.026454717 0.70646465
0.0061296439 -0.028605014 0.70745873
0.0061614714 -0.030807316 0.7087394
0.0062031788 -0.033083588 0.71041751
0.0062712338 -0.035536945 0.71315587
0.0072408188 0.068787813 0.67933196
0.0071797254 0.066412479 0.67748827
0.0071436181 0.06429261 0.67639863
0.0071187685 0.062289238 0.67564869
0.0071008615 0.060357362 0.67510831
0.0070883879 0.05847922 0.67473197
0.0070797619 0.056638092 0.67447162
0.0070743822 0.054826468 0.67430925
0.0070720073 0.053040057 0.67423761
0.0070713828 0.051267534 0.67421877
0.0070730573 0.049511403 0.67426932
0.0070765335 0.047766626 0.67437416
0.0070811398 0.046027452 0.67451316
0.0070879608 0.044299781 0.67471904
0.0070952983 0.042571813 0.67494047
0.0071046175 0.040851623 0.67522168
0.0071152761 0.039134055 0.67554331
0.0071265507 0.037414372 0.67588359
0.007139592 0.035697937 0.67627716
0.0071530649 0.033977091 0.67668372
0.0071683596 0.032257646 0.67714524
0.0071840035 0.030532062 0.67761743
0.0072013997 0.028805614 0.67814237
0.0072084544 0.02703169 0.67835528
0.0072280313 0.025298148 0.67894602
0.0072479243 0.023555785 0.67954642
0.0072695115 0.021808535 0.68019783
0.0072916257 0.020052016 0.68086517
0.0073152655 0.018288195 0.68157858
0.0073396238 0.016514182 0.68231362
0.0073654186 0.014730871 0.68309212
0.0073921597 0.012936324 0.68389904
0.0074202786 0.011130422 0.68474764
0.0074494444 0.0093117952 0.68562776
0.0074801808 0.0074802041 0.68655533
0.0075119906 0.00563398 0.68751526
0.0075456076 0.003772825 0.68852973
0.0075802449 0.0018950701 0.68957502
0.0076171425 2.9802322e-08 0.69068849
0.0076548993 -0.0019136965 0.69182789
0.007695606 -0.003847748 0.69305634
0.0077375257 -0.0058031082 0.69432133
0.0077820215 -0.007782042 0.69566417
0.0078289919 -0.0097861886 0.69708163
0.0078780213 -0.011817038 0.69856125
0.0079309037 -0.013879091 0.70015705
0.0079812845 -0.015962571 0.7016775
0.0080181519 -0.018040806 0.70279002
0.0080430275 -0.020107538 0.70354068
0.0080659762 -0.022181422 0.70423329
0.0080964519 -0.02428934 0.70515293
0.0081359809 -0.026441932 0.7063458
0.0081876023 -0.028656602 0.70790362
0.0082617206 -0.030981451 0.71014041
0.0088347197 -0.035338879 0.72743219
0.0089524016 0.071619213 0.67695099
0.0088877752 0.069324672 0.67539078
0.0088464171 0.067232788 0.67439234
0.0088180732 0.065253764 0.67370808
0.0087976698 0.063343227 0.67321545
0.0087834606 0.061484277 0.67287242
0.0087736351 0.059660763 0.67263514
0.008767209 0.057863593 0.67248005
0.0087649971 0.056096017 0.67242664
0.0087647829 0.054341674 0.67242146
0.0087668709 0.052601278 0.67247188
0.0087716356 0.050875485 0.67258692
0.0087772673 0.049152732 0.67272294
0.0087860525 0.047444701 0.67293501
0.0087953499 0.045735836 0.67315942
0.0088068675 0.044034362 0.67343748
0.0088200327 0.042336196 0.67375529
0.0088340472 0.040636659 0.67409366
0.0088501722 0.038940758 0.674483
0.0088668596 0.037240803 0.67488581
0.0088856919 0.035542786 0.67534047
0.0089049535 0.033838868 0.67580557
0.0089264009 0.032135069 0.67632329
0.0089482712 0.030424118 0.67685121
0.0089722434 0.02871123 0.67742997
0.0089967642 0.026990324 0.67802203
0.0090101138 0.025228322 0.67834431
0.0090372916 0.023496956 0.67900044
0.0090663079 0.021759182 0.67970097
0.0090962397 0.020011753 0.68042356
0.0091279009 0.0182558 0.68118793
0.0091607226 0.016489327 0.68198031
0.0091952002 0.014712334 0.68281269
0.0092309946 0.01292339 0.68367678
0.0092685791 0.011122316 0.6845842
0.0093076825 0.0093076825 0.68552828
0.009348725 0.0074789822 0.68651909
0.0093912575 0.0056347549 0.6875459
0.0094362786 0.0037745237 0.68863285
0.0094826324 0.0018965602 0.68975186
0.0095322756 -0 0.69095039
0.009583286 -0.0019166768 0.69218194
0.0096378885 -0.003855139 0.69350016
0.0096949954 -0.0058169663 0.69487882
0.0097547602 -0.0078037977 0.69632167
0.0098193493 -0.009819299 0.69788098
0.009882614 -0.011859119 0.69940829
0.0099306684 -0.013902932 0.70056844
0.0099638114 -0.015942067 0.70136857
0.0099917464 -0.017985135 0.70204306
0.010026867 -0.020053685 0.70289087
0.010072728 -0.022160023 0.70399809
0.010132452 -0.024317861 0.70543993
0.010215781 -0.026561022 0.70745164
0.010833887 -0.03033486 0.72237408
0.010774381 0.077216417 0.67758477
0.010632958 0.074430734 0.67473948
0.010563073 0.072180986 0.67333353
0.01051785 0.070119023 0.67242372
0.010487025 0.06816563 0.67180353
0.010464762 0.066276819 0.67135566
0.010449391 0.064437926 0.67104644
0.01043871 0.062632263 0.67083156
0.010431818 0.060852259 0.67069286
0.010429534 0.059100688 0.67064697
0.010429897 0.057364464 0.67065424
0.010432397 0.055639476 0.67070454
0.010438564 0.053932607 0.67082864
0.01044561 0.052228063 0.67097032
0.010456051 0.050537556 0.67118043
0.010467316 0.048847526 0.67140704
0.01048102 0.047164619 0.67168272
0.010496668 0.045485556 0.67199755
0.010513392 0.043805838 0.67233407
0.010532462 0.042129844 0.67271769
0.010552305 0.040450543 0.67311686
0.010574569 0.038773417 0.67356479
0.010597452 0.037091136 0.67402512
0.010622762 0.035409242 0.67453432
0.010648648 0.033720732 0.67505515
0.010676938 0.032030821 0.67562431
0.010705874 0.03033331 0.67620647
0.010737118 0.028632313 0.67683506
0.010769241 0.02692312 0.67748129
0.010787855 0.025171697 0.67785573
0.010823168 0.023450196 0.67856622
0.010860403 0.021720856 0.67931533
0.010899161 0.019981802 0.68009508
0.010939671 0.018232793 0.68091011
0.010981929 0.016472936 0.68176025
0.011026054 0.014701426 0.682648
0.011072128 0.012917489 0.68357491
0.011120317 0.011120319 0.68454444
0.011170465 0.0093087554 0.68555331
0.011223208 0.0074821711 0.68661445
0.011277849 0.005638957 0.68771374
0.011335935 0.0037786663 0.68888229
0.011395529 0.0018992722 0.69008124
0.011459865 2.9802322e-08 0.69137555
0.011526567 -0.0019210875 0.69271755
0.011596917 -0.0038656294 0.69413286
0.011672215 -0.0058360994 0.69564772
0.011748313 -0.0078321993 0.69717872
0.011808014 -0.0098399818 0.69837981
0.011850523 -0.011850506 0.69923502
0.011883123 -0.013863593 0.69989091
0.011921866 -0.015895814 0.70067036
0.011972739 -0.017959088 0.70169377
0.012038947 -0.02006489 0.70302582
0.012130152 -0.022238582 0.70486075
0.012810113 -0.025620222 0.71854043
0.012410876 0.079784244 0.67483878
0.012280419 0.077191234 0.67258912
0.012208634 0.074995905 0.67135125
0.012161537 0.072969228 0.67053908
0.01212747 0.071032375 0.66995162
0.012102955 0.069159776 0.66952884
0.012086875 0.067341149 0.66925162
0.012075874 0.065554738 0.6690619
0.012068758 0.06379202 0.66893923
0.012066306 0.06205532 0.66889685
0.01206747 0.060337365 0.668917
0.012070422 0.058627784 0.66896784
0.012078038 0.056939363 0.66909921
0.012086667 0.055253357 0.66924804
0.012098608 0.053579569 0.66945386
0.012111953 0.051908374 0.66968411
0.012127723 0.050243407 0.66995597
0.012145849 0.048583418 0.67026854
0.012165212 0.046922952 0.6706025
0.012187223 0.045266896 0.67098206
0.012210124 0.043607622 0.67137694
0.012235759 0.041951209 0.67181897
0.012262104 0.040289789 0.67227334
0.012291192 0.038629472 0.67277491
0.012320984 0.036962926 0.67328864
0.012353445 0.035295546 0.67384845
0.012386693 0.033621013 0.67442179
0.012422541 0.031943709 0.67503995
0.012459351 0.030258447 0.67567468
0.012498611 0.028568268 0.67635167
0.012539195 0.026869714 0.67705154
0.012581942 0.025163889 0.67778873
0.012608165 0.023415208 0.6782409
0.012654494 0.021693408 0.67903984
0.012702959 0.019961804 0.67987561
0.012753329 0.018219084 0.68074417
0.012806208 0.016465157 0.681656
0.012861133 0.014698446 0.68260312
0.012918626 0.012918651 0.68359464
0.012978703 0.011124611 0.68463069
0.013041332 0.0093152225 0.68571067
0.013107463 0.0074900091 0.68685102
0.013175655 0.0056467056 0.68802696
0.013248868 0.0037854016 0.68928945
0.013324574 0.0019035339 0.69059491
0.013405149 -0 0.69198442
0.013490498 -0.001927197 0.69345617
0.013578782 -0.0038796365 0.69497859
0.013651235 -0.0058505237 0.69622803
0.013703469 -0.0078305602 0.69712883
0.013741102 -0.0098150969 0.69777775
0.013782414 -0.011813462 0.69849014
0.01383708 -0.013837069 0.69943279
0.013909395 -0.01589641 0.70067984
0.014004778 -0.018006086 0.70232463
0.014162546 -0.02023223 0.70504528
0.013945385 0.08018598 0.67124045
0.01382593 0.077770859 0.66943806
0.013776253 0.075769424 0.66868854
0.013740455 0.073854923 0.66814834
0.013714327 0.072000235 0.66775411
0.013696682 0.070195526 0.66748786
0.013685632 0.068428189 0.66732109
0.013678663 0.066683501 0.66721594
0.013675998 0.064961046 0.66717577
0.013678148 0.063261449 0.66720825
0.013682169 0.06156981 0.66726887
0.01369078 0.059897184 0.66739881
0.013701042 0.058229476 0.66755366
0.013714468 0.056572229 0.6677562
0.013729897 0.054919571 0.66798902
0.013747722 0.053272426 0.66825801
0.013768196 0.051630765 0.66856694
0.013790254 0.049989671 0.66889977
0.013815049 0.048352689 0.66927385
0.013841036 0.046713531 0.66966599
0.013869859 0.045077056 0.67010093
0.013899672 0.043436497 0.67055076
0.013932376 0.041797131 0.67104423
0.013965965 0.040152162 0.67155105
0.014002459 0.038506806 0.67210174
0.014039934 0.036854833 0.67266715
0.014080133 0.035200328 0.67327368
0.01412156 0.033538729 0.67389876
0.014165638 0.03187269 0.67456388
0.014211251 0.030198961 0.67525214
0.014259194 0.028518409 0.6759755
0.014309198 0.026829779 0.67673004
0.014361305 0.025132298 0.67751622
0.014394875 0.023391694 0.6780228
0.014451262 0.021676928 0.6788736
0.014510616 0.019952089 0.67976916
0.014571997 0.018215001 0.68069535
0.014636576 0.016466171 0.68166977
0.014703673 0.014703721 0.68268222
0.014774006 0.012927264 0.68374342
0.014847659 0.011135757 0.68485481
0.014924274 0.0093276799 0.68601078
0.01500579 0.0075029433 0.68724078
0.015089964 0.0056587458 0.68851089
0.015180382 0.0037951171 0.68987525
0.015275154 0.001909405 0.69130516
0.015374601 -0 0.69280571
0.015461363 -0.0019326508 0.69411486
0.015522941 -0.0038807392 0.69504398
0.015566465 -0.0058374405 0.69570071
0.015609564 -0.0078047216 0.69635099
0.01567049 -0.0097939968 0.69727027
0.015747922 -0.011810929 0.69843864
0.015848115 -0.01386708 0.69995046
0.015998552 -0.015998542 0.70222032
0.017147612 -0.019291073 0.71955836
0.016158324 0.084382385 0.67754114
0.015488743 0.079164714 0.6685605
0.015340216 0.076701105 0.66656846
0.01529894 0.074794859 0.66601479
0.015279423 0.073001713 0.66575301
0.01526875 0.071254164 0.66560996
0.01526223 0.069527954 0.66552246
0.015259282 0.067819059 0.66548294
0.015262592 0.06613791 0.66552734
0.015267818 0.064464152 0.66559744
0.015277349 0.062806904 0.66572523
0.015289383 0.061157584 0.66588664
0.015304244 0.059516549 0.66608596
0.015321895 0.057882756 0.66632271
0.015341627 0.056252688 0.66658735
0.015364658 0.054629892 0.66689628
0.015389127 0.053007036 0.66722447
0.015416733 0.051389128 0.66759473
0.015445605 0.049769193 0.66798192
0.015477563 0.048152417 0.6684106
0.015510775 0.046532363 0.66885602
0.015546975 0.044913501 0.6693415
0.015584313 0.043289721 0.66984236
0.015624653 0.041665763 0.67038339
0.015666235 0.040035933 0.67094111
0.015710671 0.038403869 0.6715371
0.01575657 0.036765367 0.6721527
0.015805237 0.035122812 0.67280543
0.015855767 0.033473283 0.67348319
0.015908699 0.031817406 0.67419308
0.015963968 0.030154169 0.67493439
0.016021447 0.028482586 0.67570531
0.016081866 0.026803136 0.6765157
0.016144305 0.025113374 0.67735314
0.01621009 0.023414582 0.67823541
0.016253738 0.021671653 0.67882085
0.016325152 0.019952983 0.6797787
0.01639881 0.018220931 0.68076658
0.01647657 0.016476601 0.68180954
0.016557446 0.014717728 0.68289429
0.016642133 0.012943894 0.68403018
0.016731543 0.011154354 0.68522936
0.016823994 0.0093467236 0.68646932
0.016923513 0.0075215697 0.6878041
0.017027112 0.0056757033 0.68919361
0.017136941 0.0038082302 0.69066668
0.017237501 0.0019152761 0.69201541
0.017309789 2.9802322e-08 0.69298494
0.017360104 -0.0019288659 0.69365978
0.017407818 -0.0038683712 0.6942997
0.017471233 -0.0058237314 0.69515026
0.01755234 -0.0078010261 0.6962381
0.017657088 -0.0098094344 0.69764304
0.017802417 -0.011868238 0.69959223
0.018895326 -0.01469636 0.71425068
0.018574869 0.08730194 0.6850394
0.017554043 0.080748618 0.67271698
0.016916124 0.076122582 0.66501659
0.01682579 0.074033499 0.66392612
0.016820023 0.072326124 0.66385651
0.016817534 0.07063365 0.66382647
0.016821492 0.068968147 0.66387427
0.016828055 0.067312241 0.66395342
0.016838418 0.065669864 0.66407859
0.016852312 0.064038813 0.66424626
0.016868504 0.062413454 0.66444182
0.01688849 0.060798585 0.66468298
0.016910063 0.059185237 0.6649434
0.016935706 0.057581395 0.66525292
0.016962402 0.055975944 0.66557527
0.016992934 0.054377377 0.66594374
0.017024502 0.052775979 0.66632485
0.01705962 0.051178873 0.6667487
0.017095992 0.049578369 0.66718781
0.017135628 0.047979772 0.66766626
0.01717657 0.046376735 0.66816044
0.01722067 0.044773757 0.66869283
0.017266249 0.043165654 0.66924298
0.017314766 0.041555494 0.66982859
0.017365063 0.039939672 0.67043579
0.017418077 0.038319796 0.6710757
0.017473308 0.03669396 0.67174238
0.017531039 0.035062075 0.67243928
0.017591441 0.033423752 0.67316836
0.017654069 0.031777352 0.67392433
0.01772009 0.030124217 0.6747213
0.017788064 0.02846089 0.67554188
0.017859874 0.026789814 0.67640865
0.01793381 0.025107384 0.67730117
0.018011989 0.023415625 0.67824483
0.018064989 0.021678001 0.67888463
0.018149914 0.019964933 0.67990977
0.01823757 0.018237621 0.68096781
0.018330036 0.016497076 0.68208402
0.018426839 0.01474148 0.68325257
0.018527754 0.012969464 0.68447071
0.01863547 0.011181325 0.68577087
0.018747257 0.0093736649 0.68712032
0.018867077 0.0075468421 0.68856668
0.018981308 0.0056944191 0.68994558
0.019065496 0.0038131177 0.69096178
0.019123351 0.0019123554 0.69166017
0.019174945 2.9802322e-08 0.69228297
0.019240052 -0.0019239783 0.69306886
0.019323718 -0.0038647056 0.6940788
0.019431407 -0.0058294237 0.69537872
0.019579221 -0.0078316927 0.69716299
0.020695906 -0.010347933 0.71064264
0.020818233 0.087058067 0.68927389
0.01848866 0.075635433 0.66370988
0.018393325 0.073573321 0.6626637
0.018355355 0.071752757 0.662247
0.018363377 0.070114732 0.66233504
0.018374598 0.068487138 0.66245818
0.018390438 0.066874325 0.66263199
0.018407967 0.065264642 0.66282439
0.01843028 0.063668281 0.66306925
0.018453637 0.062071353 0.66332555
0.018481832 0.060486019 0.66363496
0.018510796 0.058898032 0.66395283
0.018544227 0.057318509 0.66431963
0.018578403 0.055735201 0.66469473
0.018616673 0.054157645 0.66511464
0.018656049 0.052576154 0.66554677
0.018698959 0.050997198 0.66601765
0.01874347 0.049414665 0.66650605
0.018791145 0.047832042 0.66702926
0.018840609 0.046245128 0.66757208
