# .PCD v0.7 - Point Cloud Data file format
VERSION 0.7
FIELDS x y z
SIZE 4 4 4
TYPE F F F
COUNT 1 1 1
WIDTH 263
HEIGHT 1
VIEWPOINT 0 0 0 1 0 0 0
POINTS 263
DATA ascii
-0.0017176688 -0.068706736 0.66816187
-0.0087196631 -0.07498908 0.67133218
-0.0069750249 -0.073237777 0.6713109
0.0052247504 -0.073146492 0.67104864
0.0052247504 -0.073146492 0.67104864
-0.0017498607 -0.055995494 0.67204779
-0.012349786 -0.072334439 0.67378533
0.0052859625 -0.065193534 0.67351162
-0.012408194 -0.069131374 0.67479253
-0.0053075124 -0.060151786 0.67437869
0.0071162875 -0.060488433 0.67557389
-0.01431667 -0.066214561 0.67684281
0.0053486265 -0.057051986 0.67603302
0 -0.039388001 0.67693704
-0.007207572 -0.050453007 0.67832863
0.005399826 -0.05039835 0.67809308
0.0072704093 -0.045440018 0.6802249
0 -0.027314097 0.68062812
-0.020087905 -0.069394588 0.68125951
-0.01644426 -0.05664134 0.68137622
-0.01463374 -0.051218033 0.68162698
-0.0018268999 -0.025576591 0.68134725
-0.0091866581 -0.038583964 0.68260646
-0.0073475456 -0.03673771 0.6825527
0.0036805153 -0.029444069 0.68295968
-0.016567679 -0.051543862 0.68303156
-0.014779625 -0.044338852 0.68382823
-0.011116035 -0.035200745 0.68445826
-0.011143474 -0.033430398 0.68501025
0.02251434 -0.069419205 0.68729764
0.0056706434 -0.015121669 0.68898994
-0.0018821373 -0.0037642717 0.68801498
0.018914722 -0.047286779 0.68914181
-0.017080393 -0.030365139 0.68990821
0.017153651 -0.047649026 0.69089079
0.011486654 -0.013401061 0.6919145
0.019212421 -0.034582317 0.69273531
0.0096051041 -0.007684052 0.69270861
-0.023150999 -0.044372708 0.69370198
-0.001930791 0.015446365 0.69388795
-0.001930791 0.015446365 0.69388795
0.0097044716 5.9604645e-08 0.69510758
0.0058462 0.0077949464 0.6960538
0 0.02339229 0.69612896
0.015686085 -0.03137213 0.69750565
-0.0039242739 0.023545653 0.69767177
0.025545247 -0.055020511 0.69801968
-0.0039451285 0.027615905 0.69893044
-0.0039451285 0.027615905 0.69893044
-0.027771259 -0.049591511 0.70026994
0.0079395548 0.019848943 0.70041817
-0.021975612 -0.0099889338 0.70197463
-0.017967276 0.0059891045 0.70180339
-0.0039875098 0.035887599 0.70148838
-0.0039875098 0.035887599 0.70148838
0.01598488 -0.013986737 0.70201409
-0.0020032858 0.0440723 0.70263892
-0.0040308111 0.044338942 0.70410192
0.0060816389 0.038517058 0.70552713
0.018319957 0.0081422329 0.70653355
0.0081540784 0.040770441 0.70689195
-0.0061013652 0.042709559 0.70632088
0.016484382 0.012363344 0.70955098
0.008255587 0.049533576 0.70995528
-0.010361411 0.051807046 0.71096748
0.0020724023 0.058027297 0.71098197
-0.016604733 0.041511834 0.71136695
-0.0041577374 0.060287237 0.71176255
0.02706724 -0.012492537 0.712152
0.02706724 -0.012492537 0.712152
-0.027241355 -0.0041909516 0.71376878
0.012535293 0.052230418 0.7130115
0.010507147 0.060941488 0.71448588
0.0062922901 0.065020353 0.71400315
0.027472382 -0.0021132231 0.71591401
-0.0042271987 0.07397598 0.71595496
-0.027537281 0.0042365491 0.71651661
0.0063806893 0.076568276 0.71756005
-0.017067842 0.061870962 0.71835476
0.01282319 0.070527583 0.71880352
0.0085360324 0.076824307 0.71841848
0.008584654 0.081554264 0.71988577
0.025791246 0.017194182 0.7202608
0.021504527 0.045159549 0.72040355
-0.019450963 0.064836562 0.72170299
0.017279446 0.066957891 0.7215476
0.017331293 0.069325179 0.72232991
-0.028239647 0.023895085 0.72303838
-0.017580196 0.085703462 0.7260856
-0.022131933 0.073035419 0.72797698
0.022251815 0.066755474 0.72942406
0.015714433 -0.013469487 0.73180664
0.016249109 0.037140816 0.74102676
-0.0017117654 -0.071037263 0.6674493
-0.0034581427 -0.067433745 0.66953832
0.0052247504 -0.073146492 0.67104864
-0.0088215871 -0.06704405 0.6737929
0.00087870093 -0.054403961 0.67266417
-0.014248332 -0.06946063 0.67581165
0.0035543654 -0.053315461 0.67534584
-0.016084911 -0.07148847 0.67655653
0.0089423852 -0.059019685 0.67670918
-0.0071395668 -0.057116508 0.67627645
-0.0053583258 -0.053583235 0.67642331
-0.019909006 -0.075110085 0.67929637
-0.016322726 -0.061663628 0.67974615
0.010980804 -0.04575333 0.68173766
0.0073232953 -0.040278137 0.68182087
0.0073232953 -0.040278137 0.68182087
0.0054918486 -0.03844291 0.68179584
-0.0036538665 -0.029230922 0.6813513
0.018346032 -0.071549505 0.68227708
-0.020191519 -0.066081315 0.68239653
0.012839115 -0.047688127 0.6822235
-0.0018449463 -0.018449455 0.68352568
-0.0018449463 -0.018449455 0.68352568
0.020506274 -0.061518818 0.68585062
-0.016777486 -0.042875797 0.68584555
0.012999513 -0.038998514 0.68498945
-0.0092769647 -0.031541646 0.68478668
-0.0092769647 -0.031541646 0.68478668
0.0037039039 -0.025000155 0.68437123
0.01868717 -0.056994826 0.68639499
0.011200012 -0.031733334 0.68614775
0.011200012 -0.031733334 0.68614775
0.0075053428 -0.022516012 0.68731463
-0.001872698 -0.0074907839 0.68687552
0.018956643 -0.045495927 0.68964779
-0.017080393 -0.030365139 0.68990821
0.009459828 -0.018919617 0.68920135
0.0037855485 -0.0094638467 0.68929899
0.0037953979 -0.0075907409 0.68989342
-0.0037746252 -0.0056619048 0.68863964
-0.019143766 -0.030630022 0.69190657
-0.015196173 -0.024693757 0.69011343
-0.013323409 -0.019033432 0.69057482
0.011486654 -0.013401061 0.6919145
0.011486654 -0.013401061 0.6919145
-0.0076252394 -0.0095315576 0.69093287
-0.0076252394 -0.0095315576 0.69093287
-0.0019061501 0.0057184696 0.69091356
0.025101153 -0.067580014 0.69389611
0.021083632 -0.044083953 0.6921863
-0.0096321367 -0.0038528442 0.69336128
0.0057717492 -0.0019238889 0.69305813
-0.0019159307 0.0095796883 0.69209421
-0.0038630131 0.01158905 0.69397432
0.01746656 -0.032992393 0.69508755
-0.019401267 -0.021341354 0.69501489
0.0038760302 0.0077520907 0.69476008
0.011758621 0.0039195418 0.69738609
0.011758621 0.0039195418 0.69738609
-0.0078425827 0.011763871 0.69749177
0.0019508988 0.021459937 0.69631517
0.003959192 0.023755163 0.69977927
0.027810067 -0.05363369 0.70060462
-0.017918235 0.0039818287 0.70114565
-0.011909144 0.015878886 0.70041436
-0.0079874638 0.025959253 0.701864
-0.027988965 -0.043982655 0.70214713
0.018019473 -0.0060065091 0.7025035
-0.010015587 0.026040524 0.70261854
0.0060010399 0.028004885 0.7022841
0.0080239382 0.028083801 0.70296466
0.018190011 0.0020211339 0.70479071
-0.012134125 0.030335337 0.70494062
-0.012166974 0.032445282 0.70560151
0.026480149 -0.028517067 0.70670068
-0.02652918 -0.024488419 0.70715594
-0.016328447 0.028574795 0.70719814
-0.0061013652 0.042709559 0.70632088
-0.0061013652 0.042709559 0.70632088
-0.028685475 -0.026636481 0.70815253
0.0061726449 0.049381167 0.70918894
0.0061726449 0.049381167 0.70918894
0.0061894692 0.051578909 0.70986593
0.02071107 0.018640012 0.71082562
-0.01863094 0.033121705 0.71070462
-0.0061964695 0.053702742 0.71014762
-0.0020770391 0.060234189 0.71154171
-0.02921279 -0.014606357 0.71269912
0.022992121 0.010450989 0.71312946
0 0.062473834 0.71219599
-0.023139045 0.025242597 0.71474183
0.021096427 0.031644672 0.71547729
0.012605824 0.056726217 0.71443051
-0.01478015 0.059120625 0.71569544
-0.0020999566 0.069298565 0.71430808
0.021228176 0.03608793 0.7170676
0.0084640868 0.069828779 0.71624732
0.0084640868 0.069828779 0.71624732
-0.0063878573 0.078783602 0.71784842
0.021504527 0.045159549 0.72040355
0.021504527 0.045159549 0.72040355
0.019385401 0.056002259 0.72082365
0.01289734 0.075234473 0.72029537
0.01289734 0.075234473 0.72029537
0.0086092111 0.083939791 0.72062683
-0.019568706 0.069577664 0.72328222
-0.012994531 0.08446449 0.7222507
0.022173028 0.064301789 0.72847307
0.022173028 0.064301789 0.72847307
-0.019933024 0.084161669 0.72816855
-0.020057498 0.089144498 0.72983801
0.022331065 0.069226325 0.73038065
0.020199377 0.087530673 0.73174101
0.015872383 0.013604909 0.73453033
0.0025919599 -0.069889478 0.66913033
0.0025919599 -0.069889478 0.66913033
0 -0.055949569 0.67187434
-0.0070154481 -0.069276534 0.67253083
0.0088895727 -0.063114867 0.67543417
-0.018206725 -0.073929861 0.67782378
0.018464988 -0.066473931 0.68371296
0.018464988 -0.066473931 0.68371296
-0.013703512 -0.050236516 0.68133813
-0.013703512 -0.050236516 0.68133813
-0.013942868 -0.0381025 0.68518782
-0.013942868 -0.0381025 0.68518782
-0.010115041 -0.025840659 0.68688291
0.0065680509 -0.021575555 0.68730283
-0.007539764 -0.017905727 0.68835342
-0.021849228 -0.037906151 0.69346857
-0.021849228 -0.037906151 0.69346857
0.021384845 -0.034993351 0.69549173
-0.018328309 -0.022180341 0.69365233
0.0058311657 0.0058312118 0.69544888
-0.026518732 -0.054011062 0.69790751
0.025706209 -0.050422445 0.69951427
0.015824296 -0.022746325 0.6995911
-0.0078021348 0.0078021586 0.69627118
0.00098235556 0.026805565 0.69757032
0.00098235556 0.026805565 0.69757032
0.016937045 -0.012950718 0.70141637
0.016937045 -0.012950718 0.70141637
-0.021975767 -0.0099850893 0.7019763
-0.021975767 -0.0099850893 0.7019763
-0.018595001 0.0019891262 0.70128226
0.012076431 0.024152905 0.70377994
-0.0080512129 0.032204866 0.70378774
-0.0033154553 0.035122376 0.70080173
0.0040239389 0.036215484 0.70368713
-0.026356 -0.029395744 0.70554793
-0.018166164 0.014129281 0.70447087
0.009107328 0.033387586 0.70506763
-0.00918415 0.041832656 0.70713693
-0.00918415 0.041832656 0.70713693
0.024931449 -0.009347856 0.71161193
0.020554695 0.013362154 0.708938
0.0051462464 0.050423257 0.70924771
0.0010362011 0.058009505 0.71090537
-0.029475737 -0.0094720274 0.71496636
-0.016800461 0.049352854 0.7143203
0.0010461932 0.065890573 0.71331358
-0.014843475 0.062556192 0.71678746
-0.0099234749 0.073709667 0.71747923
0.0095857875 0.073474661 0.71789312
0.023750726 0.029150859 0.72145426
-0.021677967 0.057448328 0.72249711
0.019536365 0.061866879 0.72284842
-0.01006534 0.085546106 0.72114718
0.010095252 0.085797265 0.72191185
0.026337728 0.034021169 0.72575802
