# .PCD v0.7 - Point Cloud Data file format
VERSION 0.7
FIELDS x y z
SIZE 4 4 4
TYPE F F F
COUNT 1 1 1
WIDTH 221
HEIGHT 1
VIEWPOINT 0 0 0 1 0 0 0
POINTS 221
DATA ascii
-0.029366737 -0.061996445 0.65775859
-0.031124571 -0.058972836 0.65856135
-0.024632111 -0.064043462 0.65904486
-0.031225372 -0.057520419 0.65920174
-0.034589734 -0.056002438 0.65964717
-0.024791911 -0.059500605 0.66033077
-0.044713173 -0.057961524 0.66072309
-0.023265924 -0.058164805 0.66142416
-0.028471051 -0.05024302 0.6629833
-0.018426886 -0.065331668 0.663032
-0.018510921 -0.058898389 0.66395414
-0.018510921 -0.058898389 0.66395414
-0.036880814 -0.050292015 0.66318035
-0.016868562 -0.06578739 0.66444242
-0.015320124 -0.06979163 0.66629899
-0.023929564 -0.042731345 0.66714621
-0.030871937 -0.04116255 0.6678527
-0.025910998 -0.038002789 0.6693365
-0.015601159 -0.041603029 0.67006826
-0.024284625 -0.036426902 0.67020762
-0.013948105 -0.040100783 0.67128158
-0.042287104 -0.040525138 0.67350864
-0.033526167 -0.033526152 0.67381912
-0.007094393 -0.047887117 0.67491311
-0.012468931 -0.028500378 0.6758399
-0.023130486 -0.026689023 0.67559755
-0.017788885 -0.026683301 0.67555177
-0.010716422 -0.028577089 0.67641866
-0.041245546 -0.035865664 0.67728943
-0.0053852773 -0.035901845 0.6775077
-0.030712923 -0.025292963 0.67890191
-0.016319651 -0.018132925 0.6797049
-0.021821771 -0.018184811 0.68033099
-0.012753329 -0.016397119 0.68074417
-0.0018285291 -0.02559939 0.68154389
-0.021939302 -0.016454458 0.68151319
0.0018576316 -0.020433933 0.68505692
-0.029721666 -0.011145562 0.68505353
-0.026115241 -0.0093268752 0.68599147
-0.009306401 -0.0074451268 0.68549728
-0.0018846611 -0.0037693083 0.68831962
0.0094612595 -0.013245732 0.68923587
0.0094612595 -0.013245732 0.68923587
-0.024674201 -0.0018979907 0.68993169
0.0095054023 -0.011406451 0.69030166
0.013393615 -0.0095668435 0.69178551
-0.021062978 0.0019148588 0.69195962
-0.0038229902 0.0038229823 0.69155872
-0.05193216 -0.071166307 0.69299746
0.0077231936 0.0019308031 0.6938889
-0.015442156 0.003860563 0.69382513
-0.035119053 -0.081944436 0.69633448
-0.019518424 0.0097592175 0.69642913
-0.011723723 0.0097697675 0.696684
0.011771253 0.0078475177 0.69764024
-0.015816368 0.015816391 0.69947147
0.0059522581 0.019840837 0.70032126
-0.0099727083 0.017950922 0.70158339
-0.0079658777 0.017923236 0.70121253
0.0019925639 0.021918237 0.70134467
-0.010033301 0.022073269 0.7030462
0.022278311 0.01620242 0.7052964
-0.006095048 0.026411861 0.70606667
0.01632119 0.030602217 0.70708865
0.0061245919 0.032664537 0.70725542
0.026682734 0.022577703 0.70858169
0.029005462 0.02693367 0.71091157
0.0061941682 0.037165046 0.71005499
0.027103554 0.031273335 0.71248925
0.010408571 0.041634321 0.71210599
0.020956645 0.044009 0.71378994
0.029479811 0.03579694 0.71500146
0 0.046494484 0.71592909
0.038593203 0.04288134 0.71963269
0.021427263 0.055710912 0.71947086
0.03226636 0.051626176 0.72048056
0.032567807 0.058622062 0.72290641
0.023810014 0.060607314 0.72210479
0.039172307 0.050053537 0.72351617
0.02858125 0.068155318 0.7262103
0.044782449 0.064934582 0.73110688
0.051926684 0.067730457 0.73334724
0.040610239 0.078964382 0.73315918
0.045318246 0.07704103 0.73434073
0.02047937 0.081917524 0.73549634
0.022809936 0.082115769 0.73616123
-0.019998945 -0.071662843 0.66199476
-0.041530292 -0.054819971 0.66134691
-0.025154617 -0.051146448 0.66324961
-0.016887406 -0.0624834 0.66466987
-0.046009675 -0.051121861 0.6665194
-0.017048575 -0.051145703 0.66661549
-0.015439672 -0.04975006 0.66790241
-0.013750697 -0.068753451 0.66830289
-0.034411613 -0.041293889 0.6685133
-0.053823479 -0.055559695 0.67040378
-0.043664668 -0.043664664 0.67165256
-0.036546551 -0.039154366 0.67089516
-0.019074626 -0.038149208 0.67014009
-0.013981576 -0.038449287 0.67178661
-0.013981576 -0.038449287 0.67178661
-0.024284625 -0.036426902 0.67020762
-0.022560723 -0.036444247 0.6703071
-0.038574908 -0.038574874 0.67247558
-0.024702275 -0.02999562 0.67380863
-0.0089107584 -0.065939605 0.67594564
-0.0088646598 -0.037231535 0.6748327
-0.012468931 -0.028500378 0.6758399
-0.039463572 -0.034082204 0.67735159
-0.037699103 -0.032313466 0.67752016
-0.032455347 -0.027046084 0.67847127
-0.0072173448 -0.025260687 0.67862356
-0.0072173448 -0.025260687 0.67862356
0.003661487 -0.027461141 0.68181121
-0.0072974483 -0.018243611 0.68104088
-0.0072974483 -0.018243611 0.68104088
-0.012753329 -0.016397119 0.68074417
0 -0.020322859 0.68383819
0 -0.020322859 0.68383819
-0.012857921 -0.012857884 0.68254781
-0.0055557545 -0.011111498 0.68436718
-0.0074216272 -0.0092769861 0.68478829
-0.013162979 -0.0037608445 0.68780839
-0.013162979 -0.0037608445 0.68780839
-0.0037626468 -0.0037626326 0.68791676
-0.02277636 -0.0018980205 0.68993342
-0.02277636 -0.0018980205 0.68993342
0.013365455 -0.011456072 0.69129992
0.0038121694 -0.0019060671 0.69090569
-0.022866311 -0 0.69083822
-0.0057340031 0.0038226843 0.69153935
-0.015586042 0.0077930391 0.69599611
0.00582196 0.0077626407 0.69507843
-0.044938304 -0.078153551 0.69667017
-0.043091144 -0.078347534 0.69725549
-0.043091144 -0.078347534 0.69725549
0.013696038 0.00098006427 0.69700062
0.017721221 0.0039380789 0.6985032
-0.013796855 0.013796866 0.69873917
0.0098515591 0.013792217 0.69865859
-0.0059168534 0.015778303 0.69889677
-0.037699874 -0.081352383 0.70033556
0.015893737 0.0099336207 0.70063889
0.011896213 0.015861601 0.7001543
-0.005991722 0.019972414 0.70190918
0.0079773394 0.021937698 0.70155847
0.0079773394 0.021937698 0.70155847
-0.0060323183 0.022118509 0.70354271
0.016115261 0.022158474 0.7039814
0 0.024068177 0.70292777
0.0080820667 0.028287262 0.70471883
0 0.032906324 0.70907974
0.014426449 0.03709659 0.70959616
0.031024482 0.024819613 0.71048665
0.026948931 0.026948959 0.71105349
0.024819175 0.028955758 0.71048254
0.022741795 0.033078969 0.71038246
0.010352921 0.039341092 0.7107625
0.020799661 0.039519399 0.71189499
0.014704323 0.046213597 0.71438789
0.02966156 0.042373687 0.71656853
0.0063590915 0.046633363 0.71669096
0.019092074 0.050912231 0.7168895
0.019092074 0.050912231 0.7168895
0.034442917 0.047359049 0.72067261
0.041320331 0.050019383 0.72333694
0.010928539 0.061199844 0.72465914
0.022031365 0.068297237 0.72676301
0.02637968 0.06814754 0.72618002
0.033351764 0.073373944 0.72921515
0.020169793 0.073955923 0.73134416
0.051859297 0.060878336 0.73299348
0.047343817 0.067634046 0.73295921
0.011239623 0.074181557 0.73216939
0.020311806 0.0767335 0.73324889
0.052354023 0.072840422 0.73559004
0.022914084 0.084782124 0.73741835
-0.039604787 -0.056106746 0.66001761
-0.028911652 -0.056172475 0.6602509
-0.046888437 -0.053100061 0.66539341
-0.046888437 -0.053100061 0.66539341
-0.010486444 -0.06204538 0.67179179
-0.010486444 -0.06204538 0.67179179
-0.01330183 -0.049598422 0.66942829
-0.01330183 -0.049598422 0.66942829
-0.017194632 -0.044706017 0.66837847
-0.036546551 -0.039154366 0.67089516
-0.025942056 -0.037612922 0.66959643
-0.0036128357 -0.046064034 0.67887485
-0.0036112778 -0.038369134 0.67878079
-0.0027310024 -0.026421942 0.68078715
-0.033727385 -0.023299724 0.68287933
-0.0025616386 -0.022155914 0.68188119
-0.017308168 -0.016396925 0.68074143
-0.010151396 -0.011074588 0.68362468
-0.021614444 -0.0075177699 0.68769044
0.0066105621 -0.014162824 0.68879795
0.003771727 -0.010371298 0.68846476
-0.0066011986 -0.0018860996 0.68849456
-0.0025174629 -0.0025162201 0.68872643
-0.051207498 -0.071503639 0.694098
-0.0067948634 0.0097057968 0.69514
-0.0067948634 0.0097057968 0.69514
0.0039003985 0.011701196 0.69623077
0.018082786 -0.010045975 0.70335263
0.01590793 0.010937616 0.70085305
0.02404353 0.009016946 0.70268011
0.02404353 0.009016946 0.70268011
-0.016080754 0.020100951 0.70346075
0.0069773728 0.021927446 0.70144582
0.021386413 0.021384522 0.70665067
0.0131966 0.02943857 0.70587701
0.030004255 0.025866792 0.7105937
0.0041670343 0.039586842 0.71232367
0.022947259 0.039636165 0.71263719
0.038421322 0.034152299 0.71847999
0.029774826 0.045727044 0.71754515
0.0054069115 0.057323806 0.72192335
0.032680828 0.061004192 0.72381592
0.039933745 0.066556275 0.72862256
0.030316193 0.078598648 0.73189783
