# .PCD v0.7 - Point Cloud Data file format
VERSION 0.7
FIELDS x y z
SIZE 4 4 4
TYPE F F F
COUNT 1 1 1
WIDTH 240
HEIGHT 1
VIEWPOINT 0 0 0 1 0 0 0
POINTS 240
DATA ascii
-0.0017492245 0.071718246 0.67197096
0.0052387174 0.075088322 0.67161059
0.0035112025 0.070224047 0.6727407
0.0070001278 0.0752514 0.67206848
-0.012292876 0.079025686 0.67280394
-0.012292876 0.079025686 0.67280394
-0.0052942778 0.067060888 0.67384619
0.00351934 0.068627149 0.6732319
0.012324582 0.079229444 0.67335069
-0.0035415597 0.063748091 0.67457294
-0.0071221632 0.062318981 0.67575115
0.012442222 0.072875887 0.67537934
-0.0017862106 0.057158768 0.67643559
0.010743881 0.064463317 0.67697108
0.0036113421 0.050558835 0.67878467
0.0017995018 0.052185625 0.67803997
0.016234752 0.072154462 0.67856622
0.010847689 0.057854354 0.67905951
-0.019947685 0.0779773 0.67972076
-0.0018160783 0.04540199 0.68004096
-0.012740063 0.054600298 0.68051541
0.016397316 0.065589309 0.68074656
-0.0018285757 0.027428627 0.68154955
0.0054783593 0.043826938 0.68125308
0.020141052 0.076902241 0.68184268
-0.0073467363 0.040407062 0.68252832
0.012840621 0.051362485 0.68224949
-0.020204267 0.069796562 0.68253648
-0.0073825344 0.03691268 0.68360859
-0.0056760046 0.015136063 0.68920565
-0.0056760046 0.015136063 0.68920565
0.009517299 0.01713115 0.69058883
0.0057334341 0.009555757 0.69151646
-0.011465422 0.01528731 0.69148737
0.021043731 0.049739778 0.69174838
-0.0019276742 -0.011566013 0.69351172
0 -0.011556536 0.69332099
0.0096393367 0.0077114999 0.69353503
-0.013508709 0.011578918 0.69377023
-0.017321309 0.023095071 0.69313943
0.021224286 0.044378102 0.69372982
0.0077635176 2.9802322e-08 0.69510579
0.019403299 0.029104978 0.69503945
-0.023329467 0.044714838 0.69549716
-0.0019528709 -0.021481574 0.69655323
-0.0019528709 -0.021481574 0.69655323
0.019614296 0.021575749 0.69758642
-0.0215622 0.025482625 0.69743794
-0.013794301 -0.0039411783 0.69869512
-0.013794301 -0.0039411783 0.69869512
-0.0039701872 -0.029776365 0.70044285
-0.013904481 -0.0099317729 0.70059508
0.017867614 0.015882343 0.70046669
0.0079892818 -0.021970451 0.70191872
0.0099717546 -0.017949134 0.70156038
-0.012081095 -0.024162143 0.70387375
-0.016077589 -0.014067858 0.70341301
-0.020074895 -0 0.70314634
-0.0040349234 -0.042366683 0.70435005
-0.028400773 0.036515296 0.70569777
-0.010188364 -0.036678106 0.70678979
-0.028478825 0.034581453 0.70637083
-0.028557191 0.032636791 0.70704645
0.0061538178 -0.045127958 0.70843142
0.010243471 -0.038925201 0.70812017
-0.01657551 -0.037294894 0.71092606
-0.016528968 -0.035124034 0.71022379
0.020673076 -0.014471143 0.71036696
0.002073115 -0.066339642 0.71106803
-0.010385239 -0.051926166 0.71154273
0.02086384 -0.020863831 0.71266973
0.016662309 -0.018745095 0.71223569
-0.010471962 -0.058642954 0.7136364
-0.0083945412 -0.062959045 0.71414858
0.025263518 0.0021052659 0.71495229
0.025263518 0.0021052659 0.71495229
-0.027268877 0.0062928498 0.71402436
0.0042224363 -0.071781397 0.71566749
-0.010560147 -0.065472901 0.71576536
0.0084375395 -0.065390885 0.71544617
0.01053205 -0.06108588 0.71508712
-0.023314692 -0.027553737 0.71666932
0.0021328346 -0.089579046 0.71827686
-0.025610827 -0.012805402 0.7184459
0.025607005 -0.0085356534 0.71840745
0.019254688 -0.049206406 0.71907049
0.025676869 -0.010698706 0.71911025
0.010806324 -0.082128018 0.72170866
-0.012950975 -0.079864323 0.72137439
-0.015115079 -0.075575352 0.72147107
0.019417498 -0.056095004 0.72125423
-0.01083384 -0.086670727 0.72237295
0.02603188 -0.02169323 0.7226814
-0.019972896 -0.084329993 0.72870332
-0.029057227 -0.04246819 0.73062992
0.017921802 -0.085128576 0.73124003
0.015779139 -0.0045083165 0.73292243
-0.025358435 -0.082991213 0.7390967
-0.025358435 -0.082991213 0.7390967
0.016677674 -0.0595631 0.74841708
0.0034631931 0.079653472 0.66984308
0.0017338465 0.078023076 0.67011476
0.0087342141 0.078607917 0.67168343
-0.0087599028 0.075335175 0.67230368
-0.012301554 0.082596183 0.67295361
-0.012301554 0.082596183 0.67295361
-0.0017820247 0.058806807 0.67593026
-0.0106947 0.065950662 0.6759817
0.0088989986 0.065852642 0.67566174
0.0088780615 0.067473322 0.67515624
-0.010619342 0.070795625 0.6744656
-0.0071727522 0.057382017 0.67727786
0.0071658441 0.059118241 0.67706937
-0.016167665 0.07185629 0.67766643
-0.016167665 0.07185629 0.67766643
0.017955109 0.08259353 0.67755824
-0.012617659 0.061285764 0.67840463
0.0073219831 0.043931931 0.68178129
-0.0018160783 0.04540199 0.68004096
0.016356401 0.06724298 0.68019783
-0.0018466554 0.020313263 0.68373191
-0.0036787293 0.036787331 0.68285191
-0.012928305 0.04432565 0.68376154
-0.01657146 0.055238217 0.68308222
-0.01657146 0.055238217 0.68308222
-0.020230405 0.06896612 0.6828233
0.0055919532 0.027959764 0.68582374
0.0055919532 0.027959764 0.68582374
0.012968371 0.044463038 0.68445247
0 0.0075105727 0.68747193
0.011199302 0.035464466 0.68613344
-0.01493023 0.041058183 0.68610066
0.022419764 0.076600879 0.68634629
-0.0056616822 0.016985059 0.68862939
0.0075313542 0.022594064 0.68809962
0.0075313542 0.022594064 0.68809962
-0.018950971 0.041692168 0.68957937
0.0037993751 0.0094984472 0.69013351
0.0076071834 0.015214413 0.69038796
-0.015289215 0.022933841 0.69151735
-0.0057634828 0.0038423538 0.69272554
-0.0076906383 0.0057680011 0.69290644
0.0057625752 0.0057626069 0.69268906
-0.0019427105 -0.017484367 0.69532675
-0.0077895932 -0.0038948059 0.69589269
0.0097266538 0.0009714216 0.69564313
-0.017413203 0.019348025 0.69437194
-0.02132304 0.032953799 0.69481349
0.021405136 0.036972523 0.69571441
-0.0019528709 -0.021481574 0.69655323
0.015693773 0.033349276 0.6976217
0.021468675 0.03513056 0.69641161
0.0059753121 -0.021909475 0.70124888
-0.011952671 -0.015936881 0.70129007
-0.021871692 0.015906692 0.70083427
0.021857534 0.0238446 0.70067888
-0.023967365 0.025964648 0.70191401
-0.012081095 -0.024162143 0.70387375
-0.014016491 -0.016018808 0.70252669
0.017993048 0.0099961162 0.70214903
-0.0020215779 -0.048517823 0.70484692
-0.008059253 -0.030222178 0.70403039
-0.018134851 -0.010074914 0.70405096
-0.024199685 0.020166397 0.70425093
-0.0061239917 -0.042867929 0.70723134
0.018424217 -0.010235667 0.707932
-0.0020606157 -0.063879073 0.70955926
0.0020558492 -0.059619606 0.70898384
-0.0082346629 -0.047349304 0.70932388
-0.024700534 0.0082335174 0.70928907
-0.0020778067 -0.070645392 0.71163434
-0.012414668 -0.045520455 0.71058476
0.020799834 -0.018719852 0.71189713
0.022707641 2.9802322e-08 0.71000767
0.0020847933 -0.070882946 0.71247768
-0.018758841 -0.035433322 0.71242005
-0.025079383 2.9802322e-08 0.71310002
-0.027195683 0.0083679259 0.71334475
0.0041986443 -0.067178309 0.71423149
-0.010560147 -0.065472901 0.71576536
0.0083904238 -0.060830563 0.71402431
-0.016908724 -0.052839756 0.71595383
-0.016908724 -0.052839756 0.71595383
0.019158762 -0.044703752 0.71778393
-0.0064009866 -0.078945488 0.7183767
-0.012840027 -0.072760135 0.71914232
0.021458507 -0.040771127 0.71984798
0.025747119 -0.01287353 0.71981686
0.012889643 -0.07304129 0.72014046
-0.019549591 -0.067337483 0.72302586
0.019477464 -0.05843237 0.72205842
-0.023863073 -0.043387383 0.72268701
-0.023863073 -0.043387383 0.72268701
0.023833621 -0.028167009 0.72236389
0.019847279 -0.072773337 0.72701854
0.022357207 -0.069307327 0.73069632
-0.029057227 -0.04246819 0.73062992
-0.029588306 -0.054624528 0.73556125
0.025350492 -0.076051474 0.7390095
0.0052387174 0.075088322 0.67161059
0.0099381972 0.077744424 0.67250371
0.010524117 0.082438946 0.67254978
-0.0027189075 0.04712221 0.67959595
-0.0029758653 0.057734739 0.67636603
0.0065435073 0.061266534 0.67622614
-0.017086636 0.073944062 0.67787766
0.00091741735 0.026564024 0.68197227
0.012920194 0.047065288 0.68362164
-0.010901021 0.052688301 0.68013251
0.021097135 0.081618726 0.6822027
-0.014013988 0.0382967 0.68633109
0 -0.0057338774 0.691535
0.0037748311 0.014154419 0.68865216
0.010699528 0.025172394 0.6887157
-0.021027008 0.043965578 0.69156498
-0.006797689 -0.0029138625 0.69521046
0.0038645489 -0.0028996766 0.69406706
0.0038645489 -0.0028996766 0.69406706
-0.018395668 0.022261843 0.6945076
-0.021203028 0.037587106 0.69349653
-0.0060421526 -0.032224804 0.70393836
0.00099611725 -0.034802191 0.70086861
0.0080533512 -0.028186709 0.7038523
-0.0072774542 -0.019184381 0.70037651
-0.014130321 -0.022204787 0.70448959
0.018402221 -0.0092023164 0.70763695
0.016149068 0.0080745816 0.70449156
-0.028518008 0.033609122 0.70670867
0.009291742 -0.046449803 0.71001273
0.017927101 -0.017239761 0.71055317
-0.022053219 -0.013777217 0.71031749
-0.009449413 -0.06193538 0.71424764
0.010429114 -0.053189918 0.71260196
0.021123771 -0.029573262 0.71580738
0.0056581786 -0.073538929 0.71688527
-0.013895573 -0.069463387 0.71881437
-0.024236713 -0.053983703 0.72678733
0.021856233 -0.053549662 0.72464901
0.024987534 -0.038211595 0.72693145
-0.02698455 -0.053969055 0.73226452
