# .PCD v0.7 - Point Cloud Data file format
VERSION 0.7
FIELDS x y z
SIZE 4 4 4
TYPE F F F
COUNT 1 1 1
WIDTH 1332
HEIGHT 1
VIEWPOINT 0 0 0 1 0 0 0
POINTS 1332
DATA ascii
0.0011697069 -0.0023394227 0.69845343
0.0011761044 -0.0035282671 0.69922572
0.0011825725 -0.0047302544 0.70000643
0.0011891118 -0.0059455335 0.70079589
0.0011957239 -0.0071743429 0.701594
0.0012024101 -0.0084168911 0.7024011
0.0012091714 -0.0096733272 0.70321721
0.0012160091 -0.010944039 0.70404261
0.0012229207 -0.012229174 0.70487696
0.0012299153 -0.013529062 0.70572126
0.0012369904 -0.014843881 0.70657527
0.0012441473 -0.016173899 0.70743918
0.0012513875 -0.017519385 0.70831323
0.0012587126 -0.018880665 0.7091974
0.0012661238 -0.02025795 0.71009201
0.0012736229 -0.021651536 0.71099716
0.0012812113 -0.023061782 0.71191317
0.0012888864 -0.024488807 0.71283972
0.0012966582 -0.025933146 0.71377778
0.0013045245 -0.02739501 0.71472734
0.0013124868 -0.028874725 0.71568853
0.0013205468 -0.03037253 0.71666139
0.0013287064 -0.031888932 0.71764636
0.0013369676 -0.033424169 0.71864355
0.0013453321 -0.034978658 0.71965331
0.0013537972 -0.036552519 0.72067511
0.0013623742 -0.038146466 0.72171044
0.0013710606 -0.039760739 0.72275901
0.0013798585 -0.041395724 0.72382098
0.0013887702 -0.043051898 0.72489673
0.0013977976 -0.044729501 0.72598642
0.0014069432 -0.046429127 0.72709042
0.0014162092 -0.048151106 0.7282089
0.001425598 -0.049895912 0.72934228
0.0014351067 -0.051663846 0.73049009
0.0014447488 -0.05345571 0.73165393
0.0014545212 -0.055271804 0.73283356
0.0014644268 -0.057112634 0.73402929
0.0014744682 -0.058978707 0.73524141
0.0014846482 -0.060870558 0.73647022
0.0014949696 -0.062788725 0.73771614
0.0015054358 -0.064733714 0.73897952
0.0015160433 -0.066705883 0.74025995
0.0015268078 -0.068706304 0.74155933
0.001537726 -0.070735395 0.74287724
0.0015488014 -0.072793633 0.74421418
0.0015600377 -0.074881792 0.74557054
0.0015714382 -0.077000469 0.74694669
0.0035966251 0.086319029 0.77433288
0.0034535076 0.081157446 0.76569492
0.0033213294 0.076390594 0.75771725
0.0031988961 0.071975172 0.75032783
0.0030851685 0.067873687 0.74346375
0.0029792613 0.064054132 0.73707169
0.0028803735 0.060487837 0.73110324
0.0027878389 0.057150692 0.72551829
0.0027010746 0.054021508 0.7202816
0.0026195387 0.051081032 0.71536046
0.0025427898 0.048313022 0.71072829
0.002470402 0.045702457 0.70635927
0.0024020215 0.043236405 0.70223218
0.0023373319 0.04090333 0.69832778
0.0022760285 0.038692504 0.69462776
0.0022178651 0.036594778 0.69111735
0.0021625941 0.03460151 0.68778145
0.0021100109 0.032705158 0.68460774
0.0020599298 0.030898958 0.68158507
0.0020121655 0.029176414 0.67870224
0.0020065359 0.02809152 0.67836249
0.0020159413 0.027215213 0.67893016
0.0020254354 0.02633068 0.6795032
0.0020350195 0.025437772 0.68008161
0.0020446891 0.024536282 0.68066525
0.0020544566 0.023626268 0.68125474
0.0020643179 0.022707522 0.68184996
0.0020742745 0.021779895 0.68245089
0.0020843272 0.020843297 0.68305761
0.0020944781 0.019897521 0.68367028
0.0021047282 0.018942595 0.68428892
0.0021150792 0.017978191 0.68491364
0.0021255326 0.017004311 0.68554455
0.0021360896 0.016020685 0.68618172
0.0021467463 0.015027255 0.68682492
0.0021575156 0.01402387 0.68747497
0.0021683939 0.013010383 0.68813145
0.0021793819 0.011986613 0.68879467
0.0021904821 0.010952443 0.68946463
0.0022016962 0.0099076331 0.69014144
0.0022130255 0.0088521242 0.69082522
0.0022244719 0.0077856779 0.69151604
0.0022360375 0.0067081451 0.69221413
0.002247724 0.0056193173 0.69291943
0.0022595264 0.004519105 0.69363183
0.0022714601 0.0034072101 0.69435209
0.002283521 0.0022835433 0.69508004
0.0022957101 0.0011478961 0.69581574
0.0023080304 -0 0.69655931
0.0023204836 -0.0011602044 0.69731092
0.002333072 -0.002333045 0.69807065
0.0023457976 -0.0035186708 0.69883871
0.0023586627 -0.0047173202 0.69961518
0.0023716697 -0.005929172 0.70040023
0.0023848137 -0.0071544349 0.70119357
0.0023981116 -0.0083933473 0.70199621
0.0024115588 -0.0096461773 0.70280772
0.0024251575 -0.010913193 0.70362854
0.0024389101 -0.012194514 0.70445859
0.0024528201 -0.013490498 0.70529807
0.0024668893 -0.014801323 0.70614731
0.0024811211 -0.016127288 0.70700622
0.002495518 -0.017468631 0.70787513
0.0025100748 -0.018825531 0.70875371
0.0025248104 -0.020198494 0.70964313
0.0025397202 -0.02158761 0.71054304
0.0025548073 -0.022993207 0.71145356
0.0025700748 -0.024415702 0.71237504
0.0025855256 -0.025855243 0.71330756
0.0026011635 -0.027312189 0.7142514
0.0026169915 -0.028786898 0.7152068
0.0026330133 -0.030279666 0.71617377
0.0026492237 -0.031790674 0.71715206
0.0026656438 -0.033320516 0.71814317
0.0026822689 -0.034869492 0.71914661
0.0026991027 -0.036437839 0.72016263
0.002716149 -0.038026065 0.72119147
0.0027334122 -0.039634466 0.7222333
0.0027508962 -0.041263431 0.7232886
0.002768605 -0.042913377 0.72435749
0.0027865334 -0.044584513 0.72543955
0.0028047056 -0.046277642 0.72653633
0.0028231167 -0.047992975 0.72764754
0.0028417709 -0.049731016 0.72877336
0.0028606732 -0.051492095 0.72991425
0.0028798289 -0.053276807 0.73107034
0.0028992426 -0.055085599 0.73224211
0.00291892 -0.056918919 0.73342973
0.0029388664 -0.058777332 0.73463362
0.0029590754 -0.060661018 0.73585337
0.0029795764 -0.062571079 0.73709065
0.003000363 -0.064507782 0.73834527
0.0030214419 -0.066471696 0.73961747
0.003042819 -0.068463385 0.74090767
0.0030645009 -0.070483506 0.74221629
0.003086494 -0.072532564 0.74354368
0.0031088048 -0.074611306 0.74489027
0.0031314278 -0.07671997 0.74625576
0.0053525758 0.085641235 0.77262831
0.0051411684 0.080544978 0.76412201
0.0049458472 0.075836331 0.7562629
0.0047648046 0.071472079 0.74897826
0.0045965482 0.067416072 0.74220812
0.0044397693 0.06363672 0.73589981
0.0042933482 0.060106903 0.73000836
0.0041562617 0.056802243 0.72449237
0.0040276726 0.053702325 0.71931839
0.0039067883 0.050788283 0.71445435
0.003792949 0.048044026 0.7098738
0.003685568 0.045455396 0.70555311
0.0035840883 0.043009102 0.7014699
0.0034880582 0.040694028 0.69760597
0.0033970291 0.038499683 0.6939432
0.0033106308 0.036416948 0.69046682
0.0032285275 0.034437627 0.68716323
0.0031503891 0.03255403 0.68401921
0.0030759519 0.030759543 0.68102407
0.0030049433 0.029047787 0.67816687
0.0030027949 0.028026104 0.67808044
0.0030168376 0.027151555 0.67864549
0.0030310119 0.02626878 0.67921585
0.0030453203 0.025377691 0.67979157
0.0030597644 0.024478108 0.68037271
0.0030743459 0.023570001 0.68095946
0.0030890675 0.022653192 0.68155181
0.0031039305 0.021727532 0.68214989
0.0031189374 0.020792931 0.68275368
0.0031340898 0.019849241 0.68336338
0.0031493816 0.018896282 0.68397868
0.003164832 0.017934054 0.68460035
0.0031804349 0.016962379 0.68522811
0.0031961924 0.015980989 0.68586218
0.0032121069 0.014989853 0.68650258
0.0032281806 0.013988763 0.68714929
0.0032444161 0.01297769 0.68780255
0.0032608157 0.011956334 0.68846244
0.0032773819 0.010924608 0.68912899
0.0032941173 0.0098823905 0.68980235
0.0033110147 0.008829385 0.69048226
0.0033280961 0.0077655613 0.69116956
0.0033453547 0.0066907406 0.69186401
0.0033627932 0.0056047142 0.69256568
0.0033804146 0.0045072436 0.69327468
0.0033982215 0.0033982396 0.69399118
0.0034162172 0.0022774935 0.69471532
0.0034344043 0.0011448264 0.69544709
0.003452786 2.9802322e-08 0.69618672
0.0034713659 -0.0011570752 0.69693428
0.0034901358 -0.0023267567 0.69768959
0.003509121 -0.0035091043 0.69845343
0.0035283135 -0.004704386 0.69922566
0.0035477169 -0.0059128404 0.70000643
0.0035673354 -0.0071346462 0.70079577
0.0035871717 -0.0083701015 0.701594
0.00360723 -0.009619236 0.70240104
0.003627514 -0.010882497 0.70321715
0.0036480273 -0.012160063 0.70404255
0.0036687623 -0.013452113 0.70487696
0.0036897459 -0.014758974 0.7057212
0.0037109712 -0.016080856 0.70657527
0.0037324419 -0.017418057 0.70743918
0.0037541627 -0.018770784 0.70831317
0.0037761377 -0.020139366 0.7091974
0.0037983714 -0.021524101 0.71009201
0.0038208687 -0.022925198 0.71099722
0.0038436209 -0.024342895 0.71191269
0.003866659 -0.025777698 0.71283966
0.0038899747 -0.027229816 0.71377778
0.0039135735 -0.028699547 0.71472734
0.0039374605 -0.03018716 0.71568847
0.0039616404 -0.031693101 0.71666145
0.0039861198 -0.033217669 0.71764642
0.0040109027 -0.034761161 0.71864361
0.0040359963 -0.036323994 0.71965325
0.0040613911 -0.037906289 0.72067511
0.0040871226 -0.03950882 0.72171044
0.004113182 -0.041131824 0.72275901
0.0041395756 -0.042775601 0.72382092
0.0041663107 -0.044440627 0.72489667
0.0041933926 -0.04612729 0.72598642
0.0042208293 -0.047836035 0.72709042
0.0042486275 -0.049567312 0.7282089
0.0042767939 -0.051321477 0.72934222
0.0043053208 -0.053098917 0.73049009
0.0043342467 -0.054900438 0.73165393
0.0043635634 -0.056726336 0.73283356
0.0043932805 -0.058577061 0.73402929
0.0044234041 -0.060453176 0.73524141
0.0044539445 -0.062355191 0.73647022
0.0044849087 -0.064283669 0.73771614
0.0045163073 -0.066239148 0.73897946
0.0045481301 -0.068221956 0.74025995
0.0045804232 -0.070233107 0.74155927
0.0046131779 -0.072273105 0.7428773
0.0046464042 -0.07434243 0.74421418
0.0046801129 -0.076441795 0.74557054
0.0070811659 0.084974021 0.77095044
0.0068035787 0.079942048 0.76257348
0.0065469341 0.075289786 0.75482857
0.0063089742 0.070975989 0.7476474
0.0060876808 0.066964507 0.74096936
0.0058813859 0.063224941 0.73474383
0.0056886356 0.059730709 0.72892708
0.0055080983 0.056457996 0.72347891
0.0053386679 0.053386688 0.71836591
0.0051793675 0.050498843 0.71355855
0.0050292816 0.047778189 0.70902932
0.0048876647 0.045210928 0.70475566
0.0047537899 0.042784125 0.70071566
0.0046270536 0.040486723 0.69689107
0.0045069125 0.038308769 0.69326544
0.00439284 0.036240935 0.68982303
0.0042844117 0.034275323 0.68655086
0.0041811951 0.032404274 0.68343604
0.004082846 0.03062138 0.68046808
0.0039890064 0.028920323 0.67763621
0.0039944351 0.027961046 0.67780006
0.0040130718 0.027088255 0.67836249
0.0040318826 0.026207268 0.67893016
0.0040508709 0.025317967 0.6795032
0.0040700389 0.024420261 0.68008161
0.0040893783 0.023513913 0.68066525
0.0041089132 0.022599012 0.68125474
0.0041286359 0.021675348 0.68184996
0.0041485489 0.020742744 0.68245089
0.0041686543 0.01980114 0.68305755
0.0041889562 0.018850327 0.68367022
0.0042094565 0.017890215 0.68428892
0.0042301584 0.016920656 0.68491369
0.0042510652 0.015941501 0.68554455
0.0042721792 0.01495263 0.68618178
0.0042934925 0.013953894 0.68682492
0.0043150312 0.012945116 0.68747491
0.0043367879 0.011926174 0.68813145
0.0043587638 0.010896921 0.68879467
0.0043809642 0.0098571777 0.68946463
0.0044033923 0.0088068247 0.69014144
0.0044260509 0.0077455938 0.69082522
0.0044489438 0.0066734552 0.69151604
0.004472075 0.005590111 0.69221413
0.004495448 0.0044954717 0.69291943
0.0045190528 0.0033893287 0.69363177
0.0045429203 0.0022715032 0.69435203
0.004567042 0.0011417866 0.69508004
0.0045914203 2.9802322e-08 0.69581568
0.0046160608 -0.0011540055 0.69655931
0.0046409671 -0.0023204684 0.69731086
0.004666144 -0.0034995973 0.6980707
0.0046915952 -0.004691571 0.69883877
0.0047173253 -0.0058966279 0.69961524
0.0047433395 -0.0071150064 0.70040029
0.0047696275 -0.0083468258 0.70119357
0.0047962232 -0.0095924139 0.70199615
0.0048231175 -0.010852009 0.70280778
0.0048503149 -0.01212579 0.70362854
0.0048778201 -0.013413996 0.70445853
0.0049056401 -0.014716893 0.70529807
0.0049337787 -0.016034782 0.70614731
0.0049622422 -0.01736781 0.70700622
0.0049910359 -0.018716395 0.70787513
0.0050201495 -0.020080596 0.70875376
0.0050496208 -0.021460831 0.70964313
0.0050794403 -0.022857487 0.71054304
0.0051096147 -0.024270654 0.71145356
0.0051401495 -0.025700718 0.71237504
0.0051710512 -0.027147979 0.71330756
0.0052023269 -0.028612792 0.7142514
0.005233983 -0.030095369 0.71520674
0.0052660089 -0.031596035 0.71617317
0.0052984473 -0.033115268 0.71715212
0.0053312876 -0.034653366 0.71814317
0.0053645377 -0.036210626 0.71914661
0.0053982055 -0.037787408 0.72016251
0.0054322979 -0.039384127 0.72119141
0.0054668244 -0.041001201 0.72223336
0.0055017923 -0.042638868 0.7232886
0.00553721 -0.044297665 0.72435743
0.0055730669 -0.045977801 0.72543949
0.0056094113 -0.047679991 0.72653627
0.0056462334 -0.049404502 0.72764748
0.0056835418 -0.051151842 0.72877336
0.0057213465 -0.052922428 0.72991425
0.0057596578 -0.054716736 0.7310704
0.0057984851 -0.056535214 0.73224211
0.00583784 -0.058378398 0.73342973
0.0058777328 -0.060246736 0.73463356
0.0059181508 -0.062140554 0.73585337
0.0059591527 -0.064060867 0.73709065
0.006000726 -0.066007972 0.73834527
0.0060428837 -0.067982405 0.73961747
0.006085638 -0.069984794 0.74090767
0.0061290017 -0.072015762 0.74221635
0.0061729881 -0.074075818 0.74354374
0.0062176096 -0.076165706 0.74489033
0.0091535663 0.08970499 0.7782439
0.0087830294 0.084317088 0.76929843
0.0084412862 0.079348087 0.76104796
0.0081251413 0.074751288 0.75341558
0.0078318212 0.070486426 0.7463342
0.0075589721 0.066518992 0.73974705
0.0073044663 0.062818408 0.73360276
0.0070665404 0.059358925 0.72785872
0.0068436489 0.056117922 0.72247761
0.0066343662 0.053074926 0.71742511
0.0064375252 0.050212711 0.71267295
0.0062520071 0.047515273 0.70819414
0.0060769022 0.044969082 0.70396674
0.00591132 0.042561501 0.69996923
0.005754522 0.040281653 0.6961838
0.0056058434 0.038119733 0.69259435
0.0054646386 0.036066592 0.68918538
0.005330388 0.03411451 0.68594426
0.0052025602 0.032255918 0.68285823
0.0050807209 0.030484349 0.6799168
0.0049644699 0.028793931 0.6771102
0.0049814843 0.027896374 0.67752099
0.0050046584 0.027025163 0.6780805
0.0050280625 0.026145935 0.67864549
0.0050516869 0.025258422 0.67921579
0.0050755334 0.024362624 0.67979151
0.0050996072 0.023458213 0.68037271
0.00512391 0.022545218 0.68095946
0.0051484457 0.021623492 0.68155175
0.0051732175 0.020692885 0.68214989
0.0051982286 0.019753277 0.68275368
0.0052234833 0.01880458 0.68336332
0.0052489694 0.017846495 0.68397868
0.0052747205 0.016879082 0.68460035
0.0053007249 0.015902191 0.68522811
0.0053269877 0.014915556 0.68586218
0.0053535118 0.013919145 0.68650258
0.0053803008 0.01291272 0.68714929
0.0054073599 0.011896223 0.68780255
0.0054346928 0.010869414 0.68846244
0.0054623028 0.0098321736 0.68912899
0.0054901955 0.0087843239 0.68980235
0.0055183577 0.0077256858 0.69048226
0.0055468269 0.0066561997 0.69116962
0.0055755912 0.0055755973 0.69186401
0.0056046555 0.0044837594 0.69256568
0.0056340243 0.0033804178 0.69327474
0.0056637023 0.0022655129 0.69399118
0.005693695 0.0011387467 0.69471532
0.0057240073 -0 0.69544703
0.0057546436 -0.0011508763 0.69618666
0.0057856096 -0.0023142397 0.69693434
0.0058168932 -0.00349015 0.69768953
0.0058485349 -0.0046788454 0.69845349
0.0058805221 -0.0058805048 0.69922566
0.0059128618 -0.0070953965 0.70000648
0.0059455591 -0.008323729 0.70079583
0.0059786197 -0.0095657706 0.701594
0.00601205 -0.01082167 0.70240104
0.0060458565 -0.012091696 0.70321721
0.0060800454 -0.013376087 0.70404261
0.0061146035 -0.014675051 0.7048769
0.0061495765 -0.015988857 0.7057212
0.0061849519 -0.017317861 0.70657527
0.0062207365 -0.018662184 0.70743918
0.006256938 -0.020022154 0.70831317
0.0062935632 -0.021398097 0.7091974
0.0063306191 -0.022790194 0.71009201
0.0063681146 -0.02419883 0.71099722
0.0064060348 -0.025624126 0.71191269
0.0064444314 -0.027066559 0.71283966
0.0064832913 -0.028526485 0.71377778
0.0065226224 -0.030004054 0.7147274
0.0065624341 -0.031499654 0.71568847
0.0066027339 -0.033013672 0.71666145
0.0066435323 -0.034546375 0.71764648
0.0066848379 -0.036098123 0.71864361
0.0067266608 -0.037669301 0.71965325
0.0067689857 -0.039260089 0.72067511
0.0068118712 -0.040871233 0.72171044
0.0068553034 -0.04250285 0.72275901
0.006899293 -0.044155449 0.72382104
0.0069438512 -0.045829386 0.72489673
0.0069889878 -0.047525108 0.72598636
0.0070347157 -0.049243003 0.72709036
0.0070810458 -0.050983548 0.7282089
0.0071279635 -0.052746922 0.72934163
0.007175534 -0.054534078 0.73049003
0.0072237444 -0.056345165 0.73165393
0.0072726062 -0.058180839 0.73283362
0.007322134 -0.060041517 0.73402929
0.0073723407 -0.061927617 0.73524129
0.0074232407 -0.063839853 0.73647022
0.0074748485 -0.065778643 0.73771614
0.0075271786 -0.067744583 0.73897946
0.007580217 -0.069737971 0.74025995
0.0076340381 -0.071759939 0.74155933
0.0076886294 -0.073810816 0.74287724
0.0077440073 -0.075891256 0.74421418
0.010896489 0.088988006 0.77647775
0.010458734 0.083669931 0.76767075
0.010054837 0.078762919 0.75954503
0.0096809343 0.074220508 0.75202274
0.0093338434 0.070003837 0.74503976
0.0090108151 0.066079319 0.73854095
0.0087093646 0.06241712 0.73247623
0.0084274309 0.058991998 0.72680414
0.0081632063 0.05578196 0.72148836
0.00791502 0.05276683 0.71649528
0.0076815048 0.049929827 0.71179724
0.007461349 0.047255248 0.70736808
0.007253462 0.04472971 0.70318568
0.0070568668 0.042341232 0.69923055
0.006870626 0.0400787 0.69548362
0.0066939825 0.037932605 0.69192982
0.0065261764 0.035894006 0.68855381
0.006366577 0.033955097 0.68534297
0.006214615 0.032108873 0.68228573
0.0060697212 0.030348629 0.67937064
0.0059365155 0.028693169 0.67669082
0.0059639569 0.027831793 0.67724288
0.0059916531 0.026962459 0.67780006
0.0060196077 0.02608496 0.67836249
0.0060478239 0.025199264 0.67893016
0.0060763066 0.024305254 0.6795032
0.0061050588 0.02340275 0.68008161
0.006134084 0.022491664 0.68066555
0.0061633699 0.021571785 0.68125474
0.0061929538 0.020643204 0.68184996
0.0062228232 0.019705594 0.68245089
0.0062529817 0.018758953 0.68305761
0.0062834346 0.017803103 0.68367022
0.006314185 0.016837835 0.68428892
0.0063452376 0.015863091 0.68491364
0.0063765976 0.01487875 0.68554455
0.0064082691 0.013884604 0.68618172
0.0064402567 0.012880534 0.68682534
0.0064725652 0.011866391 0.68747526
0.0065051811 0.010841995 0.68813151
0.0065381462 0.0098072588 0.68879461
0.006571447 0.0087619424 0.68946463
0.0066050887 0.0077059567 0.69014144
0.0066390764 0.0066390634 0.69082522
0.0066734157 0.0055612028 0.6915161
0.0067081125 0.0044721067 0.69221413
0.0067431717 0.0033715963 0.69291943
0.0067785997 0.0022595525 0.69363225
0.0068144011 0.0011357665 0.69435251
0.006850563 -0 0.69508004
0.0068871314 -0.0011478364 0.69581568
0.0069240918 -0.0023080111 0.69655931
0.0069614509 -0.0034807026 0.69731092
0.006999216 -0.0046661496 0.6980707
0.0070373928 -0.005864501 0.69883871
0.0070759882 -0.0070759952 0.69961524
0.0071150097 -0.0083008111 0.70040023
0.0071544633 -0.0095392466 0.70119399
0.0071943346 -0.010791481 0.70199615
0.0072346758 -0.012057751 0.70280778
0.0072754719 -0.013338387 0.70362854
0.0073167309 -0.014633447 0.70445859
0.0073584602 -0.015943348 0.70529813
0.0074006682 -0.01726824 0.70614731
0.0074433633 -0.018608391 0.70700622
0.0074865543 -0.019964099 0.70787519
0.007530224 -0.021335602 0.70875371
0.0075744311 -0.022723258 0.70964313
0.0076191612 -0.024127334 0.71054304
0.007664422 -0.025548071 0.71145362
0.007710224 -0.026985765 0.71237504
0.0077565769 -0.028440744 0.71330756
0.0078034899 -0.029913366 0.71425146
0.0078509748 -0.031403869 0.71520674
0.0078990404 -0.032912672 0.71617377
0.0079476703 -0.034439892 0.71715212
0.0079969317 -0.035986185 0.71814317
0.0080468068 -0.037551761 0.71914661
0.0080973078 -0.039136976 0.72016257
0.0081484476 -0.040742218 0.72119141
0.0082002366 -0.042367846 0.72223336
0.0082526887 -0.044014305 0.7232886
0.008305815 -0.045681953 0.72435743
0.0083596008 -0.04737106 0.72543949
0.0084141167 -0.049082339 0.72653627
0.0084693497 -0.050816089 0.72764754
0.0085253129 -0.052572727 0.72877336
0.0085820202 -0.05435276 0.72991419
0.0086394865 -0.056156665 0.7310704
0.0086977277 -0.057984859 0.73224211
0.0087567596 -0.059837848 0.73342979
0.0088165645 -0.061715961 0.73463291
0.0088772262 -0.06362012 0.73585331
0.0089387279 -0.065550655 0.73709071
0.0090010883 -0.067508191 0.73834527
0.0090643261 -0.069493145 0.73961747
0.0091284569 -0.071506262 0.74090773
0.0091935024 -0.073547989 0.74221635
0.009259481 -0.075619072 0.74354374
0.012611772 0.088282436 0.7747395
0.012108963 0.083032876 0.76606894
0.011644711 0.078185946 0.75806308
0.011214789 0.073697209 0.75064945
0.010815439 0.069527894 0.74376285
0.010443551 0.065645188 0.73734993
0.010096426 0.062020898 0.73136401
0.0097715994 0.058629602 0.72576249
0.009467056 0.055449933 0.72051084
0.0091808895 0.05246225 0.71557605
0.0089115156 0.049649894 0.71093094
0.0086575262 0.046998024 0.70655102
0.0084175877 0.04449296 0.70241344
0.0081906151 0.042123169 0.69849944
0.0079755373 0.039877713 0.69479054
0.0077714664 0.037747145 0.69127148
0.007577599 0.035722941 0.68792832
0.0073931487 0.033797234 0.68474758
0.0072174836 0.03196317 0.68171841
0.0070499545 0.030214131 0.67882943
0.0069100466 0.028627336 0.67641681
0.0069419141 0.027767628 0.67696637
0.0069740773 0.026900023 0.67752099
0.0070065395 0.026024312 0.6780808
0.0070392871 0.025140345 0.67864549
0.0070723612 0.024248093 0.67921585
0.0071057472 0.023347467 0.67979157
0.0071394499 0.022438288 0.68037277
0.0071734744 0.021520436 0.68095946
0.0072078239 0.020593792 0.68155181
0.0072425045 0.019658208 0.68214989
0.0072775204 0.018713593 0.68275368
0.0073128766 0.01775986 0.68336338
0.0073485775 0.016796738 0.68397903
0.007384608 0.015824169 0.68460035
0.0074210153 0.014842063 0.68522817
0.007457783 0.013850212 0.68586218
0.0074949162 0.012848437 0.68650258
0.0075324215 0.011836648 0.68714929
0.0075703044 0.010814756 0.68780255
0.0076085697 0.0097824931 0.68846238
0.0076472242 0.0087397099 0.68912899
0.0076862732 0.0076862872 0.68980235
0.0077257231 0.0066220462 0.69048268
0.0077655576 0.005546838 0.69116956
0.0078058275 0.0044604838 0.69186401
0.0078465175 0.0033628047 0.69256568
0.0078876335 0.0022536218 0.69327474
0.0079291835 0.0011327565 0.69399124
0.0079711732 -0 0.69471532
0.0080136098 -0.0011447966 0.69544709
0.0080565009 -0.002301842 0.69618672
0.0080998531 -0.0034713745 0.69693434
0.0081436504 -0.0046534836 0.69768953
0.0081879487 -0.005848527 0.69845343
0.0082327314 -0.0070566237 0.69922572
0.0082780067 -0.0082780123 0.70000648
0.0083237821 -0.0095128715 0.70079583
0.0083700679 -0.010761499 0.70159394
0.0084168697 -0.012024105 0.70240104
0.0084641995 -0.013300866 0.70321721
0.0085120639 -0.014592081 0.70404261
0.0085604452 -0.015897959 0.70487696
0.0086094076 -0.017218798 0.70572126
0.0086589335 -0.018554837 0.70657527
0.0087090312 -0.019906372 0.70743918
0.0087597128 -0.021273553 0.70831317
0.0088109877 -0.022656828 0.7091974
0.008862867 -0.024056315 0.71009195
0.008915361 -0.025472462 0.71099722
0.008968479 -0.026905447 0.71191323
0.0090222042 -0.028355509 0.71283966
0.0090766074 -0.029823124 0.71377784
0.0091316719 -0.031308562 0.7147274
0.0091874078 -0.032812148 0.71568847
0.0092438273 -0.034334183 0.71666145
0.0093009453 -0.035875052 0.71764636
0.0093587739 -0.037435055 0.71864355
0.0094173253 -0.039014608 0.71965325
0.0094765807 -0.04061386 0.72067505
0.0095366193 -0.042233586 0.7217105
0.0095974244 -0.043873906 0.72275901
0.00965901 -0.045535326 0.72382092
0.0097213909 -0.047218174 0.72489667
0.009784583 -0.048922896 0.72598642
0.0098486012 -0.050649911 0.72709036
0.0099134641 -0.052399725 0.7282089
0.0099791866 -0.054172695 0.72934228
0.010045748 -0.055969149 0.73049009
0.010113242 -0.057789922 0.73165393
0.010181649 -0.059635371 0.73283356
0.010250987 -0.061505884 0.73402923
0.010321277 -0.063402116 0.73524141
0.010392537 -0.065324515 0.73647022
0.010464787 -0.067273587 0.73771608
0.01053805 -0.069250017 0.73897952
0.010612303 -0.071254015 0.74025995
0.010687654 -0.073286742 0.74155933
0.010764082 -0.075348556 0.74287724
0.014300067 0.087587923 0.77302861
0.013734257 0.082405567 0.76449126
0.013211518 0.077617735 0.75660378
0.012727166 0.073181212 0.74929541
0.012277021 0.069058239 0.74250329
0.011857631 0.065216988 0.73617518
0.011465992 0.061629742 0.73026574
0.011099354 0.058271617 0.72473365
0.010755438 0.05512166 0.71954435
0.010432229 0.052161127 0.7146675
0.010127845 0.049373269 0.71007472
0.0098407529 0.046743572 0.70574284
0.0095694577 0.044258773 0.70164931
0.0093127182 0.041907221 0.69777542
0.0090694232 0.039678752 0.69410437
0.0088384915 0.037563622 0.69061983
0.0086190514 0.035553604 0.68730879
0.008410221 0.033640921 0.68415773
0.0082112709 0.031818688 0.68115586
0.0080215363 0.030080795 0.67829299
0.0078791007 0.028561741 0.67614377
0.0079153543 0.027703762 0.67669082
0.0079519423 0.026837796 0.67724288
0.0079888701 0.025963843 0.67780006
0.0080261435 0.025081724 0.67836249
0.0080637652 0.02419132 0.6789301
0.0081017418 0.023292542 0.67950314
0.0081400778 0.02238524 0.68008161
0.0081787789 0.021469355 0.68066555
0.0082178488 0.020544618 0.6812551
0.0082572717 0.019611031 0.68184996
0.0082970979 0.018668473 0.68245089
0.0083373087 0.017716795 0.68305761
0.0083779125 0.016755819 0.68367022
0.008418913 0.015785486 0.68428886
0.0084603168 0.014805585 0.68491364
0.0085021304 0.013815969 0.68554455
0.0085443584 0.012816548 0.68618172
0.0085870093 0.011807173 0.68682528
0.0086300876 0.010787606 0.68747532
0.0086735757 0.0097577572 0.68813145
0.0087175276 0.0087175369 0.68879467
0.0087619284 0.007666707 0.68946463
0.0088067846 0.0066050887 0.69014144
0.0088521019 0.0055325925 0.69082522
0.0088978875 0.0044489801 0.6915161
0.0089441501 0.0033540726 0.69221413
0.0089908959 0.0022477508 0.69291949
0.0090381326 0.0011297762 0.69363225
0.0090858685 -0 0.69435251
0.009134084 -0.001141727 0.69507998
0.0091828406 -0.0022957027 0.69581568
0.0092321215 -0.0034620464 0.69655931
0.0092819342 -0.0046409369 0.69731092
0.0093322881 -0.0058326721 0.69807065
0.0093831904 -0.0070373714 0.69883871
0.0094346507 -0.0082553327 0.69961524
0.009486679 -0.0094866753 0.70040023
0.0095392549 -0.010731637 0.70119357
0.0095924465 -0.011990517 0.70199615
0.009646235 -0.013263524 0.70280772
0.0097006299 -0.014550924 0.70362854
0.0097556403 -0.015852898 0.70445859
0.0098112803 -0.017169714 0.70529813
0.0098675573 -0.018501669 0.70614725
0.0099244844 -0.019848973 0.70700622
0.0099820718 -0.021211892 0.70787519
0.010040299 -0.022590637 0.70875371
0.010099242 -0.023985654 0.70964313
0.010158881 -0.025397182 0.71054304
0.010219229 -0.026825458 0.71145362
0.010280299 -0.028270811 0.71237504
0.010342102 -0.029733539 0.71330762
0.010404654 -0.031213939 0.71425146
0.010467966 -0.0327124 0.71520674
0.010532018 -0.03422904 0.71617323
0.010596895 -0.035764515 0.71715212
0.010662575 -0.037318975 0.71814317
0.010729075 -0.038892895 0.71914655
0.010796411 -0.040486544 0.72016257
0.010864596 -0.042100251 0.72119141
0.010933649 -0.04373455 0.7222333
0.011003585 -0.045389771 0.7232886
0.01107442 -0.047066301 0.72435743
0.011146134 -0.048764318 0.72543955
0.011218823 -0.050484687 0.72653633
0.011292467 -0.052227646 0.72764748
0.011367084 -0.053993642 0.72877336
0.011442693 -0.055783123 0.72991419
0.011519316 -0.057596534 0.73107034
0.01159697 -0.059434503 0.73224211
0.01167568 -0.061297297 0.73342973
0.011755419 -0.063185364 0.73463291
0.011836302 -0.065099627 0.73585337
0.011918305 -0.067040443 0.73709071
0.012001452 -0.06900835 0.73834527
0.012085767 -0.071003884 0.73961753
0.012171276 -0.073027641 0.74090767
0.012258003 -0.075080276 0.74221635
0.015962007 0.086904287 0.77134454
0.015335175 0.081787616 0.76293731
0.014755716 0.07705766 0.75516534
0.014218452 0.072672129 0.74795943
0.013718992 0.068594992 0.74126053
0.013253381 0.064794362 0.73501563
0.012818338 0.061243206 0.72918069
0.012410992 0.057918012 0.72371721
0.012028697 0.054797381 0.71858978
0.011669288 0.051863521 0.71376932
0.011330698 0.049099714 0.70922798
0.011011201 0.046491772 0.70494282
0.010709262 0.044027001 0.70089316
0.010423409 0.041693687 0.69705915
0.010152448 0.039481759 0.693425
0.0098951897 0.037381858 0.68997455
0.0096506476 0.035385728 0.68669468
0.009417926 0.033485979 0.68357331
0.0091961389 0.031675637 0.68059868
0.0089845816 0.029948622 0.6777612
0.008843747 0.028496534 0.67587233
0.0088843461 0.027640194 0.67641681
0.0089253187 0.026775986 0.67696631
0.0089666704 0.025903732 0.67752105
0.0090084085 0.025023371 0.6780808
0.0090505127 0.024134696 0.67864549
0.0090930359 0.023237765 0.67921579
0.0091359606 0.02233237 0.67979157
0.0091792932 0.021418363 0.68037277
0.0092230383 0.020495653 0.68095946
0.0092672016 0.019564092 0.68155181
0.0093117915 0.01862359 0.68214989
0.0093568116 0.017673969 0.68275368
0.0094022695 0.016715139 0.68336332
0.0094481716 0.015746981 0.68397897
0.0094944965 0.014769286 0.68460029
0.0095413057 0.013781905 0.68522817
0.0095885778 0.012784809 0.68586218
0.0096363211 0.011777759 0.68650258
0.0096845431 0.010760605 0.68714929
0.0097332485 0.0097332597 0.68780255
0.0097824475 0.008695513 0.68846238
0.0098321456 0.0076472461 0.68912899
0.0098823514 0.0065882802 0.68980235
0.0099330731 0.005518347 0.69048268
0.0099842884 0.0044374466 0.69116956
0.010036064 0.0033453405 0.69186401
0.01008838 0.0022418797 0.69256568
0.010141243 0.0011268258 0.69327468
0.010194665 2.9802322e-08 0.69399118
0.010248651 -0.0011387169 0.69471532
0.010303213 -0.0022895634 0.69544703
0.010358358 -0.0034527779 0.69618672
0.010414097 -0.0046284795 0.69693428
0.010470408 -0.0058168769 0.69768959
0.010527362 -0.0070182085 0.69845343
0.01058494 -0.0082327127 0.69922566
0.010643151 -0.0094605684 0.70000648
0.010702006 -0.010701984 0.70079583
0.010761515 -0.011957228 0.701594
0.010821691 -0.013226509 0.70240104
0.010882542 -0.014510036 0.70321721
0.010944082 -0.015808076 0.70404255
0.011006286 -0.017120868 0.7048769
0.011069238 -0.01844871 0.70572126
0.011132913 -0.019791842 0.70657527
0.011197327 -0.0211505 0.70743918
0.011262489 -0.022524983 0.70831323
0.011328413 -0.023915529 0.7091974
0.011395114 -0.025322467 0.71009201
0.011462606 -0.026746064 0.71099716
0.011530863 -0.02818653 0.71191269
0.011599977 -0.0296444 0.71283966
0.011669924 -0.031119794 0.71377784
0.011740721 -0.032613069 0.71472734
0.011812381 -0.034124672 0.71568847
0.011884921 -0.035654753 0.71666145
0.011958359 -0.037203759 0.71764636
0.012032709 -0.038772047 0.71864361
0.012107989 -0.040359944 0.71965325
0.012184174 -0.04196769 0.72067511
0.012261367 -0.04359597 0.72171044
0.012339546 -0.045245022 0.72275901
0.012418727 -0.046915174 0.72382092
0.012498931 -0.048606962 0.72489673
0.012580178 -0.050320685 0.72598642
0.012662489 -0.052056879 0.72709042
0.012745882 -0.053815901 0.7282089
0.012830382 -0.055598319 0.72934228
0.012915961 -0.05740425 0.73049003
0.013002739 -0.059234709 0.73165393
0.013090691 -0.061089873 0.73283356
0.013179841 -0.06297034 0.73402929
0.013270212 -0.064876586 0.73524141
0.013361833 -0.066809148 0.73647022
0.013454727 -0.068768561 0.73771614
0.013548922 -0.070755512 0.73897952
0.013644391 -0.072770059 0.74026
0.01374127 -0.074813545 0.74155927
0.017598122 0.086230844 0.76968545
0.016912261 0.081178874 0.76140642
0.016277788 0.076505631 0.75374764
0.015689196 0.072170347 0.74664271
0.015141687 0.068137586 0.74003363
0.014631159 0.064377159 0.73387104
0.014153881 0.060861677 0.72810978
0.013706806 0.05756858 0.72271311
0.013287065 0.054477006 0.71764636
0.012892266 0.051569074 0.71288073
0.012520294 0.048829168 0.70839059
0.012169144 0.046242774 0.70415187
0.011837192 0.043797612 0.70014489
0.011522834 0.04148221 0.69635022
0.01122474 0.039286584 0.69275194
0.010941712 0.037201822 0.68933547
0.010672577 0.03521952 0.68608671
0.010416391 0.033332467 0.68299425
0.010172189 0.031533808 0.68004656
0.009939176 0.029817522 0.67723382
0.0098039974 0.028431594 0.67560208
0.0098488759 0.027576864 0.67614377
0.0098941922 0.026714355 0.67669082
0.0099399285 0.025843829 0.67724288
0.0099860886 0.024965227 0.67780006
0.010032679 0.024078488 0.67836249
0.010079707 0.023183346 0.67893016
0.010127178 0.022279829 0.67950314
0.010175097 0.021367699 0.68008161
0.010223473 0.020446986 0.68066555
0.010272311 0.019517422 0.6812551
0.010321589 0.018578887 0.68184996
0.010371371 0.017631352 0.68245083
0.010421637 0.016674668 0.68305761
0.010472391 0.015708625 0.68367022
0.010523641 0.014733106 0.68428898
0.010575396 0.01374805 0.68491364
0.010627663 0.012753218 0.68554461
0.010680448 0.011748523 0.68618178
0.010733761 0.010733783 0.68682528
0.010787608 0.0097088814 0.68747526
0.010841968 0.0086735785 0.68813151
0.01089691 0.0076278746 0.68879467
0.010952411 0.0065714717 0.68946457
0.011008481 0.0055042505 0.69014144
0.011065127 0.0044260621 0.69082522
0.01112236 0.0033367276 0.69151604
0.011180188 0.0022360682 0.69221413
0.01123862 0.0011238754 0.69291949
0.011297666 2.9802322e-08 0.69363225
0.011357336 -0.0011356771 0.69435245
0.011417605 -0.0022835135 0.69508004
0.011478552 -0.0034435093 0.69581568
0.011540152 -0.0046160519 0.69655925
0.011602418 -0.0058012009 0.69731092
0.011665359 -0.0069991946 0.69807065
0.011728988 -0.0082102716 0.69883877
0.011793314 -0.0094346106 0.69961524
0.011858349 -0.01067251 0.70040029
0.011924068 -0.011924058 0.70119351
0.011990557 -0.013189584 0.70199621
0.012057793 -0.014469355 0.70280778
0.012125786 -0.015763491 0.70362854
0.012194552 -0.01707238 0.70445859
0.0122641 -0.018396139 0.70529807
0.012334446 -0.019735098 0.70614731
0.012405606 -0.021089494 0.70700622
0.012477549 -0.022459596 0.70787466
0.012550373 -0.023845702 0.70875371
0.012624052 -0.02524808 0.70964313
0.012698602 -0.026667058 0.71054304
0.012774037 -0.028102875 0.71145356
0.012850373 -0.029555857 0.71237504
0.012927628 -0.031026274 0.71330762
0.013005817 -0.032514542 0.7142514
0.013084957 -0.034020871 0.71520674
0.013165021 -0.035545528 0.71617317
0.013246117 -0.037089109 0.71715212
0.013328219 -0.038651794 0.71814317
0.013411345 -0.040233999 0.71914661
0.013495513 -0.041836083 0.72016263
0.013580745 -0.043458372 0.72119141
0.013667061 -0.045101285 0.72223336
0.013754481 -0.046765178 0.7232886
0.013842975 -0.04845044 0.72435683
0.013932668 -0.050157607 0.72543949
0.014023528 -0.051887035 0.72653627
0.014115583 -0.053639203 0.72764748
0.014208854 -0.055414498 0.72877336
0.014303367 -0.057213455 0.72991419
0.014399144 -0.059036463 0.7310704
0.014496213 -0.060884088 0.73224211
0.014594601 -0.062756747 0.73342973
0.014694274 -0.064654797 0.73463291
0.014795378 -0.066579193 0.73585337
0.014897881 -0.068530232 0.73709071
0.015001815 -0.07050854 0.73834527
0.01510721 -0.072514594 0.73961747
0.015214095 -0.074549049 0.74090767
0.019209163 0.08556813 0.76805282
0.018465964 0.080578774 0.75989723
0.017778207 0.075961441 0.75235003
0.017139772 0.07167542 0.74534398
0.016545601 0.067686558 0.73882377
0.015991306 0.063965231 0.73274112
0.015472888 0.060484946 0.72705209
0.014987028 0.057223201 0.72172046
0.014530801 0.054160267 0.71671396
0.014101485 0.051278144 0.71200275
0.013696852 0.048561573 0.70756245
0.013314751 0.045996457 0.70336938
0.01295339 0.043570518 0.69940388
0.012611165 0.041272938 0.69564843
0.01228652 0.039093494 0.69208592
0.011978203 0.037023544 0.68870252
0.01168495 0.035054862 0.68548447
0.011405744 0.033180386 0.68242049
0.01113954 0.03139329 0.67949927
0.010885478 0.029687703 0.67671132
0.010759856 0.028366894 0.67533273
0.010809025 0.027513921 0.67587233
0.010858645 0.026653051 0.67641681
0.010908722 0.025784254 0.67696637
0.010959265 0.02490744 0.67752099
0.011010276 0.02402246 0.6780808
0.011061766 0.023129165 0.67864579
0.01111371 0.022227436 0.67921585
0.011166175 0.021317273 0.67979157
0.011219136 0.020398438 0.68037277
0.011272602 0.01947087 0.68095946
0.01132658 0.018534452 0.68155181
0.011381078 0.017588973 0.68214983
0.011436104 0.016634345 0.68275368
0.011491663 0.015670449 0.68336338
0.011547764 0.014697164 0.68397903
0.011604417 0.013714343 0.68460071
0.011661595 0.012721747 0.68522817
0.011719373 0.011719346 0.68586218
0.011777725 0.010707051 0.68650258
0.011836662 0.0096845925 0.68714929
0.011896192 0.008651793 0.68780255
0.011956325 0.0076086223 0.68846238
0.012017066 0.0065548122 0.68912899
0.01207843 0.0054902136 0.68980235
0.012140422 0.0044147074 0.69048262
0.012203055 0.0033281147 0.69116998
0.012266301 0.0022302568 0.69186401
0.012330242 0.0011209249 0.69256568
0.012394853 5.9604645e-08 0.69327474
0.012460145 -0.0011327267 0.69399118
0.012526129 -0.0022774637 0.69471532
0.012592816 -0.0034343898 0.69544709
0.012660216 -0.0046037138 0.69618666
0.012728341 -0.0057855844 0.69693428
0.012797165 -0.0069802701 0.69768953
0.012866776 -0.0081879199 0.69845343
0.012937149 -0.0094088316 0.69922566
0.013008296 -0.010643125 0.70000643
0.013080229 -0.011891127 0.70079583
0.013152963 -0.013152957 0.701594
0.01322651 -0.014428884 0.70240104
0.013300885 -0.015719235 0.70321727
0.0133761 -0.01702413 0.70404255
0.013452129 -0.018343806 0.70487696
0.013529069 -0.019678622 0.70572126
0.013606894 -0.021028847 0.70657527
0.01368562 -0.022394598 0.70743918
0.013765263 -0.023776352 0.70831317
0.013845838 -0.025174201 0.7091974
0.013927363 -0.026588559 0.71009195
0.014009852 -0.028019667 0.71099722
0.014093277 -0.029467762 0.71191275
0.01417775 -0.030933231 0.71283966
0.014263241 -0.032416433 0.71377778
0.014349769 -0.033917636 0.7147274
0.014437355 -0.035437107 0.71568847
0.014526015 -0.036975294 0.71666139
0.014615771 -0.038532466 0.71764642
0.014706643 -0.040109009 0.71864361
0.014798653 -0.041705281 0.71965331
0.014891768 -0.04332149 0.72067511
0.014986116 -0.044958353 0.7217105
0.015081666 -0.046616018 0.72275895
0.015178444 -0.048295021 0.72382104
0.015276472 -0.04999572 0.72489667
0.015375773 -0.051718503 0.72598636
0.015476375 -0.053463846 0.72709036
0.015578301 -0.055232167 0.7282089
0.01568152 -0.057023704 0.72934157
0.015786175 -0.058839381 0.73049009
0.015892237 -0.060679436 0.73165393
0.015999734 -0.062544435 0.73283362
0.016108694 -0.064434737 0.73402923
0.01621915 -0.066351056 0.73524129
0.016331131 -0.06829381 0.73647022
0.016444666 -0.070263535 0.73771614
0.016559793 -0.072260886 0.73897952
0.016676478 -0.074286133 0.74026
0.020795628 0.084915519 0.76644516
0.019996952 0.079987824 0.75841111
0.019257352 0.075424671 0.75097132
0.018570587 0.071187258 0.74406302
0.01793105 0.06724143 0.73762977
0.017334092 0.0635584 0.73162484
0.016775664 0.060112834 0.72600746
0.016252037 0.056882143 0.7207402
0.015760161 0.053847253 0.7157923
0.015297133 0.050990433 0.71113461
0.014860586 0.048296928 0.70674324
0.014448217 0.045752704 0.70259517
0.014058116 0.043345898 0.6986711
0.013688568 0.041065723 0.69495368
0.013337912 0.038902223 0.6914264
0.013004809 0.036846966 0.68807566
0.012687904 0.034891725 0.68488777
0.012386075 0.033029556 0.68185163
0.012098306 0.031253994 0.67895687
0.011823574 0.029558957 0.6761933
0.011711403 0.02830261 0.67506492
0.011764797 0.027451217 0.67560208
0.011818651 0.026591957 0.67614377
0.011873031 0.025724918 0.67669082
0.011927914 0.024849832 0.67724288
0.011983306 0.02396664 0.67780006
0.012039215 0.023075193 0.67836249
0.012095648 0.022175372 0.67893016
0.012152613 0.021267116 0.6795032
0.012210118 0.020350248 0.68008161
0.012268168 0.019424647 0.68066555
0.012326774 0.018490165 0.6812551
0.012385908 0.017546713 0.68184996
0.012445646 0.016594231 0.68245083
0.012505963 0.015632451 0.68305755
0.012566869 0.014661402 0.68367028
0.01262837 0.013680726 0.68428892
0.012690475 0.012690514 0.68491364
0.012753195 0.011690468 0.68554461
0.012816538 0.010680437 0.68618178
0.012880513 0.0096604228 0.68682528
0.01294513 0.0086300969 0.68747532
0.013010399 0.0075893998 0.68813187
0.013076292 0.0065381527 0.68879473
0.013142894 0.0054762065 0.68946463
0.013210177 0.0044034123 0.69014144
0.013278153 0.0033195615 0.69082522
0.013346831 0.0022244751 0.6915161
0.013416225 0.0011180341 0.69221413
0.013486343 2.9802322e-08 0.69291949
0.013557199 -0.0011297464 0.69363219
0.013628762 -0.0022714734 0.69435209
0.013701126 -0.0034252703 0.69508004
0.013774263 -0.0045914352 0.69581568
0.013848184 -0.0057700574 0.69655931
0.013922902 -0.0069614053 0.69731086
0.013998432 -0.0081657171 0.69807065
0.014074786 -0.0093831718 0.69883877
0.014151976 -0.010613978 0.69961524
0.014230019 -0.011858344 0.70040023
0.014308882 -0.013116449 0.70119357
0.014388669 -0.014388651 0.70199615
0.014469352 -0.015675128 0.70280778
0.014550944 -0.016976088 0.70362854
0.014633462 -0.018291801 0.70445859
0.01471692 -0.019622564 0.70529807
0.014801336 -0.020968556 0.70614725
0.014886727 -0.022330046 0.70700622
0.014973059 -0.02370733 0.70787466
0.015060448 -0.025100708 0.70875376
0.015148862 -0.026510477 0.70964313
0.015238322 -0.027936935 0.71054304
0.015328844 -0.029380292 0.71145362
0.015420448 -0.030840874 0.71237504
0.015513154 -0.032319069 0.71330762
0.01560698 -0.033815116 0.7142514
0.01570195 -0.035329372 0.71520674
0.015798027 -0.036862046 0.71617317
0.015895341 -0.038413733 0.71715212
0.015993863 -0.039984614 0.71814317
0.016093614 -0.041575164 0.71914661
0.016194616 -0.043185592 0.72016257
0.016296895 -0.044816434 0.72119141
0.016400473 -0.04646799 0.7222333
0.016505377 -0.048140645 0.7232886
0.01661157 -0.049834728 0.72435683
0.016719202 -0.051550835 0.72543949
0.016828233 -0.053289413 0.72653633
0.016938699 -0.055050761 0.72764748
0.017050626 -0.056835383 0.72877342
0.01716404 -0.058643758 0.72991425
0.017278973 -0.060476422 0.7310704
0.017395455 -0.062333733 0.73224211
0.017513519 -0.064216226 0.73342979
0.017633129 -0.066124231 0.73463291
0.017754452 -0.068058759 0.73585331
0.017877456 -0.07002005 0.73709071
0.018002177 -0.072008729 0.73834527
0.018128652 -0.074025333 0.73961753
0.02328077 0.089541435 0.77342945
0.02235808 0.084272742 0.76486182
0.021505646 0.079405487 0.75694668
0.020715825 0.07489571 0.74961281
0.019982046 0.070705712 0.7427994
0.019298393 0.066802144 0.73645139
0.018659974 0.063156813 0.73052335
0.018062508 0.059745252 0.72497559
0.017502055 0.056545109 0.7197715
0.016975392 0.053537756 0.71488124
0.016479444 0.050705999 0.71027613
0.016011652 0.048034966 0.7059325
0.015569733 0.045511544 0.70182908
0.015151508 0.043123543 0.69794571
0.014755207 0.040860593 0.6942659
0.014379067 0.038712889 0.69077325
0.014021628 0.036671937 0.68745428
0.013681565 0.034730136 0.68429661
0.013357572 0.032880187 0.68128818
0.013048602 0.03111589 0.67841929
0.01275357 0.029431373 0.6756798
0.012658611 0.028238475 0.67479801
0.012716194 0.027388722 0.67533273
0.012774302 0.026531249 0.67587227
0.012832943 0.025665909 0.67641681
0.012892126 0.024792552 0.67696637
0.012951858 0.023911148 0.67752099
0.013012146 0.023021519 0.6780808
0.013072996 0.022123545 0.67864579
0.013134385 0.021217108 0.67921579
0.013196387 0.020302147 0.67979157
0.013258979 0.019378543 0.68037277
0.013322166 0.018446118 0.68095946
0.013385959 0.017504722 0.68155181
0.013450366 0.016554326 0.68214983
0.013515395 0.015594721 0.68275368
0.013581055 0.014625788 0.68336332
0.013647358 0.013647407 0.68397897
0.013714311 0.012659401 0.68460071
0.013781885 0.011661649 0.68522811
0.013850167 0.010653973 0.68586218
0.01391913 0.0096363425 0.68650246
0.013988783 0.0086084902 0.68714929
0.014059137 0.0075702965 0.68780255
0.014130201 0.0065216422 0.68846238
0.014201988 0.0054623187 0.68912899
0.014274508 0.0043922067 0.68980235
0.014347771 0.003311038 0.69048268
0.01442175 0.0022187531 0.69116962
0.014496537 0.0011151135 0.69186401
0.014572104 5.9604645e-08 0.69256568
0.014648463 -0.001126796 0.69327468
0.014725627 -0.0022654831 0.69399118
0.014803608 -0.0034162402 0.69471532
0.014882418 -0.0045791566 0.69544709
0.014962073 -0.0057546198 0.69618672
0.015042585 -0.0069426894 0.69693434
0.015123922 -0.0081436038 0.69768953
0.01520619 -0.0093576312 0.69845343
0.015289358 -0.010584891 0.69922566
0.01537344 -0.011825711 0.70000643
0.015458453 -0.013080209 0.70079583
0.015544412 -0.014348686 0.701594
0.015631331 -0.015631288 0.70240104
0.015719227 -0.016928375 0.70321727
0.015808119 -0.018240094 0.70404261
0.015897969 -0.019566715 0.7048769
0.015988899 -0.020908564 0.70572126
0.016080875 -0.022265851 0.70657527
0.016173914 -0.023638785 0.70743918
0.016268039 -0.025027752 0.70831323
0.016363263 -0.026432961 0.70919734
0.01645961 -0.027854711 0.71009195
0.016557097 -0.029293329 0.71099722
0.016655691 -0.030748934 0.71191269
0.016755523 -0.032222152 0.71283972
0.016856557 -0.033713102 0.7137779
0.016958818 -0.035222173 0.71472734
0.017062329 -0.036749601 0.71568847
0.017167108 -0.038295805 0.71666145
0.017273184 -0.039861172 0.71764636
0.01738058 -0.041446 0.71864355
0.017489318 -0.043050617 0.71965325
0.017599363 -0.044675291 0.72067511
0.017710865 -0.046320677 0.72171044
0.017823789 -0.047987133 0.72275901
0.017938161 -0.049674898 0.72382098
0.018054012 -0.051384479 0.72489667
0.01817137 -0.053116262 0.72598642
0.018290261 -0.054870725 0.72709036
0.018410718 -0.056648374 0.7282089
0.018532706 -0.058449298 0.72934163
0.01865639 -0.060274452 0.73049003
0.018781735 -0.062124193 0.73165393
0.018908774 -0.063998938 0.73283356
0.019037548 -0.065899193 0.73402929
0.019168084 -0.067825526 0.73524141
0.019300425 -0.069778442 0.73647016
0.019434607 -0.071758509 0.73771608
0.019570665 -0.073766321 0.73897952
0.024875548 0.08884123 0.77173907
0.023896949 0.083639324 0.76330143
0.022992533 0.078831583 0.75550336
0.022153985 0.074374139 0.74827325
0.021374449 0.070230335 0.74155188
0.02064799 0.06636858 0.73528826
0.019969212 0.062760413 0.72943568
0.019333711 0.059382111 0.72395635
0.018737348 0.056212068 0.71881431
0.018176671 0.053231686 0.71398008
0.017648634 0.050424665 0.70942724
0.017150354 0.047775984 0.70513099
0.01667949 0.045272917 0.70107108
0.016233742 0.042903453 0.69722778
0.015811197 0.040657401 0.6935845
0.015410136 0.038525373 0.69012648
0.015028875 0.036498725 0.6868391
0.014666066 0.034570038 0.68371093
0.014320321 0.032732189 0.68072987
0.013990502 0.030979007 0.67788613
0.013675569 0.029304802 0.67517072
0.013601571 0.028174728 0.67453271
0.013663303 0.027326614 0.67506492
0.013725597 0.02647081 0.67560208
0.013788463 0.025607169 0.67614412
0.013851869 0.024735451 0.67669082
0.0139159 0.023855865 0.67724288
0.013980523 0.022968054 0.67780006
0.014045751 0.022071898 0.67836249
0.01411159 0.021167427 0.67893016
0.014178049 0.020254344 0.6795032
0.014245137 0.019332707 0.68008161
0.014312862 0.018402278 0.68066555
0.014381235 0.017462939 0.6812551
0.014450265 0.016514629 0.68185025
0.014519961 0.01555711 0.68245119
0.01459029 0.014590323 0.68305755
0.014661347 0.013614118 0.68367028
0.014733098 0.012628406 0.68428892
0.014805554 0.011632949 0.68491364
0.014878727 0.010627657 0.68554461
0.014952628 0.0096124113 0.68618172
0.015027266 0.0085870326 0.68682528
0.015102652 0.0075513422 0.68747526
0.0151788 0.0065052211 0.68813187
0.015255674 0.0054484606 0.68879467
0.015333376 0.004381001 0.68946463
0.015411873 0.0033025742 0.69014144
0.015491178 0.0022130311 0.69082522
0.015571304 0.0011122525 0.6915161
0.015652264 2.9802322e-08 0.69221413
0.015734067 -0.0011238456 0.69291943
0.015816731 -0.0022594929 0.69363219
0.015900223 -0.0034071505 0.69435203
0.015984647 -0.0045670271 0.69508004
0.016069973 -0.0057392716 0.69581568
0.016156213 -0.006924063 0.69655931
0.016243385 -0.0081216693 0.69731092
0.016331503 -0.0093322694 0.6980707
0.016420582 -0.010556072 0.69883871
0.016510639 -0.011793315 0.69961524
0.016601689 -0.013044178 0.70040029
0.016693696 -0.01430884 0.70119357
0.016786782 -0.015587687 0.70199615
0.016880911 -0.01688087 0.70280772
0.016976101 -0.018188655 0.70362854
0.017072372 -0.019511282 0.70445853
0.01716974 -0.02084896 0.70529813
0.017268226 -0.022201985 0.70614731
0.017367847 -0.023570657 0.70700628
0.017468568 -0.024955094 0.70787466
0.017570524 -0.026355773 0.70875371
0.017673673 -0.027772874 0.70964313
0.017778041 -0.029206753 0.71054298
0.017883653 -0.030657649 0.71145356
0.017990522 -0.03212592 0.71237504
0.018098678 -0.033611804 0.71330762
0.018208144 -0.035115689 0.71425146
0.01831894 -0.036637872 0.71520674
0.01843103 -0.038178563 0.71617323
0.018544564 -0.039738357 0.71715212
0.018659506 -0.041317433 0.71814311
0.018775882 -0.042916298 0.71914655
0.018893719 -0.04453519 0.72016257
0.019013043 -0.046174526 0.72119141
0.019133884 -0.047834724 0.72223336
0.019256273 -0.049516112 0.7232886
0.019380236 -0.051219195 0.72435743
0.019505735 -0.052944094 0.72543955
0.019632939 -0.054691762 0.72653633
0.019761818 -0.056462318 0.72764748
0.019892396 -0.058256269 0.72877342
0.020024713 -0.060074121 0.72991425
0.020158801 -0.061916322 0.7310704
0.0202947 -0.063783348 0.73224211
0.020432441 -0.065675676 0.73342973
0.020571984 -0.067593664 0.73463291
0.020713529 -0.069538265 0.73585337
