# .PCD v0.7 - Point Cloud Data file format
VERSION 0.7
FIELDS x y z
SIZE 4 4 4
TYPE F F F
COUNT 1 1 1
WIDTH 1315
HEIGHT 1
VIEWPOINT 0 0 0 1 0 0 0
POINTS 1315
DATA ascii
-0.055582386 0.017552376 0.7338202
-0.055582386 0.016089678 0.73382014
-0.055582386 0.01462698 0.73382008
-0.055582386 0.013164252 0.7338202
-0.055582386 0.011701554 0.7338202
-0.055582386 0.010238856 0.73382014
-0.055582386 0.0087761879 0.73382014
-0.055582386 0.0073134899 0.73382014
-0.055582386 0.0058507919 0.7338202
-0.055582386 0.0043880939 0.73382014
-0.055582386 0.002925396 0.7338202
-0.055582386 0.0014627278 0.73382014
-0.055582386 -0 0.7338202
-0.055582386 -0.001462698 0.73382014
-0.055582386 -0.002925396 0.7338202
-0.055582386 -0.0043880641 0.7338202
-0.055582386 -0.0058507621 0.73382014
-0.055582386 -0.0073134601 0.73382014
-0.055582386 -0.0087761283 0.73382014
-0.055582386 -0.010238856 0.73382014
-0.055582386 -0.011701524 0.7338202
-0.055582386 -0.013164222 0.73382014
-0.055582386 -0.01462695 0.73382014
-0.055582386 -0.016089618 0.73382014
-0.055582386 -0.017552316 0.73382014
-0.055582386 -0.019015014 0.7338202
-0.055582386 -0.020477712 0.73382014
-0.055582386 -0.02194041 0.7338202
-0.055582386 -0.023403108 0.73382014
-0.055582386 -0.024865836 0.73382014
-0.055582386 -0.026328444 0.7338202
-0.055582386 -0.027791172 0.7338202
-0.055582386 -0.02925387 0.7338202
-0.055582386 -0.030716538 0.73382014
-0.055582386 -0.032179266 0.73382014
-0.055582386 -0.033641934 0.7338202
-0.055582386 -0.035104632 0.73382014
-0.055582386 -0.03656733 0.7338202
-0.055582386 -0.038030058 0.7338202
-0.055582386 -0.039492756 0.73382014
-0.055582386 -0.040955424 0.73382014
-0.055582386 -0.042418152 0.7338202
-0.055582386 -0.04388082 0.7338202
-0.055582386 -0.045343488 0.73382014
-0.055582386 -0.046806216 0.73382014
-0.055582386 -0.048268884 0.73382014
-0.055582386 -0.049731553 0.73382014
-0.055582386 -0.05119428 0.7338202
-0.055582386 -0.052656978 0.7338202
-0.055582386 -0.054119676 0.7338202
-0.055582386 -0.055582345 0.73382014
-0.055582386 -0.057045072 0.73382014
-0.055582386 -0.05850777 0.7338202
-0.055582386 -0.059970438 0.73382014
-0.055582386 -0.061433166 0.73382014
-0.055582386 -0.062895834 0.73382014
-0.055582386 -0.064358562 0.73382014
-0.055582386 -0.06582123 0.7338202
-0.055582386 -0.067283958 0.7338202
-0.053779081 0.068313986 0.73270893
-0.053779081 0.066860467 0.73270887
-0.053779081 0.065407038 0.73270893
-0.053779081 0.063953519 0.73270887
-0.053779081 0.06250003 0.73270893
-0.053779081 0.061046511 0.73270893
-0.053779081 0.059593052 0.73270893
-0.053779081 0.058139563 0.73270887
-0.053779081 0.056686074 0.73270899
-0.053779081 0.055232584 0.73270893
-0.053779081 0.053779095 0.73270893
-0.053779081 0.052325636 0.73270893
-0.053779081 0.050872117 0.73270893
-0.053779081 0.049418658 0.73270887
-0.053779081 0.047965109 0.73270893
-0.053779081 0.04651168 0.73270893
-0.053779081 0.045058161 0.73270893
-0.053779081 0.043604672 0.73270893
-0.053779081 0.042151153 0.73270893
-0.053779081 0.040697694 0.73270893
-0.053779081 0.039244205 0.73270893
-0.053779081 0.037790716 0.73270893
-0.053779081 0.036337227 0.73270893
-0.053779081 0.034883738 0.73270893
-0.053779081 0.033430248 0.73270893
-0.053779081 0.031976759 0.73270893
-0.053779081 0.0305233 0.73270893
-0.053779081 0.029069811 0.73270893
-0.053779081 0.027616322 0.73270893
-0.053779081 0.026162803 0.73270893
-0.053779081 0.024709344 0.73270893
-0.053779081 0.023255855 0.73270893
-0.053779081 0.021802336 0.73270893
-0.053779081 0.020348847 0.73270893
-0.053779081 0.018895358 0.73270893
-0.053779081 0.017441899 0.73270893
-0.053779081 0.01598838 0.73270893
-0.053779081 0.014534891 0.73270899
-0.053779081 0.013081402 0.73270893
-0.053779081 0.011627942 0.73270893
-0.053779081 0.010174423 0.73270893
-0.053779081 0.0087209642 0.73270893
-0.053779081 0.0072674453 0.73270893
-0.053779081 0.0058139861 0.73270893
-0.053779081 0.004360497 0.73270893
-0.053779081 0.0029070079 0.73270893
-0.053779081 0.0014534891 0.73270893
-0.053779081 2.9802322e-08 0.73270893
-0.053779081 -0.0014534593 0.73270893
-0.053779081 -0.0029069483 0.73270893
-0.053779081 -0.0043604374 0.73270893
-0.053779081 -0.0058139861 0.73270893
-0.053779081 -0.0072674155 0.73270893
-0.053779081 -0.0087209344 0.73270893
-0.053779081 -0.010174423 0.73270893
-0.053779081 -0.011627942 0.73270893
-0.053779081 -0.013081402 0.73270899
-0.053779081 -0.014534891 0.73270893
-0.053779081 -0.01598835 0.73270893
-0.053779081 -0.017441839 0.73270893
-0.053779081 -0.018895298 0.73270893
-0.053779081 -0.020348817 0.73270893
-0.053779081 -0.021802306 0.73270893
-0.053779081 -0.023255795 0.73270893
-0.053779081 -0.024709314 0.73270893
-0.053779081 -0.026162773 0.73270893
-0.053779081 -0.027616292 0.73270893
-0.053779081 -0.029069752 0.73270893
-0.053779081 -0.030523241 0.73270887
-0.053779081 -0.03197673 0.73270893
-0.053779081 -0.033430219 0.73270887
-0.053779081 -0.034883738 0.73270893
-0.053779081 -0.036337197 0.73270893
-0.053779081 -0.037790716 0.73270899
-0.053779081 -0.039244205 0.73270893
-0.053779081 -0.040697694 0.73270893
-0.053779081 -0.042151123 0.73270893
-0.053779081 -0.043604612 0.73270893
-0.053779081 -0.045058101 0.73270893
-0.053779081 -0.04651162 0.73270893
-0.053779081 -0.047965109 0.73270893
-0.053779081 -0.049418598 0.73270893
-0.053779081 -0.050872087 0.73270893
-0.053779081 -0.052325606 0.73270893
-0.053779081 -0.053779066 0.73270893
-0.053779081 -0.055232555 0.73270893
-0.053779081 -0.056686044 0.73270893
-0.053779081 -0.058139533 0.73270893
-0.053779081 -0.059592992 0.73270893
-0.053779081 -0.061046511 0.73270893
-0.053779081 -0.0625 0.73270893
-0.053779081 -0.063953489 0.73270893
-0.053779081 -0.065406948 0.73270893
-0.053779081 -0.066860467 0.73270893
-0.051998336 0.06933111 0.73161161
-0.051998336 0.06788671 0.73161161
-0.051998336 0.066442311 0.73161161
-0.051998336 0.064997941 0.73161161
-0.051998336 0.063553512 0.73161161
-0.051998336 0.062109143 0.73161161
-0.051998336 0.060664743 0.73161161
-0.051998336 0.059220344 0.73161161
-0.051998336 0.057775944 0.73161161
-0.051998336 0.056331545 0.73161155
-0.051998336 0.054887146 0.73161161
-0.051998336 0.053442746 0.73161161
-0.051998336 0.051998377 0.73161161
-0.051998336 0.050553948 0.73161161
-0.051998336 0.049109548 0.73161161
-0.051998336 0.047665149 0.73161155
-0.051998336 0.046220779 0.73161161
-0.051998336 0.04477635 0.73161161
-0.051998336 0.043331981 0.73161161
-0.051998336 0.041887581 0.73161155
-0.051998336 0.040443152 0.73161161
-0.051998336 0.038998783 0.73161161
-0.051998336 0.037554383 0.73161155
-0.051998336 0.036109984 0.73161161
-0.051998336 0.034665585 0.73161161
-0.051998336 0.033221185 0.73161155
-0.051998336 0.031776786 0.73161155
-0.051998336 0.030332357 0.73161161
-0.051998336 0.028887987 0.73161161
-0.051998336 0.027443558 0.73161161
-0.051998336 0.025999188 0.73161161
-0.051998336 0.024554789 0.73161161
-0.051998336 0.02311039 0.73161161
-0.051998336 0.02166599 0.73161161
-0.051998336 0.020221591 0.73161161
-0.051998336 0.018777192 0.73161161
-0.051998336 0.017332792 0.73161161
-0.051998336 0.015888363 0.73161161
-0.051998336 0.014444023 0.73161161
-0.051998336 0.012999594 0.73161161
-0.051998336 0.011555165 0.73161161
-0.051998336 0.010110825 0.73161161
-0.051998336 0.0086663961 0.73161161
-0.051998336 0.0072220266 0.73161161
-0.051998336 0.0057776272 0.73161161
-0.051998336 0.0043331981 0.73161161
-0.051998336 0.0028888285 0.73161161
-0.051998336 0.0014444292 0.73161155
-0.051998336 2.9802322e-08 0.73161161
-0.051998336 -0.0014443696 0.73161161
-0.051998336 -0.0028887689 0.73161155
-0.051998336 -0.0043331385 0.73161161
-0.051998336 -0.0057775974 0.73161167
-0.051998336 -0.007221967 0.73161161
-0.051998336 -0.0086663663 0.73161161
-0.051998336 -0.010110795 0.73161167
-0.051998336 -0.011555195 0.73161161
-0.051998336 -0.012999564 0.73161161
-0.051998336 -0.014443964 0.73161161
-0.051998336 -0.015888393 0.73161161
-0.051998336 -0.017332762 0.73161161
-0.051998336 -0.018777192 0.73161161
-0.051998336 -0.020221561 0.73161161
-0.051998336 -0.021665961 0.73161161
-0.051998336 -0.02311036 0.73161161
-0.051998336 -0.024554759 0.73161161
-0.051998336 -0.025999188 0.73161161
-0.051998336 -0.027443558 0.73161161
-0.051998336 -0.028887957 0.73161161
-0.051998336 -0.030332357 0.73161161
-0.051998336 -0.031776726 0.73161161
-0.051998336 -0.033221155 0.73161161
-0.051998336 -0.034665555 0.73161161
-0.051998336 -0.036109924 0.73161161
-0.051998336 -0.037554324 0.73161161
-0.051998336 -0.038998753 0.73161161
-0.051998336 -0.040443122 0.73161161
-0.051998336 -0.041887522 0.73161161
-0.051998336 -0.043331921 0.73161161
-0.051998336 -0.04477632 0.73161161
-0.051998336 -0.04622072 0.73161161
-0.051998336 -0.047665119 0.73161161
-0.051998336 -0.049109519 0.73161155
-0.051998336 -0.050553918 0.73161161
-0.051998336 -0.051998287 0.73161161
-0.051998336 -0.053442717 0.73161155
-0.051998336 -0.054887086 0.73161161
-0.051998336 -0.056331486 0.73161161
-0.051998336 -0.057775915 0.73161155
-0.051998336 -0.059220284 0.73161161
-0.051998336 -0.060664684 0.73161161
-0.051998336 -0.062109143 0.73161161
-0.051998336 -0.063553482 0.73161155
-0.051998336 -0.064997911 0.73161167
-0.051998336 -0.066442251 0.73161161
-0.050239719 0.068900198 0.73052794
-0.050239719 0.067464739 0.73052794
-0.050239719 0.0660294 0.73052794
-0.050239719 0.064593941 0.73052788
-0.050239719 0.063158512 0.73052794
-0.050239719 0.061723083 0.73052794
-0.050239719 0.060287684 0.73052794
-0.050239719 0.058852226 0.73052794
-0.050239719 0.057416826 0.73052794
-0.050239719 0.055981427 0.73052788
-0.050239719 0.054545999 0.73052788
-0.050239719 0.0531106 0.73052788
-0.050239719 0.051675171 0.73052788
-0.050239719 0.050239742 0.73052788
-0.050239719 0.048804313 0.730528
-0.050239719 0.047368914 0.730528
-0.050239719 0.045933485 0.73052788
-0.050239719 0.044498056 0.73052788
-0.050239719 0.043062657 0.73052794
-0.050239719 0.041627198 0.73052794
-0.050239719 0.040191799 0.73052794
-0.050239719 0.038756371 0.73052788
-0.050239719 0.037320971 0.73052794
-0.050239719 0.035885513 0.73052794
-0.050239719 0.034450114 0.73052794
-0.050239719 0.033014685 0.73052794
-0.050239719 0.031579286 0.73052794
-0.050239719 0.030143827 0.73052794
-0.050239719 0.028708428 0.73052788
-0.050239719 0.027272999 0.73052788
-0.050239719 0.02583757 0.73052788
-0.050239719 0.024402171 0.73052794
-0.050239719 0.022966713 0.73052794
-0.050239719 0.021531343 0.73052788
-0.050239719 0.020095885 0.73052794
-0.050239719 0.018660486 0.73052788
-0.050239719 0.017225057 0.73052788
-0.050239719 0.015789628 0.73052788
-0.050239719 0.014354229 0.73052788
-0.050239719 0.0129188 0.73052788
-0.050239719 0.011483431 0.73052794
-0.050239719 0.010047942 0.730528
-0.050239719 0.0086125731 0.73052794
-0.050239719 0.0071771443 0.73052794
-0.050239719 0.0057417154 0.73052794
-0.050239719 0.0043062866 0.73052794
-0.050239719 0.0028708577 0.73052794
-0.050239719 0.0014354587 0.73052788
-0.050239719 2.9802322e-08 0.73052794
-0.050239719 -0.0014353991 0.73052794
-0.050239719 -0.0028708279 0.73052794
-0.050239719 -0.0043062568 0.73052794
-0.050239719 -0.0057416856 0.73052794
-0.050239719 -0.0071770847 0.73052794
-0.050239719 -0.0086125135 0.73052788
-0.050239719 -0.010047942 0.73052788
-0.050239719 -0.011483341 0.73052788
-0.050239719 -0.0129188 0.73052788
-0.050239719 -0.014354199 0.73052794
-0.050239719 -0.015789598 0.73052788
-0.050239719 -0.017225057 0.73052794
-0.050239719 -0.018660456 0.73052788
-0.050239719 -0.020095855 0.73052788
-0.050239719 -0.021531284 0.73052788
-0.050239719 -0.022966713 0.73052788
-0.050239719 -0.024402112 0.73052794
-0.050239719 -0.02583757 0.73052788
-0.050239719 -0.027272969 0.730528
-0.050239719 -0.028708369 0.73052794
-0.050239719 -0.030143797 0.73052794
-0.050239719 -0.031579226 0.73052794
-0.050239719 -0.033014655 0.73052794
-0.050239719 -0.034450084 0.73052794
-0.050239719 -0.035885453 0.73052788
-0.050239719 -0.037320912 0.73052788
-0.050239719 -0.038756341 0.73052794
-0.050239719 -0.04019177 0.73052794
-0.050239719 -0.041627198 0.73052794
-0.050239719 -0.043062598 0.73052794
-0.050239719 -0.044498056 0.73052794
-0.050239719 -0.045933425 0.73052788
-0.050239719 -0.047368884 0.73052794
-0.050239719 -0.048804313 0.73052788
-0.050239719 -0.050239712 0.73052788
-0.050239719 -0.051675141 0.730528
-0.050239719 -0.05311054 0.73052788
-0.050239719 -0.054545999 0.730528
-0.050239719 -0.055981368 0.73052788
-0.050239719 -0.057416826 0.73052788
-0.050239719 -0.058852226 0.73052788
-0.050239719 -0.060287654 0.73052794
-0.050239719 -0.061723083 0.73052788
-0.050239719 -0.063158482 0.73052794
-0.050239719 -0.064593941 0.73052788
-0.050239719 -0.06602931 0.73052794
-0.050239719 -0.067464739 0.73052794
-0.048502833 0.068474621 0.72945762
-0.048502833 0.067048043 0.72945762
-0.048502833 0.065621525 0.72945762
-0.048502833 0.064194918 0.72945762
-0.048502833 0.0627684 0.72945762
-0.048502833 0.061341822 0.72945762
-0.048502833 0.059915304 0.72945762
-0.048502833 0.058488756 0.72945762
-0.048502833 0.057062179 0.72945762
-0.048502833 0.055635601 0.72945768
-0.048502833 0.054209083 0.72945762
-0.048502833 0.052782506 0.72945762
-0.048502833 0.051355928 0.72945762
-0.048502833 0.04992941 0.72945762
-0.048502833 0.048502833 0.72945768
-0.048502833 0.047076285 0.72945762
-0.048502833 0.045649737 0.72945762
-0.048502833 0.04422316 0.72945762
-0.048502833 0.042796642 0.72945762
-0.048502833 0.041370094 0.72945762
-0.048502833 0.039943546 0.72945762
-0.048502833 0.038516998 0.72945762
-0.048502833 0.037090421 0.72945762
-0.048502833 0.035663903 0.72945762
-0.048502833 0.034237295 0.72945762
-0.048502833 0.032810748 0.72945762
-0.048502833 0.0313842 0.72945756
-0.048502833 0.029957682 0.72945762
-0.048502833 0.028531104 0.72945762
-0.048502833 0.027104557 0.72945762
-0.048502833 0.025677979 0.72945762
-0.048502833 0.024251401 0.72945762
-0.048502833 0.022824883 0.72945762
-0.048502833 0.021398306 0.72945762
-0.048502833 0.019971758 0.72945768
-0.048502833 0.01854524 0.72945762
-0.048502833 0.017118663 0.72945762
-0.048502833 0.015692085 0.72945762
-0.048502833 0.014265537 0.72945762
-0.048502833 0.012838989 0.72945762
-0.048502833 0.011412472 0.72945756
-0.048502833 0.009985894 0.72945762
-0.048502833 0.008559376 0.72945762
-0.048502833 0.0071327686 0.72945768
-0.048502833 0.0057062507 0.72945762
-0.048502833 0.0042796731 0.72945762
-0.048502833 0.0028531253 0.72945762
-0.048502833 0.0014265776 0.72945762
-0.048502833 -0 0.72945768
-0.048502833 -0.001426518 0.72945762
-0.048502833 -0.0028531253 0.72945762
-0.048502833 -0.0042796433 0.72945762
-0.048502833 -0.0057061911 0.72945762
-0.048502833 -0.0071327686 0.72945762
-0.048502833 -0.0085593164 0.72945762
-0.048502833 -0.0099858642 0.72945762
-0.048502833 -0.011412412 0.72945762
-0.048502833 -0.01283896 0.72945762
-0.048502833 -0.014265537 0.72945762
-0.048502833 -0.015692085 0.72945762
-0.048502833 -0.017118633 0.72945762
-0.048502833 -0.018545181 0.72945762
-0.048502833 -0.019971758 0.72945768
-0.048502833 -0.021398306 0.72945762
-0.048502833 -0.022824854 0.72945762
-0.048502833 -0.024251401 0.72945756
-0.048502833 -0.025677949 0.72945762
-0.048502833 -0.027104497 0.72945762
-0.048502833 -0.028531045 0.72945762
-0.048502833 -0.029957622 0.72945762
-0.048502833 -0.03138417 0.72945762
-0.048502833 -0.032810718 0.72945762
-0.048502833 -0.034237266 0.72945762
-0.048502833 -0.035663813 0.72945762
-0.048502833 -0.037090361 0.72945762
-0.048502833 -0.038516968 0.72945762
-0.048502833 -0.039943457 0.72945762
-0.048502833 -0.041370034 0.72945762
-0.048502833 -0.042796582 0.72945768
-0.048502833 -0.04422316 0.72945756
-0.048502833 -0.045649737 0.72945762
-0.048502833 -0.047076255 0.72945762
-0.048502833 -0.048502833 0.72945762
-0.048502833 -0.04992938 0.72945762
-0.048502833 -0.051355958 0.72945762
-0.048502833 -0.052782446 0.72945762
-0.048502833 -0.054209054 0.72945762
-0.048502833 -0.055635601 0.72945768
-0.048502833 -0.057062149 0.72945762
-0.048502833 -0.058488697 0.72945762
-0.048502833 -0.059915245 0.72945762
-0.048502833 -0.061341792 0.72945762
-0.048502833 -0.06276834 0.72945762
-0.048502833 -0.064194888 0.72945762
-0.048502833 -0.065621465 0.72945762
-0.048502833 -0.067048043 0.72945762
-0.046787273 0.069472045 0.72840047
-0.046787273 0.068054229 0.72840047
-0.046787273 0.066636413 0.72840047
-0.046787273 0.065218627 0.72840047
-0.046787273 0.063800842 0.72840047
-0.046787273 0.062383026 0.72840047
-0.046787273 0.06096527 0.72840047
-0.046787273 0.059547454 0.72840047
-0.046787273 0.058129698 0.72840047
-0.046787273 0.056711853 0.72840047
-0.046787273 0.055294067 0.72840047
-0.046787273 0.053876281 0.72840047
-0.046787273 0.052458435 0.72840047
-0.046787273 0.051040679 0.72840047
-0.046787273 0.049622893 0.72840047
-0.046787273 0.048205107 0.72840047
-0.046787273 0.046787292 0.72840047
-0.046787273 0.045369506 0.72840047
-0.046787273 0.04395169 0.72840047
-0.046787273 0.042533875 0.72840047
-0.046787273 0.041116118 0.72840047
-0.046787273 0.039698303 0.72840047
-0.046787273 0.038280517 0.72840047
-0.046787273 0.036862701 0.72840047
-0.046787273 0.035444945 0.72840047
-0.046787273 0.0340271 0.72840047
-0.046787273 0.032609344 0.72840041
-0.046787273 0.031191558 0.72840047
-0.046787273 0.029773772 0.72840047
-0.046787273 0.028355926 0.72840047
-0.046787273 0.02693814 0.72840047
-0.046787273 0.025520355 0.72840047
-0.046787273 0.024102539 0.72840047
-0.046787273 0.022684753 0.72840047
-0.046787273 0.021266967 0.72840047
-0.046787273 0.019849151 0.72840047
-0.046787273 0.018431365 0.72840047
-0.046787273 0.017013609 0.72840047
-0.046787273 0.015595764 0.72840047
-0.046787273 0.014177948 0.72840053
-0.046787273 0.012760192 0.72840047
-0.046787273 0.011342406 0.72840047
-0.046787273 0.0099245906 0.72840053
-0.046787273 0.0085067749 0.72840047
-0.046787273 0.0070890188 0.72840041
-0.046787273 0.0056711733 0.72840047
-0.046787273 0.0042534173 0.72840047
-0.046787273 0.0028356314 0.72840041
-0.046787273 0.0014177859 0.72840047
-0.046787273 2.9802322e-08 0.72840047
-0.046787273 -0.0014177859 0.72840047
-0.046787273 -0.0028355718 0.72840047
-0.046787273 -0.0042533875 0.72840047
-0.046787273 -0.0056711435 0.72840047
-0.046787273 -0.0070889592 0.72840047
-0.046787273 -0.0085067749 0.72840047
-0.046787273 -0.0099245608 0.72840047
-0.046787273 -0.011342376 0.72840047
-0.046787273 -0.012760162 0.72840047
-0.046787273 -0.014177948 0.72840047
-0.046787273 -0.015595704 0.72840047
-0.046787273 -0.01701352 0.72840047
-0.046787273 -0.018431306 0.72840041
-0.046787273 -0.019849122 0.72840047
-0.046787273 -0.021266907 0.72840047
-0.046787273 -0.022684753 0.72840047
-0.046787273 -0.024102539 0.72840047
-0.046787273 -0.025520295 0.72840047
-0.046787273 -0.02693814 0.72840047
-0.046787273 -0.028355896 0.72840047
-0.046787273 -0.029773712 0.72840041
-0.046787273 -0.031191498 0.72840047
-0.046787273 -0.032609284 0.72840047
-0.046787273 -0.03402707 0.72840047
-0.046787273 -0.035444885 0.72840047
-0.046787102 -0.036862522 0.72839981
-0.046787102 -0.038280338 0.72839981
-0.046787102 -0.039698124 0.72839987
-0.046787102 -0.04111594 0.72839981
-0.046787102 -0.042533696 0.72839981
-0.046787102 -0.043951511 0.72839987
-0.046787102 -0.045369267 0.72839981
-0.046787102 -0.046787083 0.72839981
-0.046787102 -0.048204839 0.72839987
-0.046787102 -0.049622685 0.72839987
-0.046787102 -0.051040471 0.72839981
-0.046787102 -0.052458256 0.72839981
-0.046787102 -0.053876072 0.72839987
-0.046787102 -0.055293828 0.72839981
-0.046787102 -0.056711614 0.72839987
-0.046787102 -0.05812937 0.72839981
-0.046787102 -0.059547216 0.72839987
-0.046787102 -0.060964972 0.72839981
-0.046787102 -0.062382787 0.72839987
-0.046787102 -0.063800603 0.72839987
-0.046787102 -0.065218359 0.72839981
-0.046787102 -0.066636205 0.72839987
-0.045092482 0.069047868 0.7273556
-0.045092482 0.067638725 0.7273556
-0.045092482 0.066229612 0.72735554
-0.045092482 0.064820468 0.7273556
-0.045092482 0.063411325 0.72735554
-0.045092482 0.062002182 0.7273556
-0.045092482 0.060593039 0.72735554
-0.045092482 0.059183925 0.72735554
-0.045092482 0.057774782 0.7273556
-0.045092482 0.056365639 0.7273556
-0.045092482 0.054956496 0.7273556
-0.045092482 0.053547323 0.7273556
-0.045092482 0.052138209 0.72735554
-0.045092482 0.050729066 0.7273556
-0.045092482 0.049319923 0.7273556
-0.045092482 0.04791078 0.7273556
-0.045092482 0.046501637 0.7273556
-0.045092482 0.045092493 0.7273556
-0.045092482 0.04368338 0.7273556
-0.045092482 0.042274237 0.7273556
-0.045092482 0.040865064 0.7273556
-0.045092482 0.03945595 0.7273556
-0.045092482 0.038046807 0.72735554
-0.045092482 0.036637694 0.7273556
-0.045092482 0.03522855 0.7273556
-0.045092482 0.033819377 0.7273556
-0.045092482 0.032410264 0.72735554
-0.045092482 0.031001121 0.7273556
-0.045092482 0.029591948 0.7273556
-0.045092482 0.028182834 0.7273556
-0.045092482 0.026773691 0.72735554
-0.045092482 0.025364578 0.7273556
-0.045092482 0.023955405 0.72735566
-0.045092482 0.022546262 0.72735554
-0.045092482 0.021137118 0.7273556
-0.045092482 0.019728005 0.72735554
-0.045092482 0.018318802 0.7273556
-0.045092482 0.016909748 0.72735554
-0.045092482 0.015500546 0.7273556
-0.045092482 0.014091432 0.7273556
-0.045092482 0.012682289 0.7273556
-0.045092482 0.011273116 0.7273556
-0.045092482 0.0098640323 0.7273556
-0.045092482 0.0084548593 0.7273556
-0.045092482 0.007045716 0.72735554
-0.045092482 0.0056366026 0.7273556
-0.045092482 0.0042274296 0.7273556
-0.045092482 0.0028183162 0.7273556
-0.045092482 0.001409173 0.72735554
-0.045092482 2.9802322e-08 0.7273556
-0.045092482 -0.0014090836 0.7273556
-0.045092482 -0.0028182566 0.7273556
-0.045092482 -0.0042273998 0.72735554
-0.045092482 -0.005636543 0.7273556
-0.045092482 -0.0070456862 0.72735554
-0.045092482 -0.0084548593 0.7273556
-0.045092482 -0.0098639429 0.72735554
-0.045092482 -0.011273116 0.7273556
-0.045092482 -0.012682199 0.7273556
-0.045092482 -0.014091402 0.7273556
-0.045092482 -0.015500516 0.72735554
-0.045092482 -0.016909659 0.7273556
-0.045092482 -0.018318832 0.7273556
-0.045092482 -0.019727975 0.7273556
-0.045092482 -0.021137089 0.7273556
-0.045092482 -0.022546232 0.7273556
-0.045092482 -0.023955345 0.7273556
-0.045092482 -0.025364518 0.72735554
-0.045092482 -0.026773661 0.7273556
-0.045092482 -0.028182775 0.7273556
-0.045092482 -0.029591918 0.7273556
-0.045092482 -0.031001031 0.7273556
-0.045092482 -0.032410204 0.7273556
-0.045092482 -0.033819348 0.7273556
-0.045092482 -0.035228461 0.72735554
-0.045092482 -0.036637604 0.72735554
-0.045092482 -0.038046807 0.7273556
-0.045092482 -0.039455891 0.7273556
-0.045092482 -0.040865064 0.7273556
-0.045092482 -0.042274147 0.72735554
-0.045092482 -0.04368335 0.7273556
-0.045092482 -0.045092463 0.7273556
-0.045092482 -0.046501607 0.7273556
-0.045092482 -0.04791075 0.7273556
-0.045092482 -0.049319893 0.7273556
-0.045092482 -0.050729036 0.72735554
-0.045092482 -0.05213818 0.7273556
-0.045092482 -0.053547323 0.7273556
-0.045092482 -0.054956466 0.7273556
-0.045092482 -0.056365609 0.72735554
-0.045092482 -0.057774723 0.7273556
-0.045092482 -0.059183866 0.7273556
-0.045092482 -0.060593009 0.7273556
-0.045092482 -0.062002152 0.72735554
-0.045092482 -0.063411295 0.7273556
-0.045092482 -0.064820439 0.7273556
-0.045092482 -0.066229552 0.7273556
-0.043418419 0.068629116 0.72632396
-0.043418419 0.067228556 0.72632402
-0.043418419 0.065827966 0.72632396
-0.043418419 0.064427346 0.72632396
-0.043418419 0.063026756 0.72632402
-0.043418419 0.061626136 0.72632402
-0.043418419 0.060225606 0.72632402
-0.043418419 0.058824956 0.72632402
-0.043418419 0.057424337 0.72632396
-0.043418419 0.056023806 0.72632396
-0.043418419 0.054623187 0.72632396
-0.043418419 0.053222567 0.72632396
-0.043418419 0.051822037 0.72632396
-0.043418419 0.050421417 0.72632396
-0.043418419 0.049020827 0.72632396
-0.043418419 0.047620237 0.72632396
-0.043418419 0.046219647 0.72632396
-0.043418419 0.044818997 0.72632402
-0.043418419 0.043418467 0.72632396
-0.043418419 0.042017817 0.72632396
-0.043418419 0.040617287 0.72632396
-0.043418419 0.039216667 0.72632396
-0.043418419 0.037816048 0.72632396
-0.043418419 0.036415458 0.72632402
-0.043418419 0.035014898 0.72632396
-0.043418419 0.033614278 0.72632396
-0.043418419 0.032213688 0.72632396
-0.043418419 0.030813098 0.72632396
-0.043418419 0.029412508 0.72632396
-0.043418419 0.028011888 0.72632402
-0.043418419 0.026611328 0.72632396
-0.043418419 0.025210679 0.72632396
-0.043418419 0.023810148 0.72632396
-0.043418419 0.022409528 0.72632396
-0.043418419 0.021008909 0.72632396
-0.043418419 0.019608319 0.72632402
-0.043418419 0.018207759 0.72632396
-0.043418419 0.016807169 0.72632402
-0.043418419 0.015406549 0.72632396
-0.043418419 0.014005959 0.72632396
-0.043418419 0.012605369 0.72632402
-0.043418419 0.011204749 0.72632402
-0.043418419 0.0098041892 0.72632396
-0.043418419 0.0084035695 0.72632402
-0.043418419 0.0070030391 0.72632396
-0.043418419 0.0056023896 0.72632396
-0.043418419 0.0042017996 0.72632402
-0.043418419 0.0028011799 0.72632402
-0.043418419 0.0014006197 0.72632396
-0.043418419 2.9802322e-08 0.72632402
-0.043418419 -0.0014005601 0.72632396
-0.043418419 -0.0028011799 0.72632396
-0.043418419 -0.0042017698 0.72632402
-0.043418419 -0.0056023598 0.72632402
-0.043418419 -0.0070029497 0.72632396
-0.043418419 -0.0084035695 0.72632402
-0.043418419 -0.0098041296 0.72632402
-0.043418419 -0.011204749 0.72632396
-0.043418419 -0.012605339 0.72632402
-0.043418419 -0.014005959 0.72632402
-0.043418419 -0.015406489 0.72632402
-0.043418419 -0.016807109 0.72632402
-0.043418419 -0.018207699 0.72632396
-0.043418419 -0.019608289 0.72632402
-0.043418419 -0.021008909 0.72632402
-0.043418419 -0.022409499 0.72632402
-0.043418419 -0.023810089 0.72632402
-0.043418419 -0.025210679 0.72632402
-0.043418419 -0.026611239 0.72632396
-0.043418419 -0.028011858 0.72632402
-0.043418419 -0.029412448 0.72632402
-0.043418419 -0.030813098 0.72632402
-0.043418419 -0.032213628 0.72632402
-0.043418419 -0.033614248 0.72632402
-0.043418419 -0.035014838 0.72632396
-0.043418419 -0.036415398 0.72632402
-0.043418419 -0.037816018 0.72632402
-0.043418419 -0.039216638 0.72632402
-0.043418419 -0.040617228 0.72632402
-0.043418419 -0.042017817 0.72632402
-0.043418419 -0.043418378 0.72632396
-0.043418419 -0.044818997 0.72632402
-0.043418419 -0.046219587 0.72632402
-0.043418419 -0.047620237 0.72632408
-0.043418419 -0.049020767 0.72632402
-0.043418419 -0.050421387 0.72632402
-0.043418419 -0.051821977 0.72632402
-0.043418419 -0.053222537 0.72632402
-0.043418419 -0.054623157 0.72632402
-0.043418419 -0.056023747 0.72632402
-0.043418419 -0.057424366 0.72632402
-0.043418419 -0.058824927 0.72632396
-0.043418419 -0.060225517 0.72632402
-0.043418419 -0.061626107 0.72632402
-0.043418419 -0.063026726 0.72632396
-0.043418419 -0.064427316 0.72632402
-0.043418419 -0.065827876 0.72632396
-0.043418419 -0.067228526 0.72632396
-0.041764539 0.06821543 0.72530484
-0.041764539 0.066823274 0.72530484
-0.041764539 0.065431118 0.72530484
-0.041764539 0.064038992 0.72530484
-0.041764539 0.062646836 0.72530484
-0.041764539 0.06125468 0.72530484
-0.041764539 0.059862524 0.7253049
-0.041764539 0.058470368 0.72530484
-0.041764539 0.057078242 0.72530484
-0.041764539 0.055686086 0.72530484
-0.041764539 0.054293931 0.72530484
-0.041764539 0.052901745 0.7253049
-0.041764539 0.051509589 0.72530484
-0.041764539 0.050117463 0.72530484
-0.041764539 0.048725307 0.72530484
-0.041764539 0.047333211 0.72530484
-0.041764539 0.045940995 0.72530484
-0.041764539 0.044548869 0.7253049
-0.041764539 0.043156713 0.72530484
-0.041764539 0.041764557 0.72530484
-0.041764539 0.040372431 0.72530484
-0.041764539 0.038980246 0.7253049
-0.041764539 0.03758809 0.72530484
-0.041764539 0.036195934 0.72530484
-0.041764539 0.034803778 0.72530484
-0.041764539 0.033411652 0.72530484
-0.041764539 0.032019496 0.72530484
-0.041764539 0.03062737 0.7253049
-0.041764539 0.029235214 0.72530484
-0.041764539 0.027843058 0.72530484
-0.041764539 0.026450932 0.72530484
-0.041764539 0.025058746 0.72530484
-0.041764539 0.02366659 0.72530484
-0.041764539 0.022274435 0.72530484
-0.041764539 0.020882279 0.72530484
-0.041764539 0.019490123 0.72530484
-0.041764539 0.018097997 0.72530484
-0.041764539 0.016705811 0.72530484
-0.041764539 0.015313655 0.72530484
-0.041764539 0.013921559 0.72530484
-0.041764539 0.012529403 0.72530484
-0.041764539 0.011137247 0.72530484
-0.041764539 0.0097450912 0.72530484
-0.041764539 0.0083529055 0.72530484
-0.041764539 0.0069607794 0.72530484
-0.041764539 0.0055686235 0.72530484
-0.041764539 0.0041764975 0.72530484
-0.041764539 0.0027843118 0.72530484
-0.041764539 0.0013921559 0.72530484
-0.041764539 -0 0.72530484
-0.041764539 -0.0013921261 0.72530484
-0.041764539 -0.0027842522 0.72530478
-0.041764539 -0.0041764379 0.72530484
-0.041764539 -0.0055685937 0.72530484
-0.041764539 -0.0069607198 0.72530484
-0.041764539 -0.0083528757 0.72530484
-0.041764539 -0.0097450316 0.72530484
-0.041764539 -0.011137217 0.72530484
-0.041764539 -0.012529343 0.72530484
-0.041764539 -0.013921499 0.72530484
-0.041764539 -0.015313655 0.72530484
-0.041764539 -0.016705781 0.72530484
-0.041764539 -0.018097967 0.7253049
-0.041764539 -0.019490093 0.72530484
-0.041764539 -0.020882249 0.72530484
-0.041764539 -0.022274405 0.72530484
-0.041764539 -0.023666531 0.72530484
-0.041764539 -0.025058717 0.72530484
-0.041764539 -0.026450872 0.72530484
-0.041764539 -0.027843028 0.72530484
-0.041764539 -0.029235154 0.72530484
-0.041764539 -0.03062731 0.72530484
-0.041764539 -0.032019496 0.7253049
-0.041764539 -0.033411622 0.72530484
-0.041764539 -0.034803748 0.72530484
-0.041764539 -0.036195904 0.72530484
-0.041764539 -0.03758806 0.72530484
-0.041764539 -0.038980216 0.72530484
-0.041764539 -0.040372372 0.72530484
-0.041764539 -0.041764528 0.7253049
-0.041764539 -0.043156654 0.72530484
-0.041764539 -0.044548839 0.72530484
-0.041764539 -0.045940995 0.7253049
-0.041764539 -0.047333121 0.72530484
-0.041764539 -0.048725307 0.72530484
-0.041764539 -0.050117403 0.72530484
-0.041764539 -0.051509559 0.72530484
-0.041764539 -0.052901745 0.72530484
-0.041764539 -0.054293871 0.72530484
-0.041764539 -0.055686027 0.72530484
-0.041764539 -0.057078183 0.72530484
-0.041764539 -0.058470339 0.72530484
-0.041764539 -0.059862494 0.7253049
-0.041764539 -0.06125465 0.72530484
-0.041764539 -0.062646806 0.72530484
-0.041764539 -0.064038932 0.72530484
-0.041764539 -0.065431088 0.72530484
-0.041764539 -0.066823244 0.72530484
-0.040130477 0.069190443 0.72429794
-0.040130477 0.067806661 0.72429788
-0.040130477 0.06642285 0.72429794
-0.040130477 0.065039068 0.72429788
-0.040130477 0.063655257 0.72429788
-0.040130477 0.062271446 0.72429794
-0.040130477 0.060887665 0.72429788
-0.040130477 0.059503794 0.72429794
-0.040130477 0.058119982 0.72429794
-0.040130477 0.056736201 0.72429794
-0.040130477 0.05535239 0.72429794
-0.040130477 0.053968608 0.72429788
-0.040130477 0.052584797 0.72429794
-0.040130477 0.051200986 0.724298
-0.040130477 0.049817204 0.72429794
-0.040130477 0.048433363 0.72429794
-0.040130477 0.047049552 0.72429788
-0.040130477 0.045665741 0.72429788
-0.040130477 0.04428193 0.72429794
-0.040130477 0.042898118 0.72429788
-0.040130477 0.041514307 0.72429788
-0.040130477 0.040130496 0.72429788
-0.040130477 0.038746715 0.72429794
-0.040130477 0.037362874 0.72429794
-0.040130477 0.035979062 0.724298
-0.040130477 0.034595251 0.72429794
-0.040130477 0.03321144 0.72429794
-0.040130477 0.031827658 0.72429788
-0.040130477 0.030443817 0.72429788
-0.040130477 0.029060006 0.72429794
-0.040130477 0.027676225 0.72429788
-0.040130477 0.026292384 0.72429788
-0.040130477 0.024908602 0.72429794
-0.040130477 0.023524791 0.72429794
-0.040130477 0.02214095 0.72429794
-0.040130477 0.020757169 0.72429788
-0.040130477 0.019373357 0.72429794
-0.040130477 0.017989576 0.72429788
-0.040130477 0.016605705 0.72429788
-0.040130477 0.015221894 0.72429788
-0.040130477 0.013838112 0.72429788
-0.040130477 0.012454301 0.72429788
-0.040130477 0.01107049 0.724298
-0.040130477 0.0096866786 0.72429794
-0.040130477 0.0083028674 0.72429794
-0.040130477 0.0069190562 0.72429794
-0.040130477 0.0055352449 0.72429794
-0.040130477 0.0041514337 0.72429794
-0.040130477 0.0027676523 0.72429788
-0.040130477 0.001383841 0.72429788
-0.040130477 2.9802322e-08 0.72429794
-0.040130477 -0.0013837516 0.72429794
-0.040130477 -0.0027675927 0.72429794
-0.040130477 -0.0041513741 0.72429788
-0.040130477 -0.0055352151 0.72429794
-0.040130477 -0.0069190562 0.72429794
-0.040130477 -0.0083028376 0.72429788
-0.040130477 -0.0096866488 0.72429788
-0.040130477 -0.01107043 0.72429788
-0.040130477 -0.012454242 0.72429788
-0.040130477 -0.013838083 0.72429788
-0.040130477 -0.015221864 0.72429794
-0.040130477 -0.016605705 0.72429794
-0.040130477 -0.017989516 0.72429794
-0.040130477 -0.019373327 0.72429788
-0.040130477 -0.020757139 0.72429794
-0.040130477 -0.02214095 0.72429794
-0.040130477 -0.023524731 0.72429788
-0.040130477 -0.024908543 0.72429794
-0.040130477 -0.026292324 0.72429788
-0.040130477 -0.027676195 0.72429788
-0.040130477 -0.029060006 0.72429788
-0.040130477 -0.030443788 0.72429794
-0.040130477 -0.031827599 0.72429794
-0.040130477 -0.03321141 0.72429788
-0.040130477 -0.034595221 0.72429788
-0.040130477 -0.035979033 0.72429794
-0.040130477 -0.037362814 0.72429788
-0.040130477 -0.038746655 0.72429788
-0.040130477 -0.040130496 0.72429794
-0.040130477 -0.041514277 0.72429788
-0.040130477 -0.042898089 0.72429788
-0.040130477 -0.04428193 0.724298
-0.040130477 -0.045665711 0.72429794
-0.040130477 -0.047049522 0.72429794
-0.040130477 -0.048433334 0.72429788
-0.040130477 -0.049817145 0.72429794
-0.040130477 -0.051200956 0.72429794
-0.040130477 -0.052584738 0.72429788
-0.040130477 -0.053968549 0.72429788
-0.040130477 -0.05535233 0.72429788
-0.040130477 -0.056736141 0.72429794
-0.040130477 -0.058119982 0.72429794
-0.040130477 -0.059503794 0.72429788
-0.040130477 -0.060887605 0.72429794
-0.040130477 -0.062271416 0.72429794
-0.040130477 -0.063655227 0.72429788
-0.040130477 -0.065039039 0.72429794
-0.040130477 -0.06642285 0.72429794
-0.038515884 0.068778366 0.72330296
-0.038515884 0.06740284 0.72330296
-0.038515884 0.066027254 0.72330296
-0.038515884 0.064651698 0.72330296
-0.038515884 0.063276082 0.72330296
-0.038515884 0.061900556 0.72330302
-0.038515884 0.060525 0.72330302
-0.038515884 0.059149414 0.72330302
-0.038515884 0.057773829 0.72330296
-0.038515884 0.056398302 0.72330296
-0.038515884 0.055022687 0.72330302
-0.038515884 0.053647161 0.72330296
-0.038515884 0.052271575 0.72330296
-0.038515884 0.050896019 0.72330296
-0.038515884 0.049520463 0.72330302
-0.038515884 0.048144877 0.72330296
-0.038515884 0.046769321 0.72330296
-0.038515884 0.045393705 0.72330296
-0.038515884 0.044018149 0.72330296
-0.038515884 0.042642593 0.72330296
-0.038515884 0.041267008 0.72330296
-0.038515884 0.039891452 0.72330296
-0.038515884 0.038515955 0.72330296
-0.038515884 0.03714031 0.72330302
-0.038515884 0.035764813 0.72330296
-0.038515884 0.034389198 0.72330296
-0.038515884 0.033013642 0.72330296
-0.038515884 0.031638056 0.72330296
-0.038515884 0.0302625 0.72330296
-0.038515884 0.028886914 0.72330296
-0.038515884 0.027511358 0.72330302
-0.038515884 0.026135802 0.72330302
-0.038515884 0.024760246 0.72330302
-0.038515884 0.02338469 0.72330296
-0.038515884 0.022009104 0.72330302
-0.038515884 0.020633519 0.72330296
-0.038515884 0.019257933 0.72330308
-0.038515884 0.017882407 0.72330296
-0.038515884 0.016506821 0.72330302
-0.038515884 0.015131265 0.72330302
-0.038515884 0.013755709 0.72330296
-0.038515884 0.012380123 0.72330296
-0.038515884 0.011004567 0.72330296
-0.038515884 0.0096289814 0.72330296
-0.038515884 0.0082534254 0.72330296
-0.038515884 0.0068778396 0.72330296
-0.038515884 0.0055022538 0.72330296
-0.038515884 0.0041266978 0.72330296
-0.038515884 0.0027511418 0.72330296
-0.038515884 0.001375556 0.72330302
-0.038515884 2.9802322e-08 0.72330296
-0.038515884 -0.0013755262 0.72330296
-0.038515884 -0.002751112 0.72330296
-0.038515884 -0.004126668 0.72330296
-0.038515884 -0.0055022538 0.72330302
-0.038515884 -0.0068778098 0.72330302
-0.038515884 -0.0082533956 0.72330302
-0.038515884 -0.0096289515 0.72330302
-0.038515884 -0.011004508 0.72330302
-0.038515884 -0.012380064 0.72330296
-0.038515884 -0.013755649 0.72330302
-0.038515884 -0.015131205 0.72330296
-0.038515884 -0.016506791 0.72330296
-0.038515884 -0.017882347 0.72330302
-0.038515884 -0.019257933 0.72330296
-0.038515884 -0.020633489 0.72330296
-0.038515884 -0.022009075 0.72330296
-0.038515884 -0.023384631 0.72330296
-0.038515884 -0.024760187 0.72330296
-0.038515884 -0.026135772 0.72330296
-0.038515884 -0.027511328 0.72330296
-0.038515884 -0.028886884 0.72330296
-0.038515884 -0.0302625 0.72330302
-0.038515884 -0.031638056 0.72330302
-0.038515884 -0.033013612 0.72330296
-0.038515884 -0.034389198 0.72330302
-0.038515884 -0.035764724 0.72330296
-0.038515884 -0.03714031 0.72330296
-0.038515884 -0.038515836 0.72330296
-0.038515884 -0.039891452 0.72330296
-0.038515884 -0.041267008 0.72330302
-0.038515884 -0.042642564 0.72330302
-0.038515884 -0.044018149 0.72330302
-0.038515884 -0.045393705 0.72330302
-0.038515884 -0.046769261 0.72330302
-0.038515884 -0.048144817 0.72330296
-0.038515884 -0.049520403 0.72330296
-0.038515884 -0.050895959 0.72330296
-0.038515884 -0.052271515 0.72330296
-0.038515884 -0.053647071 0.72330296
-0.038515884 -0.055022687 0.72330296
-0.038515884 -0.056398243 0.72330296
-0.038515747 -0.05777359 0.72330236
-0.038515747 -0.059149146 0.72330242
-0.038515747 -0.060524702 0.72330236
-0.038515747 -0.061900288 0.72330236
-0.038515747 -0.063275874 0.72330236
-0.038515747 -0.06465143 0.72330236
-0.038515747 -0.066026986 0.72330242
-0.038515747 -0.067402542 0.72330242
-0.03692041 0.068371147 0.72231984
-0.03692041 0.067003757 0.72231984
-0.03692041 0.065636307 0.72231984
-0.03692041 0.064268887 0.72231984
-0.03692041 0.062901437 0.72231984
-0.03692041 0.061534047 0.72231978
-0.03692041 0.060166597 0.72231984
-0.03692041 0.058799177 0.72231984
-0.03692041 0.057431787 0.72231984
-0.03692041 0.056064337 0.72231984
-0.03692041 0.054696888 0.72231984
-0.03692041 0.053329498 0.72231984
-0.03692041 0.051962107 0.72231984
-0.03692041 0.050594658 0.72231984
-0.03692041 0.049227238 0.72231984
-0.03692041 0.047859818 0.72231984
-0.03692041 0.046492398 0.72231984
-0.03692041 0.045124918 0.72231984
-0.03692041 0.043757558 0.72231984
-0.03692041 0.042390108 0.72231984
-0.03692041 0.041022688 0.72231984
-0.03692041 0.039655268 0.72231984
-0.03692041 0.038287818 0.72231984
-0.03692041 0.036920398 0.72231984
-0.03692041 0.035553038 0.72231984
-0.03692041 0.034185588 0.72231978
-0.03692041 0.032818168 0.72231984
-0.03692041 0.031450748 0.72231984
-0.03692041 0.030083328 0.72231978
-0.03692041 0.028715909 0.72231978
-0.03692041 0.027348489 0.72231984
-0.03692041 0.025981069 0.72231984
-0.03692041 0.024613619 0.72231984
-0.03692041 0.023246169 0.72231984
-0.03692041 0.021878779 0.72231984
-0.03692041 0.020511359 0.72231984
-0.03692041 0.019143939 0.72231984
-0.03692041 0.017776549 0.72231984
-0.03692041 0.016409099 0.72231978
-0.03692041 0.015041649 0.72231984
-0.03692041 0.013674259 0.72231984
-0.03692041 0.012306809 0.72231984
-0.03692041 0.010939419 0.72231978
-0.03692041 0.0095719695 0.72231984
-0.03692041 0.0082045496 0.72231984
-0.03692041 0.0068370998 0.72231984
-0.03692041 0.0054696798 0.72231984
-0.03692041 0.0041022897 0.72231978
-0.03692041 0.0027348697 0.72231984
-0.03692041 0.00136742 0.72231984
-0.03692041 2.9802322e-08 0.72231984
-0.03692041 -0.00136742 0.72231978
-0.03692041 -0.0027348399 0.72231984
-0.03692041 -0.0041022301 0.72231984
-0.03692041 -0.0054696798 0.72231984
-0.03692041 -0.0068371296 0.72231984
-0.03692041 -0.0082045197 0.72231984
-0.03692041 -0.0095719397 0.72231984
-0.03692041 -0.010939389 0.72231984
-0.03692041 -0.01230678 0.72231984
-0.03692041 -0.0136742 0.72231978
-0.03692041 -0.01504162 0.72231984
-0.03692041 -0.016409069 0.72231984
-0.03692041 -0.017776489 0.72231984
-0.03692041 -0.019143909 0.72231978
-0.03692041 -0.020511299 0.72231984
-0.03692041 -0.021878719 0.72231984
-0.03692041 -0.023246169 0.72231984
-0.03692041 -0.024613619 0.72231984
-0.03692041 -0.025981009 0.72231984
-0.03692041 -0.027348459 0.72231984
-0.03692041 -0.028715849 0.72231984
-0.03692041 -0.030083269 0.72231984
-0.03692041 -0.031450689 0.72231984
-0.03692041 -0.032818139 0.72231984
-0.03692041 -0.034185529 0.72231984
-0.036920276 -0.035552859 0.72231925
-0.036920276 -0.036920249 0.72231925
-0.036920276 -0.038287669 0.72231925
-0.036920276 -0.039655119 0.72231925
-0.036920276 -0.041022509 0.72231925
-0.036920276 -0.042389929 0.72231925
-0.036920276 -0.043757349 0.72231925
-0.036920276 -0.045124769 0.72231925
-0.036920276 -0.046492159 0.72231925
-0.036920276 -0.047859609 0.72231925
-0.036920276 -0.049227029 0.72231925
-0.036920276 -0.050594419 0.72231925
-0.036920276 -0.051961869 0.72231919
-0.036920276 -0.053329289 0.72231925
-0.036920276 -0.054696649 0.72231925
-0.036920276 -0.056064099 0.72231919
-0.036920276 -0.057431519 0.72231925
-0.036920276 -0.058798939 0.7223193
-0.036920276 -0.060166359 0.72231919
-0.036920276 -0.061533809 0.72231925
-0.036920276 -0.062901169 0.72231925
-0.036920276 -0.064268619 0.72231925
-0.036920276 -0.065636039 0.72231925
-0.036920276 -0.067003459 0.72231925
-0.035343718 0.067968726 0.72134829
-0.035343718 0.066609323 0.72134823
-0.035343718 0.065249979 0.72134829
-0.035343718 0.063890576 0.72134829
-0.035343718 0.062531203 0.72134823
-0.035343718 0.06117183 0.72134823
-0.035343718 0.059812456 0.72134823
-0.035343718 0.058453113 0.72134823
-0.035343718 0.05709371 0.72134829
-0.035343718 0.055734336 0.72134829
-0.035343718 0.054374963 0.72134829
-0.035343718 0.05301559 0.72134829
-0.035343718 0.051656216 0.72134829
-0.035343718 0.050296873 0.72134829
-0.035343718 0.04893747 0.72134823
-0.035343718 0.047578126 0.72134823
-0.035343718 0.046218753 0.72134829
-0.035343718 0.04485938 0.72134823
-0.035343718 0.043499976 0.72134823
-0.035343718 0.042140603 0.72134817
-0.035343718 0.04078123 0.72134823
-0.035343718 0.039421827 0.72134829
-0.035343718 0.038062483 0.72134829
-0.035343718 0.03670311 0.72134829
-0.035343718 0.035343707 0.72134829
-0.035343718 0.033984333 0.72134823
-0.035343718 0.03262499 0.72134823
-0.035343718 0.031265616 0.72134829
-0.035343718 0.029906243 0.72134823
-0.035343718 0.0285469 0.72134823
-0.035343718 0.027187467 0.72134829
-0.035343718 0.025828093 0.72134829
-0.035343718 0.02446872 0.72134829
-0.035343718 0.023109347 0.72134823
-0.035343718 0.021750003 0.72134829
-0.035343718 0.02039063 0.72134829
-0.035343718 0.019031256 0.72134823
-0.035343718 0.017671883 0.72134829
-0.035343718 0.01631251 0.72134829
-0.035343718 0.014953136 0.72134823
-0.035343718 0.013593763 0.72134829
-0.035343718 0.01223439 0.72134823
-0.035343718 0.010875046 0.72134823
-0.035343718 0.0095156729 0.72134817
-0.035343718 0.0081562698 0.72134829
-0.035343718 0.0067968667 0.72134829
-0.035343718 0.0054374635 0.72134823
-0.035343718 0.00407812 0.72134829
-0.035343718 0.0027187467 0.72134829
-0.035343718 0.0013593733 0.72134823
-0.035343718 2.9802322e-08 0.72134823
-0.035343718 -0.0013593435 0.72134829
-0.035343718 -0.0027187169 0.72134823
-0.035343718 -0.00407812 0.72134829
-0.035343718 -0.0054374933 0.72134829
-0.035343718 -0.0067968667 0.72134829
-0.035343718 -0.00815624 0.72134829
-0.035343718 -0.0095156133 0.72134823
-0.035343718 -0.010874957 0.72134829
-0.035343718 -0.01223433 0.72134823
-0.035343718 -0.013593733 0.72134823
-0.035343718 -0.014953077 0.72134829
-0.035343718 -0.01631245 0.72134823
-0.035343718 -0.017671824 0.72134823
-0.035343718 -0.019031197 0.72134823
-0.035343718 -0.02039057 0.72134823
-0.035343718 -0.021749973 0.72134829
-0.035343718 -0.023109347 0.72134823
-0.035343591 -0.02446866 0.72134769
-0.035343591 -0.025828004 0.72134769
-0.035343591 -0.027187377 0.72134769
-0.035343591 -0.028546721 0.72134769
-0.035343591 -0.029906094 0.72134769
-0.035343591 -0.031265467 0.72134763
-0.035343591 -0.032624841 0.72134769
-0.035343591 -0.033984214 0.72134769
-0.035343591 -0.035343558 0.72134763
-0.035343591 -0.036702931 0.72134769
-0.035343591 -0.038062304 0.72134763
-0.035343591 -0.039421648 0.72134763
-0.035343591 -0.040781051 0.72134769
-0.035343591 -0.042140424 0.72134763
-0.035343591 -0.043499768 0.72134763
-0.035343591 -0.044859141 0.72134769
-0.035343591 -0.046218485 0.72134769
-0.035343591 -0.047577858 0.72134763
-0.035343591 -0.048937231 0.72134763
-0.035343591 -0.050296664 0.72134769
-0.035343591 -0.051656038 0.72134769
-0.035343591 -0.053015381 0.72134769
-0.035343591 -0.054374754 0.72134769
-0.035343591 -0.055734128 0.72134769
-0.035343591 -0.057093501 0.72134769
-0.035343591 -0.058452874 0.72134763
-0.035343591 -0.059812218 0.72134769
-0.035343591 -0.061171591 0.72134769
-0.035343591 -0.062530965 0.72134763
-0.035343591 -0.063890308 0.72134769
-0.035343591 -0.065249681 0.72134769
-0.035343591 -0.066609055 0.72134763
-0.033785354 0.067570716 0.72038746
-0.033785354 0.06621933 0.72038746
-0.033785354 0.064867884 0.72038746
-0.033785354 0.063516468 0.72038746
-0.033785354 0.062165022 0.72038746
-0.033785354 0.060813665 0.72038746
-0.033785354 0.059462279 0.72038746
-0.033785354 0.058110833 0.72038746
-0.033785354 0.056759417 0.72038746
-0.033785354 0.055408001 0.72038746
-0.033785354 0.054056585 0.72038746
-0.033785354 0.052705169 0.72038746
-0.033785354 0.051353753 0.72038746
-0.033785354 0.050002337 0.72038746
-0.033785354 0.04865095 0.72038746
-0.033785354 0.047299564 0.72038746
-0.033785354 0.045948088 0.72038746
-0.033785354 0.044596672 0.72038746
-0.033785354 0.043245286 0.72038746
-0.033785354 0.04189384 0.72038746
-0.033785354 0.040542454 0.72038746
-0.033785354 0.039191008 0.72038746
-0.033785354 0.037839621 0.72038746
-0.033785354 0.036488205 0.7203874
-0.033785354 0.035136819 0.72038746
-0.033785354 0.033785403 0.72038746
-0.033785354 0.032433957 0.72038746
-0.033785354 0.031082541 0.72038746
-0.033785354 0.029731125 0.72038746
-0.033785354 0.028379738 0.72038746
-0.033785354 0.027028292 0.72038752
-0.033785354 0.025676876 0.72038746
-0.033785354 0.02432549 0.7203874
-0.033785354 0.022974044 0.72038746
-0.033785354 0.021622658 0.72038746
-0.033785354 0.020271212 0.72038746
-0.033785354 0.018919826 0.72038746
-0.033785354 0.01756838 0.72038746
-0.033785354 0.016216993 0.72038746
-0.033785354 0.014865607 0.72038746
-0.033785354 0.013514161 0.72038746
-0.033785354 0.012162775 0.72038746
-0.033785354 0.010811329 0.72038746
-0.033785354 0.0094599426 0.72038746
-0.033785354 0.0081084967 0.72038746
-0.033785354 0.0067570806 0.72038746
-0.033785354 0.0054056644 0.72038746
-0.033785354 0.0040542483 0.72038746
-0.033785354 0.0027028322 0.72038752
-0.033785354 0.0013513863 0.72038746
-0.033785354 2.9802322e-08 0.72038746
-0.033785354 -0.0013513863 0.72038746
-0.033785354 -0.0027028024 0.72038746
-0.033785354 -0.0040542185 0.72038746
-0.033785354 -0.0054056644 0.72038746
-0.033785354 -0.0067570508 0.72038746
-0.033785354 -0.0081084371 0.72038746
-0.033785354 -0.0094598532 0.72038746
-0.033785354 -0.010811269 0.72038746
-0.033785354 -0.012162715 0.72038746
-0.033785354 -0.013514131 0.72038746
-0.033785354 -0.014865547 0.72038746
-0.033785354 -0.016216964 0.72038746
-0.033785354 -0.017568409 0.72038746
-0.033785354 -0.018919796 0.72038746
-0.033785354 -0.020271182 0.72038752
-0.033785354 -0.021622598 0.72038746
-0.033785354 -0.022974044 0.72038746
-0.033785354 -0.02432543 0.72038746
-0.033785354 -0.025676847 0.72038746
-0.033785354 -0.027028263 0.72038746
-0.033785354 -0.028379679 0.72038746
-0.033785354 -0.029731095 0.72038746
-0.033785354 -0.031082541 0.72038746
-0.033785354 -0.032433927 0.72038746
-0.033785354 -0.033785343 0.72038746
-0.033785354 -0.035136759 0.7203874
-0.033785354 -0.036488146 0.72038746
-0.033785354 -0.037839592 0.72038746
-0.033785354 -0.039190978 0.72038746
-0.033785354 -0.040542424 0.72038752
-0.033785354 -0.04189384 0.72038746
-0.033785354 -0.043245256 0.72038746
-0.033785354 -0.044596672 0.72038746
-0.033785354 -0.045948029 0.72038746
-0.033785354 -0.047299474 0.7203874
