# .PCD v0.7 - Point Cloud Data file format
VERSION 0.7
FIELDS x y z
SIZE 4 4 4
TYPE F F F
COUNT 1 1 1
WIDTH 1354
HEIGHT 1
VIEWPOINT 0 0 0 1 0 0 0
POINTS 1354
DATA ascii
0.025255891 -0.0063139498 0.70969015
0.025255891 -0.0075767934 0.70969009
0.025255891 -0.0088395476 0.70969009
0.025255891 -0.010102332 0.70969009
0.025255891 -0.011365145 0.70969015
0.025255891 -0.012627929 0.70969009
0.025255891 -0.013890743 0.70969009
0.025255891 -0.015153527 0.70969009
0.025255891 -0.016416311 0.70969009
0.025255891 -0.017679095 0.70969009
0.025255891 -0.018941879 0.70969009
0.025255891 -0.020204693 0.70969009
0.025255891 -0.021467477 0.70969009
0.025255891 -0.022730291 0.70969009
0.025255891 -0.023993075 0.70969015
0.025255891 -0.025255859 0.70969009
0.025255891 -0.026518673 0.70969009
0.025255891 -0.027781487 0.70969009
0.025255891 -0.029044271 0.70969009
0.025255891 -0.030307055 0.70969009
0.025255891 -0.031569839 0.70969009
0.025255891 -0.032832682 0.70969009
0.025255891 -0.034095436 0.70969009
0.025255891 -0.03535822 0.70969015
0.025255891 -0.036621004 0.70969009
0.025255891 -0.037883788 0.70969009
0.025255891 -0.039146632 0.70969015
0.025255891 -0.040409446 0.70969015
0.025255891 -0.0416722 0.70969009
0.025255891 -0.042934984 0.70969009
0.025255891 -0.044197798 0.70969009
0.025255891 -0.045460612 0.70969015
0.025255891 -0.046723396 0.70969009
0.025255891 -0.04798618 0.70969009
0.025255891 -0.049248964 0.70969009
0.025255891 -0.050511748 0.70969015
0.025255891 -0.051774561 0.70969009
0.025255891 -0.053037345 0.70969009
0.025255891 -0.054300159 0.70969015
0.025255891 -0.055562943 0.70969015
0.025255891 -0.056825727 0.70969009
0.025255891 -0.058088541 0.70969009
0.025255891 -0.059351325 0.70969009
0.025255891 -0.060614109 0.70969009
0.025255891 -0.061876923 0.70969009
0.026701966 0.063576162 0.71074361
0.026701966 0.062304616 0.71074361
0.026701966 0.06103307 0.71074367
0.026701966 0.059761554 0.71074361
0.026701966 0.058490008 0.71074367
0.026701966 0.057218552 0.71074367
0.026701966 0.055946976 0.71074367
0.026701966 0.05467546 0.71074367
0.026701966 0.053403974 0.71074367
0.026701966 0.052132398 0.71074361
0.026701966 0.050860912 0.71074361
0.026701966 0.049589366 0.71074367
0.026701966 0.04831785 0.71074367
0.026701966 0.047046363 0.71074367
0.026701966 0.045774817 0.71074361
0.026702056 0.04450345 0.71074414
0.026702056 0.043231934 0.71074414
0.026702056 0.041960388 0.71074414
0.026702056 0.040688872 0.71074414
0.026702056 0.039417326 0.71074414
0.026702056 0.038145781 0.71074414
0.026702056 0.036874294 0.71074414
0.026702056 0.035602778 0.71074414
0.026702056 0.034331232 0.71074408
0.026702056 0.033059716 0.71074414
0.026702056 0.03178817 0.71074414
0.026702056 0.030516654 0.71074414
0.026702056 0.029245108 0.71074414
0.026702056 0.027973592 0.71074414
0.026702056 0.026702076 0.71074414
0.026702056 0.02543056 0.71074414
0.026702056 0.024159044 0.71074414
0.026702056 0.022887468 0.71074414
0.026702056 0.021615952 0.71074414
0.026702056 0.020344436 0.71074414
0.026702056 0.01907289 0.71074414
0.026702056 0.017801374 0.71074414
0.026702056 0.016529888 0.71074414
0.026702056 0.015258312 0.71074408
0.026702056 0.013986796 0.71074408
0.026702056 0.01271528 0.71074414
0.026702056 0.011443734 0.71074414
0.026702056 0.010172248 0.71074408
0.026702056 0.008900702 0.71074414
0.026702056 0.0076291561 0.71074414
0.026702056 0.00635764 0.71074414
0.026702056 0.0050861239 0.71074414
0.026702056 0.0038146079 0.71074414
0.026702056 0.0025430918 0.71074414
0.026702056 0.0012715459 0.71074414
0.026702056 -0 0.71074414
0.026702143 -0.0012715161 0.71074462
0.026702143 -0.0025430322 0.71074462
0.026702143 -0.0038145781 0.71074468
0.026702143 -0.0050861239 0.71074462
0.026702143 -0.00635764 0.71074462
0.026702143 -0.0076291561 0.71074462
0.026702143 -0.0089006722 0.71074468
0.026702143 -0.010172248 0.71074462
0.026702143 -0.011443734 0.71074462
0.026702056 -0.01271525 0.7107442
0.026702056 -0.013986766 0.71074414
0.026702056 -0.015258282 0.71074414
0.026702056 -0.016529828 0.71074414
0.026702056 -0.017801374 0.71074414
0.026702056 -0.01907289 0.71074414
0.026702056 -0.020344406 0.71074414
0.026702056 -0.021615952 0.7107442
0.026702056 -0.022887468 0.71074414
0.026702056 -0.024158984 0.71074414
0.026702056 -0.025430501 0.71074414
0.026702056 -0.026702046 0.71074414
0.026702056 -0.027973562 0.71074414
0.026702056 -0.029245079 0.71074414
0.026702056 -0.030516595 0.71074414
0.026702056 -0.03178817 0.7107442
0.026702056 -0.033059686 0.7107442
0.026702056 -0.034331203 0.71074414
0.026702056 -0.035602719 0.71074414
0.026702056 -0.036874235 0.71074414
0.026702056 -0.038145781 0.71074414
0.026702056 -0.039417326 0.71074414
0.026702056 -0.040688843 0.71074414
0.026702056 -0.041960359 0.7107442
0.026702056 -0.043231905 0.71074414
0.026702056 -0.044503391 0.71074414
0.026702056 -0.045774907 0.71074414
0.026702056 -0.047046453 0.71074414
0.026702056 -0.048317999 0.71074414
0.026702056 -0.049589515 0.71074414
0.026702056 -0.050861031 0.71074414
0.026702056 -0.052132577 0.7107442
0.026702056 -0.053404063 0.71074414
0.026702056 -0.054675609 0.71074414
0.026702056 -0.055947155 0.71074414
0.026702056 -0.057218671 0.71074414
0.026702056 -0.058490217 0.71074414
0.026702056 -0.059761733 0.71074414
0.026702056 -0.061033249 0.71074414
0.026702056 -0.062304795 0.71074414
0.028168358 0.064019024 0.71181285
0.028168358 0.062738597 0.71181285
0.028168358 0.06145823 0.71181285
0.028168358 0.060177863 0.71181279
0.028168358 0.058897495 0.71181285
0.028168358 0.057617128 0.71181285
0.028168358 0.056336731 0.71181285
0.028168358 0.055056334 0.71181285
0.028168358 0.053775966 0.71181285
0.028168358 0.052495599 0.71181285
0.028168358 0.051215202 0.71181285
0.028168358 0.049934834 0.71181285
0.028168358 0.048654407 0.71181285
0.028168358 0.04737407 0.71181285
0.028168358 0.046093702 0.71181285
0.028168358 0.044813305 0.71181291
0.028168358 0.043532938 0.71181285
0.028168358 0.042252541 0.71181285
0.028168358 0.040972173 0.71181285
0.028168358 0.039691776 0.71181285
0.028168358 0.038411409 0.71181285
0.028168358 0.037131011 0.71181285
0.028168358 0.035850674 0.71181285
0.028168358 0.034570277 0.71181285
0.028168358 0.03328988 0.71181285
0.028168358 0.032009512 0.71181285
0.028168358 0.030729145 0.71181285
0.028168358 0.029448748 0.71181285
0.028168358 0.02816835 0.71181285
0.028168358 0.026887983 0.71181285
0.028168455 0.025607735 0.71181339
0.028168455 0.024327338 0.71181339
0.028168455 0.023046941 0.71181339
0.028168455 0.021766543 0.71181339
0.028168455 0.020486146 0.71181339
0.028168455 0.019205779 0.71181333
0.028168455 0.017925441 0.71181339
0.028168455 0.016645014 0.71181339
0.028168455 0.015364617 0.71181333
0.028168455 0.01408422 0.71181339
0.028168455 0.012803853 0.71181339
0.028168455 0.011523485 0.71181333
0.028168455 0.010243088 0.71181339
0.028168455 0.0089626908 0.71181339
0.028168455 0.0076823235 0.71181339
0.028168455 0.0064019561 0.71181339
0.028168455 0.0051215887 0.71181333
0.028168455 0.0038411617 0.71181339
0.028168455 0.0025607944 0.71181339
0.028168455 0.0012803972 0.71181333
0.028168455 -0 0.71181333
0.028168455 -0.0012803674 0.71181339
0.028168455 -0.0025607347 0.71181333
0.028168455 -0.0038411319 0.71181333
0.028168455 -0.0051215589 0.71181345
0.028168455 -0.0064019263 0.71181339
0.028168455 -0.0076822937 0.71181339
0.028168455 -0.0089626908 0.71181345
0.028168455 -0.010243058 0.71181339
0.028168455 -0.011523396 0.71181339
0.028168455 -0.012803823 0.71181345
0.028168455 -0.01408422 0.71181333
0.028168455 -0.015364587 0.71181339
0.028168455 -0.016644984 0.71181339
0.028168455 -0.017925352 0.71181333
0.028168455 -0.019205749 0.71181333
0.028168455 -0.020486146 0.71181339
0.028168455 -0.021766514 0.71181333
0.028168455 -0.023046881 0.71181333
0.028168455 -0.024327278 0.71181339
0.028168455 -0.025607705 0.71181339
0.028168455 -0.026888072 0.71181345
0.028168455 -0.02816844 0.71181339
0.028168455 -0.029448837 0.71181339
0.028168455 -0.030729204 0.71181339
0.028168455 -0.032009572 0.71181333
0.028168455 -0.033289999 0.71181339
0.028168455 -0.034570366 0.71181339
0.028168455 -0.035850734 0.71181333
0.028168455 -0.037131131 0.71181339
0.028168455 -0.038411498 0.71181339
0.028168455 -0.039691865 0.71181333
0.028168455 -0.040972292 0.71181333
0.028168455 -0.04225266 0.71181339
0.028168455 -0.043533027 0.71181333
0.028168455 -0.044813424 0.71181339
0.028168455 -0.046093822 0.71181345
0.028168455 -0.047374219 0.71181339
0.028168455 -0.048654586 0.71181339
0.028168455 -0.049934983 0.71181339
0.028168455 -0.051215351 0.71181339
0.028168455 -0.052495718 0.71181339
0.028168455 -0.053776115 0.71181339
0.028168455 -0.055056512 0.71181333
0.028168455 -0.05633691 0.71181339
0.028168455 -0.057617277 0.71181339
0.028168455 -0.058897644 0.71181333
0.028168455 -0.060178041 0.71181345
0.028168455 -0.061458439 0.71181339
0.028168455 -0.062738806 0.71181333
0.029655226 0.064467877 0.71289653
0.029655226 0.063178539 0.71289659
0.029655226 0.061889201 0.71289653
0.029655226 0.060599834 0.71289659
0.029655226 0.059310466 0.71289653
0.029655226 0.058021098 0.71289659
0.029655226 0.056731761 0.71289653
0.029655226 0.055442393 0.71289653
0.029655226 0.054153025 0.71289653
0.029655226 0.052863687 0.71289659
0.029655324 0.051574528 0.71289706
0.029655324 0.050285131 0.71289706
0.029655324 0.048995793 0.71289706
0.029655324 0.047706395 0.71289706
0.029655324 0.046417028 0.71289712
0.029655324 0.04512769 0.71289706
0.029655324 0.043838322 0.71289706
0.029655324 0.042548984 0.71289706
0.029655324 0.041259587 0.71289706
0.029655324 0.039970249 0.71289706
0.029655324 0.038680881 0.71289706
0.029655324 0.037391514 0.71289712
0.029655324 0.036102146 0.71289706
0.029655324 0.034812748 0.71289712
0.029655324 0.03352344 0.71289706
0.029655324 0.032234073 0.71289712
0.029655324 0.030944705 0.71289706
0.029655324 0.029655337 0.71289712
0.029655324 0.02836597 0.71289712
0.029655324 0.027076632 0.71289706
0.029655324 0.025787234 0.71289706
0.029655324 0.024497926 0.71289706
0.029655324 0.023208529 0.71289706
0.029655324 0.021919191 0.71289706
0.029655324 0.020629793 0.71289706
0.029655324 0.019340426 0.71289712
0.029655324 0.018051118 0.71289706
0.029655324 0.01676172 0.71289712
0.029655324 0.015472353 0.71289706
0.029655324 0.014182985 0.71289706
0.029655324 0.012893647 0.71289706
0.029655324 0.011604309 0.71289712
0.029655324 0.010314882 0.71289706
0.029655324 0.0090255439 0.71289706
0.029655324 0.0077362061 0.71289706
0.029655324 0.0064468384 0.71289706
0.029655324 0.0051574707 0.71289712
0.029655425 0.0038681328 0.71289766
0.029655425 0.0025787354 0.7128976
0.029655425 0.0012893677 0.71289766
0.029655425 -0 0.7128976
0.029655425 -0.0012893379 0.7128976
0.029655425 -0.0025787354 0.7128976
0.029655425 -0.0038680732 0.7128976
0.029655425 -0.0051574409 0.71289766
0.029655425 -0.0064468086 0.71289754
0.029655425 -0.0077361763 0.71289766
0.029655425 -0.0090255439 0.71289766
0.029655425 -0.010314912 0.7128976
0.029655425 -0.011604279 0.7128976
0.029655425 -0.012893677 0.71289766
0.029655425 -0.014182985 0.7128976
0.029655425 -0.015472382 0.71289766
0.029655425 -0.01676178 0.71289766
0.029655425 -0.018051118 0.71289766
0.029655425 -0.019340485 0.71289766
0.029655425 -0.020629823 0.71289766
0.029655425 -0.02191925 0.7128976
0.029655324 -0.023208469 0.71289706
0.029655324 -0.024497896 0.71289706
0.029655324 -0.025787264 0.71289712
0.029655324 -0.027076572 0.71289706
0.029655324 -0.02836594 0.71289706
0.029655324 -0.029655308 0.71289712
0.029655324 -0.030944705 0.71289712
0.029655324 -0.032234043 0.71289712
0.029655324 -0.033523381 0.71289712
0.029655324 -0.034812778 0.71289706
0.029655324 -0.036102116 0.71289706
0.029655324 -0.037391484 0.71289706
0.029655324 -0.038680822 0.71289706
0.029655324 -0.039970219 0.71289712
0.029655324 -0.041259587 0.71289706
0.029655324 -0.042548925 0.71289712
0.029655324 -0.043838292 0.71289706
0.029655324 -0.04512766 0.71289712
0.029655324 -0.046416998 0.71289706
0.029655324 -0.047706395 0.71289712
0.029655324 -0.048995733 0.71289706
0.029655324 -0.050285101 0.71289712
0.029655324 -0.051574469 0.71289706
0.029655324 -0.052863806 0.71289706
0.029655324 -0.054153234 0.71289706
0.029655324 -0.055442542 0.71289706
0.029655324 -0.05673191 0.71289706
0.029655324 -0.058021247 0.71289706
0.029655324 -0.059310645 0.71289706
0.029655324 -0.060600042 0.71289712
0.029655324 -0.06188935 0.71289706
0.029655324 -0.063178718 0.71289712
0.031163195 0.064923346 0.71399605
0.031163195 0.063624859 0.71399611
0.031163195 0.062326401 0.71399611
0.031163195 0.061027944 0.71399611
0.031163195 0.059729487 0.71399611
0.031163195 0.058431029 0.71399617
0.031163195 0.057132542 0.71399605
0.031163195 0.055834085 0.71399605
0.031163195 0.054535598 0.71399605
0.031163195 0.05323714 0.71399605
0.031163195 0.051938683 0.71399611
0.031163195 0.050640196 0.71399611
0.031163195 0.049341738 0.71399611
0.031163195 0.048043311 0.71399605
0.031163195 0.046744823 0.71399611
0.031163195 0.045446336 0.71399605
0.031163195 0.044147849 0.71399611
0.031163195 0.042849422 0.71399611
0.031163195 0.041550964 0.71399611
0.031163195 0.040252447 0.71399611
0.031163195 0.03895402 0.71399605
0.031163195 0.037655562 0.71399605
0.031163195 0.036357105 0.71399611
0.031163195 0.035058618 0.71399605
0.031163195 0.03376013 0.71399611
0.031163195 0.032461673 0.71399611
0.031163195 0.031163216 0.71399617
0.031163301 0.029864877 0.71399659
0.031163301 0.02856636 0.71399665
0.031163301 0.027267903 0.71399665
0.031163301 0.025969446 0.71399665
0.031163301 0.024670959 0.71399665
0.031163301 0.023372501 0.71399665
0.031163301 0.022073984 0.71399665
0.031163301 0.020775557 0.71399665
0.031163301 0.019477069 0.71399665
0.031163301 0.018178612 0.71399665
0.031163301 0.016880155 0.71399659
0.031163301 0.015581667 0.71399665
0.031163301 0.01428321 0.71399659
0.031163301 0.012984723 0.71399665
0.031163301 0.011686236 0.71399659
0.031163301 0.010387808 0.71399665
0.031163301 0.0090892911 0.71399659
0.031163301 0.0077908337 0.71399665
0.031163301 0.0064923763 0.71399665
0.031163301 0.0051939189 0.71399659
0.031163301 0.0038954318 0.71399665
0.031163301 0.0025969446 0.71399659
0.031163301 0.0012984872 0.71399665
0.031163301 2.9802322e-08 0.71399665
0.031163301 -0.0012984574 0.71399665
0.031163301 -0.0025969148 0.71399665
0.031163301 -0.0038954318 0.71399665
0.031163301 -0.0051938891 0.71399665
0.031163301 -0.0064923167 0.71399665
0.031163301 -0.0077908337 0.71399665
0.031163301 -0.0090892911 0.71399665
0.031163301 -0.010387748 0.71399665
0.031163301 -0.011686206 0.71399665
0.031163301 -0.012984693 0.71399665
0.031163301 -0.01428318 0.71399665
0.031163301 -0.015581638 0.71399665
0.031163301 -0.016880095 0.71399665
0.031163301 -0.018178582 0.71399665
0.031163301 -0.01947704 0.71399665
0.031163301 -0.020775557 0.71399665
0.031163301 -0.022074014 0.71399665
0.031163301 -0.023372412 0.71399659
0.031163301 -0.024670959 0.71399665
0.031163301 -0.025969386 0.71399659
0.031163301 -0.027267903 0.71399665
0.031163301 -0.028566331 0.71399659
0.031163301 -0.029864788 0.71399665
0.031163301 -0.031163305 0.71399659
0.031163301 -0.032461762 0.71399665
0.031163301 -0.03376025 0.71399659
0.031163301 -0.035058677 0.71399659
0.031163301 -0.036357164 0.71399665
0.031163301 -0.037655652 0.71399659
0.031163301 -0.038954109 0.71399665
0.031163301 -0.040252566 0.71399659
0.031163301 -0.041551054 0.71399665
0.031163301 -0.042849511 0.71399665
0.031163301 -0.044147998 0.71399665
0.031163301 -0.045446455 0.71399665
0.031163301 -0.046744943 0.71399665
0.031163301 -0.04804343 0.71399665
0.031163301 -0.049341887 0.71399665
0.031163301 -0.050640374 0.71399665
0.031163301 -0.051938832 0.71399665
0.031163301 -0.053237259 0.71399659
0.031163301 -0.054535776 0.71399665
0.031163301 -0.055834204 0.71399659
0.031163301 -0.057132721 0.71399665
0.031163301 -0.058431178 0.71399659
0.031163301 -0.059729636 0.71399665
0.031163301 -0.061028123 0.71399665
0.031163301 -0.06232658 0.71399665
0.031163301 -0.063625097 0.71399665
0.032692511 0.065385044 0.71511072
0.032692511 0.064077348 0.71511072
0.032692511 0.062769622 0.71511072
0.032692511 0.061461955 0.71511072
0.032692511 0.060154229 0.71511072
0.032692511 0.058846533 0.71511072
0.032692511 0.057538867 0.71511072
0.032692511 0.056231111 0.71511078
0.032692622 0.054923654 0.71511126
0.032692622 0.053615898 0.71511132
0.032692622 0.052308202 0.71511126
0.032692622 0.051000506 0.71511126
0.032692622 0.04969281 0.71511126
0.032692622 0.048385113 0.71511126
0.032692622 0.047077388 0.71511126
0.032692622 0.045769662 0.71511126
0.032692622 0.044461966 0.71511126
0.032692622 0.043154269 0.71511126
0.032692622 0.041846573 0.71511132
0.032692622 0.040538847 0.71511126
0.032692622 0.039231181 0.71511126
0.032692622 0.037923455 0.71511132
0.032692622 0.036615759 0.71511126
0.032692622 0.035308063 0.71511126
0.032692622 0.034000337 0.71511132
0.032692622 0.032692671 0.71511126
0.032692622 0.031384915 0.71511132
0.032692622 0.030077219 0.71511126
0.032692622 0.028769553 0.71511126
0.032692622 0.027461827 0.71511126
0.032692622 0.026154131 0.71511126
0.032692622 0.024846405 0.71511126
0.032692622 0.023538679 0.71511132
0.032692622 0.022231013 0.71511126
0.032692622 0.020923287 0.71511126
0.032692622 0.019615591 0.71511132
0.032692622 0.018307865 0.71511126
0.032692622 0.017000169 0.71511126
0.032692622 0.015692472 0.71511132
0.032692622 0.014384747 0.71511126
0.032692622 0.01307708 0.71511126
0.032692622 0.011769325 0.71511126
0.032692622 0.010461688 0.71511126
0.032692622 0.0091539323 0.71511132
0.032692622 0.007846266 0.71511126
0.032692738 0.0065385699 0.71511185
0.032692738 0.0052308738 0.71511185
0.032692738 0.0039231479 0.71511179
0.032692738 0.0026154518 0.71511179
0.032692738 0.0013077259 0.71511191
0.032692738 -0 0.71511185
0.032692738 -0.0013076961 0.71511179
0.032692738 -0.0026153922 0.71511179
0.032692738 -0.0039231181 0.71511185
0.032692738 -0.0052308142 0.71511179
0.032692738 -0.0065385401 0.71511185
0.032692738 -0.0078462362 0.71511179
0.032692738 -0.0091539025 0.71511185
0.032692738 -0.010461688 0.71511185
0.032692738 -0.011769384 0.71511179
0.032692738 -0.01307708 0.71511179
0.032692738 -0.014384806 0.71511185
0.032692738 -0.015692472 0.71511179
0.032692738 -0.017000228 0.71511185
0.032692738 -0.018307924 0.71511179
0.032692738 -0.01961562 0.71511185
0.032692738 -0.020923346 0.71511185
0.032692738 -0.022231013 0.71511179
0.032692738 -0.023538768 0.71511185
0.032692738 -0.024846435 0.71511185
0.032692738 -0.02615416 0.71511185
0.032692738 -0.027461916 0.71511179
0.032692738 -0.028769583 0.71511179
0.032692738 -0.030077308 0.71511185
0.032692738 -0.031385005 0.71511179
0.032692738 -0.03269273 0.71511185
0.032692622 -0.034000307 0.71511126
0.032692622 -0.035308033 0.71511132
0.032692622 -0.0366157 0.71511126
0.032692622 -0.037923425 0.71511126
0.032692622 -0.039231092 0.71511126
0.032692622 -0.040538847 0.71511126
0.032692622 -0.041846573 0.71511126
0.032692622 -0.04315424 0.71511132
0.032692622 -0.044461966 0.71511126
0.032692622 -0.045769632 0.71511126
0.032692622 -0.047077388 0.71511132
0.032692622 -0.048385084 0.71511126
0.032692622 -0.04969278 0.71511132
0.032692622 -0.051000506 0.71511126
0.032692622 -0.052308172 0.71511126
0.032692622 -0.053615898 0.71511126
0.032692622 -0.054923564 0.71511126
0.032692622 -0.05623126 0.71511126
0.032692622 -0.057539016 0.71511132
0.032692622 -0.058846682 0.71511126
0.032692622 -0.060154408 0.71511132
0.032692622 -0.061462104 0.71511132
0.032692622 -0.0627698 0.71511126
0.032692622 -0.064077556 0.71511126
0.034243852 0.065853596 0.7162419
0.034243852 0.064536512 0.7162419
0.034243852 0.063219488 0.7162419
0.034243852 0.061902374 0.7162419
0.034243852 0.06058529 0.7162419
0.034243852 0.059268236 0.7162419
0.034243852 0.057951152 0.7162419
0.034243852 0.056634068 0.7162419
0.034243852 0.055317044 0.7162419
0.034243852 0.053999931 0.7162419
0.034243852 0.052682877 0.7162419
0.034243852 0.051365793 0.7162419
0.034243852 0.050048709 0.7162419
0.034243852 0.048731655 0.7162419
0.034243852 0.047414601 0.7162419
0.034243852 0.046097517 0.71624196
0.034243852 0.044780433 0.71624196
0.034243852 0.043463379 0.71624196
0.034243852 0.042146266 0.71624196
0.034243852 0.040829211 0.71624196
0.034243852 0.039512157 0.71624196
0.034243852 0.038195074 0.71624196
0.034243852 0.03687802 0.71624184
0.034243852 0.035560936 0.71624196
0.034243852 0.034243852 0.71624184
0.034243971 0.032926917 0.71624243
0.034243971 0.031609833 0.71624243
0.034243971 0.030292779 0.71624243
0.034243971 0.028975725 0.71624243
0.034243971 0.027658612 0.71624243
0.034243971 0.026341558 0.71624243
0.034243971 0.025024474 0.71624243
0.034243971 0.02370739 0.71624243
0.034243971 0.022390306 0.71624243
0.034243971 0.021073252 0.71624243
0.034243971 0.019756168 0.71624243
0.034243971 0.018439084 0.71624243
0.034243971 0.017122 0.71624243
0.034243971 0.015804917 0.71624243
0.034243971 0.014487863 0.71624243
0.034243971 0.013170779 0.71624249
0.034243971 0.011853725 0.71624243
0.034243971 0.010536611 0.71624249
0.034243971 0.009219557 0.71624243
0.034243971 0.0079024434 0.71624249
0.034243971 0.0065853894 0.71624243
0.034243971 0.0052683055 0.71624249
0.034243971 0.0039512813 0.71624243
0.034243971 0.0026341677 0.71624243
0.034243971 0.0013171136 0.71624243
0.034243971 -0 0.71624243
0.034243971 -0.001317054 0.71624243
0.034243971 -0.0026341379 0.71624243
0.034243971 -0.0039511919 0.71624243
0.034243971 -0.0052683055 0.71624243
0.034243971 -0.0065853596 0.71624243
0.034243971 -0.0079024434 0.71624243
0.034243971 -0.009219557 0.71624243
0.034243971 -0.010536581 0.71624243
0.034243971 -0.011853635 0.71624237
0.034243971 -0.013170749 0.71624243
0.034243971 -0.014487803 0.71624237
0.034243971 -0.015804917 0.71624243
0.034243971 -0.017121971 0.71624243
0.034243971 -0.018439054 0.71624243
0.034243971 -0.019756079 0.71624243
0.034243971 -0.021073222 0.71624243
0.034243971 -0.022390276 0.71624243
0.034243971 -0.02370736 0.71624243
0.034243971 -0.025024444 0.71624243
0.034243971 -0.026341528 0.71624243
0.034243971 -0.027658582 0.71624243
0.034243971 -0.028975636 0.71624243
0.034243971 -0.030292749 0.71624243
0.034243971 -0.031609803 0.71624243
0.034243971 -0.032926917 0.71624243
0.034243971 -0.034243971 0.71624243
0.034243971 -0.035561025 0.71624243
0.034243971 -0.036878109 0.71624243
0.034243971 -0.038195193 0.71624243
0.034243971 -0.039512277 0.71624243
0.034243971 -0.040829331 0.71624243
0.034243971 -0.042146444 0.71624243
0.034243971 -0.043463469 0.71624243
0.034243971 -0.044780582 0.71624243
0.034243971 -0.046097636 0.71624243
0.034243971 -0.04741475 0.71624243
0.034243971 -0.048731804 0.71624243
0.034243971 -0.050048888 0.71624249
0.034243971 -0.051365942 0.71624249
0.034243971 -0.052683026 0.71624249
0.034243971 -0.054000109 0.71624249
0.034243971 -0.055317163 0.71624249
0.034243971 -0.056634277 0.71624249
0.034243971 -0.057951331 0.71624249
0.034243971 -0.059268385 0.71624249
0.034243971 -0.060585469 0.71624249
0.034243971 -0.061902553 0.71624249
0.034243971 -0.063219637 0.71624243
0.034243971 -0.064536721 0.71624249
0.035817467 0.066328675 0.71738881
0.035817467 0.065002114 0.71738887
0.035817467 0.063675523 0.71738881
0.035817467 0.062348902 0.71738881
0.035817467 0.061022371 0.71738881
0.035817467 0.05969581 0.71738881
0.03581759 0.058369428 0.7173894
0.03581759 0.057042837 0.7173894
0.03581759 0.055716276 0.7173894
0.03581759 0.054389685 0.7173894
0.03581759 0.053063095 0.7173894
0.03581759 0.051736563 0.7173894
0.03581759 0.050410002 0.7173894
0.03581759 0.049083352 0.7173894
0.03581759 0.047756791 0.7173894
0.03581759 0.0464302 0.7173894
0.03581759 0.045103639 0.71738935
0.03581759 0.043777078 0.7173894
0.03581759 0.042450517 0.7173894
0.03581759 0.041123927 0.7173894
0.03581759 0.039797306 0.7173894
0.03581759 0.038470775 0.71738935
0.03581759 0.037144184 0.7173894
0.03581759 0.035817593 0.71738935
0.03581759 0.034491032 0.7173894
0.03581759 0.033164471 0.7173894
0.03581759 0.031837851 0.71738946
0.03581759 0.03051132 0.71738935
0.03581759 0.029184729 0.7173894
0.03581759 0.027858138 0.71738935
0.03581759 0.026531577 0.7173894
0.03581759 0.025204986 0.7173894
0.03581759 0.023878425 0.71738935
0.03581759 0.022551835 0.71738935
0.03581759 0.021225244 0.7173894
0.03581759 0.019898653 0.71738935
0.03581759 0.018572092 0.71738946
0.03581759 0.017245501 0.7173894
0.03581759 0.01591897 0.7173894
0.03581759 0.014592379 0.71738935
0.03581759 0.013265789 0.7173894
0.03581759 0.011939198 0.7173894
0.035817716 0.010612696 0.71738994
0.035817716 0.0092861056 0.71738994
0.035817716 0.0079595149 0.71738994
0.035817716 0.0066328943 0.71738994
0.035817716 0.0053063333 0.71738994
0.035817716 0.0039797425 0.71739
0.035817716 0.0026531816 0.71738988
0.035817716 0.0013266206 0.71738994
0.035817716 -0 0.71738994
0.035817716 -0.0013265908 0.71738994
0.035817716 -0.0026531518 0.71738994
0.035817716 -0.0039797425 0.71738994
0.035817716 -0.0053063035 0.71738994
0.035817716 -0.0066328645 0.71738994
0.035817716 -0.0079594553 0.71738994
0.035817716 -0.0092860758 0.71738994
0.035817716 -0.010612637 0.71738994
0.035817716 -0.011939228 0.71738994
0.035817716 -0.013265818 0.71738994
0.035817716 -0.014592409 0.71739
0.035817716 -0.01591894 0.71738994
0.035817716 -0.017245531 0.71738994
0.035817716 -0.018572152 0.71738994
0.035817716 -0.019898742 0.71738994
0.035817716 -0.021225303 0.71738994
0.035817716 -0.022551864 0.71739
0.035817716 -0.023878455 0.71738994
0.035817716 -0.025205016 0.71738994
0.035817716 -0.026531637 0.71738994
0.035817716 -0.027858198 0.71738994
0.035817716 -0.029184788 0.71738994
0.035817716 -0.030511379 0.71739
0.035817716 -0.03183797 0.71738994
0.035817716 -0.033164531 0.71738994
0.035817716 -0.034491092 0.71738994
0.035817716 -0.035817713 0.71738994
0.035817716 -0.037144303 0.71738994
0.035817716 -0.038470864 0.71738994
0.035817716 -0.039797455 0.71738994
0.035817716 -0.041124016 0.71738994
0.035817716 -0.042450607 0.71739
0.035817716 -0.043777198 0.71738988
0.03581759 -0.04510361 0.71738935
0.03581759 -0.046430171 0.7173894
0.03581759 -0.047756791 0.7173894
0.03581759 -0.049083352 0.71738935
0.03581759 -0.050409913 0.71738935
0.03581759 -0.051736504 0.7173894
0.03581759 -0.053063095 0.71738935
0.03581759 -0.054389656 0.71738946
0.03581759 -0.055716217 0.71738935
0.03581759 -0.057042837 0.7173894
0.03581759 -0.058369398 0.71738935
0.03581759 -0.059695989 0.7173894
0.03581759 -0.06102255 0.7173894
0.03581759 -0.062349111 0.71738935
0.03581759 -0.063675702 0.71738935
0.03581759 -0.065002263 0.7173894
0.037414078 0.066810906 0.71855295
0.037414078 0.065474659 0.71855295
0.037414078 0.064138442 0.71855301
0.037414078 0.062802196 0.71855295
0.037414078 0.061466008 0.71855301
0.037414078 0.060129791 0.71855301
0.037414078 0.058793545 0.71855301
0.037414078 0.057457358 0.71855295
0.037414078 0.056121111 0.71855295
0.037414078 0.054784894 0.71855301
0.037414078 0.053448677 0.71855301
0.037414078 0.05211249 0.71855301
0.037414078 0.050776273 0.71855301
0.037414078 0.049440086 0.71855295
0.037414078 0.048103839 0.71855301
0.037414078 0.046767622 0.71855295
0.037414078 0.045431376 0.71855301
0.037414078 0.044095188 0.71855301
0.037414078 0.042758971 0.71855301
0.037414078 0.041422755 0.71855307
0.037414078 0.040086538 0.71855301
0.037414078 0.03875035 0.71855295
0.037414078 0.037414104 0.71855301
0.037414208 0.036078006 0.7185536
0.037414208 0.034741789 0.7185536
0.037414208 0.033405572 0.71855354
0.037414208 0.032069325 0.7185536
0.037414208 0.030733138 0.71855354
0.037414208 0.029396892 0.71855354
0.037414208 0.028060675 0.71855354
0.037414208 0.026724428 0.71855354
0.037414208 0.025388241 0.71855354
0.037414208 0.024051994 0.71855354
0.037414208 0.022715777 0.7185536
0.037414208 0.02137956 0.71855354
0.037414208 0.020043343 0.71855354
0.037414208 0.018707097 0.71855354
0.037414208 0.017370909 0.71855354
0.037414208 0.016034663 0.71855354
0.037414208 0.014698476 0.71855354
0.037414208 0.013362229 0.71855354
0.037414208 0.012026012 0.71855354
0.037414208 0.010689765 0.7185536
0.037414208 0.0093535781 0.7185536
0.037414208 0.0080173314 0.71855354
0.037414208 0.0066811442 0.71855354
0.037414208 0.0053448975 0.71855354
0.037414208 0.0040086508 0.71855354
0.037414208 0.0026724637 0.7185536
0.037414208 0.0013362169 0.71855354
0.037414208 5.9604645e-08 0.71855354
0.037414208 -0.0013361871 0.71855354
0.037414208 -0.0026724041 0.71855354
0.037414208 -0.0040086508 0.71855354
0.037414208 -0.0053448677 0.71855354
0.037414208 -0.0066810846 0.71855354
0.037414208 -0.0080173016 0.71855354
0.037414208 -0.0093535483 0.7185536
0.037414208 -0.010689765 0.71855354
0.037414208 -0.012026012 0.71855354
0.037414208 -0.013362229 0.7185536
0.037414208 -0.014698416 0.71855354
0.037414208 -0.016034603 0.71855354
0.037414208 -0.01737085 0.71855354
0.037414208 -0.018707097 0.71855354
0.037414208 -0.020043314 0.71855354
0.037414208 -0.02137956 0.7185536
0.037414208 -0.022715747 0.7185536
0.037414208 -0.024051964 0.71855348
0.037414208 -0.025388181 0.71855354
0.037414208 -0.026724428 0.71855354
0.037414208 -0.028060645 0.71855354
0.037414208 -0.029396892 0.71855354
0.037414208 -0.030733079 0.71855354
0.037414208 -0.032069296 0.71855354
0.037414208 -0.033405513 0.7185536
0.037414208 -0.034741759 0.7185536
0.037414208 -0.036077976 0.71855354
0.037414208 -0.037414223 0.7185536
0.037414208 -0.03875041 0.71855354
0.037414208 -0.040086627 0.71855354
0.037414208 -0.041422844 0.7185536
0.037414208 -0.042759091 0.71855354
0.037414208 -0.044095337 0.71855354
0.037414208 -0.045431554 0.71855354
0.037414208 -0.046767741 0.71855354
0.037414208 -0.048103929 0.71855354
0.037414208 -0.049440175 0.71855354
0.037414208 -0.050776392 0.71855354
0.037414208 -0.052112639 0.71855354
0.037414208 -0.053448856 0.7185536
0.037414208 -0.054785103 0.71855354
0.037414208 -0.05612129 0.71855354
0.037414208 -0.057457536 0.71855354
0.037414208 -0.058793753 0.7185536
0.037414208 -0.06013 0.7185536
0.037414208 -0.061466157 0.71855354
0.037414208 -0.062802404 0.71855354
0.037414208 -0.064138591 0.71855354
0.037414208 -0.065474838 0.7185536
0.039033938 0.067299902 0.71973366
0.039033938 0.06595391 0.71973366
0.039033938 0.064607888 0.7197336
0.039034076 0.063262135 0.71973419
0.039034076 0.061916143 0.71973419
0.039034076 0.060570121 0.71973425
0.039034076 0.059224099 0.71973425
0.039034076 0.057878107 0.71973425
0.039034076 0.056532115 0.71973419
0.039034076 0.055186123 0.71973419
0.039034076 0.053840131 0.71973419
0.039034076 0.052494138 0.71973419
0.039034076 0.051148087 0.71973419
0.039034076 0.049802095 0.71973419
0.039034076 0.048456103 0.71973419
0.039034076 0.047110111 0.71973419
0.039034076 0.045764118 0.71973419
0.039034076 0.044418126 0.71973419
0.039034076 0.043072104 0.71973425
0.039034076 0.041726112 0.71973425
0.039034076 0.04038009 0.71973425
0.039034076 0.039034098 0.71973419
0.039034076 0.037688106 0.71973419
0.039034076 0.036342084 0.71973419
0.039034076 0.034996122 0.71973419
0.039034076 0.0336501 0.71973419
0.039034076 0.032304078 0.71973419
0.039034076 0.030958056 0.71973419
0.039034076 0.029612064 0.71973419
0.039034076 0.028266072 0.71973419
0.039034076 0.02692008 0.71973419
0.039034076 0.025574088 0.71973419
0.039034076 0.024228036 0.71973419
0.039034076 0.022882044 0.71973419
0.039034076 0.021536022 0.71973419
0.039034076 0.02019003 0.71973419
0.039034076 0.018844038 0.71973419
0.039034076 0.017498046 0.71973419
0.039034076 0.016152054 0.71973419
0.039034076 0.014806032 0.71973425
0.03903421 0.013460129 0.71973479
0.03903421 0.012114078 0.71973479
0.03903421 0.010768086 0.71973479
0.03903421 0.0094220638 0.71973479
0.03903421 0.0080760121 0.71973479
0.03903421 0.00673002 0.71973479
0.03903421 0.005384028 0.71973479
0.03903421 0.0040380359 0.71973479
0.03903421 0.0026920438 0.71973479
0.03903421 0.0013460219 0.71973479
0.03903421 2.9802322e-08 0.71973479
0.03903421 -0.0013459921 0.71973479
0.03903421 -0.002692014 0.71973479
0.03903421 -0.0040380061 0.71973479
0.03903421 -0.005384028 0.71973479
0.03903421 -0.0067300498 0.71973479
0.03903421 -0.0080760419 0.71973479
0.03903421 -0.009422034 0.71973479
0.03903421 -0.010768026 0.71973479
0.03903421 -0.012114018 0.71973479
0.03903421 -0.01346004 0.71973473
0.03903421 -0.014806032 0.71973473
0.03903421 -0.016152084 0.71973479
0.03903421 -0.017498076 0.71973479
0.03903421 -0.018844068 0.71973479
0.03903421 -0.02019009 0.71973479
0.03903421 -0.021536082 0.71973479
0.03903421 -0.022882104 0.71973479
0.03903421 -0.024228126 0.71973479
0.03903421 -0.025574118 0.71973479
0.03903421 -0.02692014 0.71973473
0.03903421 -0.028266132 0.71973473
0.03903421 -0.029612154 0.71973479
0.03903421 -0.030958146 0.71973479
0.03903421 -0.032304138 0.71973479
0.03903421 -0.03365019 0.71973479
0.03903421 -0.034996182 0.71973479
0.03903421 -0.036342204 0.71973479
0.03903421 -0.037688196 0.71973479
0.03903421 -0.039034188 0.71973479
0.03903421 -0.04038021 0.71973473
0.03903421 -0.041726232 0.71973479
0.03903421 -0.043072224 0.71973479
0.03903421 -0.044418216 0.71973479
0.039034076 -0.045764089 0.71973419
0.039034076 -0.047110081 0.71973419
0.039034076 -0.048456073 0.71973419
0.039034076 -0.049802095 0.71973419
0.039034076 -0.051148057 0.71973419
0.039034076 -0.052494079 0.71973419
0.039034076 -0.053840071 0.71973419
0.039034076 -0.055186093 0.71973419
0.039034076 -0.056532115 0.71973425
0.039034076 -0.057878107 0.71973425
0.039034076 -0.059224099 0.71973419
0.039034076 -0.060570091 0.71973419
0.039034076 -0.061916083 0.71973419
0.039034076 -0.063262135 0.71973425
0.039034076 -0.064608127 0.71973425
0.039034076 -0.065954119 0.71973425
0.040677831 0.06779635 0.72093225
0.040677831 0.066440463 0.7209323
0.040677831 0.065084547 0.72093225
0.040677831 0.063728631 0.72093225
0.040677831 0.062372714 0.7209323
0.040677831 0.061016768 0.72093225
0.040677831 0.059660822 0.72093225
0.040677831 0.058304906 0.7209323
0.040677831 0.056949019 0.72093225
0.040677831 0.055593073 0.72093225
0.040677831 0.054237127 0.7209323
0.040677831 0.052881181 0.72093225
0.040677831 0.051525265 0.72093225
0.040677831 0.050169319 0.7209323
0.040677831 0.048813432 0.7209323
0.040677831 0.047457486 0.72093225
0.040677831 0.04610154 0.72093225
0.040677831 0.044745594 0.7209323
0.040677972 0.043389887 0.72093284
0.040677972 0.042033911 0.72093284
0.040677972 0.040677994 0.72093284
0.040677972 0.039322078 0.72093284
0.040677972 0.037966132 0.72093284
0.040677972 0.036610186 0.72093284
0.040677972 0.03525424 0.72093284
0.040677972 0.033898294 0.72093284
0.040677972 0.032542408 0.72093284
0.040677972 0.031186461 0.72093284
0.040677972 0.029830515 0.7209329
0.040677972 0.028474599 0.72093284
0.040677972 0.027118653 0.72093284
0.040677972 0.025762737 0.72093284
0.040677972 0.024406791 0.72093284
0.040677972 0.023050874 0.72093284
0.040677972 0.021694928 0.72093284
0.040677972 0.020339012 0.72093284
0.040677972 0.018983096 0.72093278
0.040677972 0.01762715 0.72093284
0.040677972 0.016271204 0.72093284
0.040677972 0.014915287 0.7209329
0.040677972 0.013559312 0.7209329
0.040677972 0.012203425 0.72093284
0.040677972 0.010847479 0.72093284
0.040677972 0.0094915628 0.72093284
0.040677972 0.0081356168 0.72093284
0.040677972 0.0067796707 0.72093284
0.040677972 0.0054237247 0.7209329
0.040677972 0.0040678382 0.72093284
0.040677972 0.0027118623 0.7209329
0.040677972 0.0013559461 0.72093284
0.040677972 -0 0.72093284
0.040677972 -0.0013559461 0.7209329
0.040677972 -0.0027118325 0.72093284
0.040677972 -0.0040677786 0.72093284
0.040677972 -0.0054237247 0.72093284
0.040677972 -0.0067796707 0.7209329
0.040677972 -0.0081355572 0.72093284
0.040677972 -0.0094915032 0.72093284
0.040677972 -0.01084742 0.72093284
0.040677972 -0.012203366 0.72093284
0.040677972 -0.013559282 0.72093284
0.040677972 -0.014915258 0.72093284
0.040677972 -0.016271174 0.7209329
0.040677972 -0.01762712 0.72093284
0.040677972 -0.018983036 0.72093284
0.040677972 -0.020338982 0.72093284
0.040677972 -0.021694899 0.7209329
0.040677972 -0.023050845 0.72093284
0.040677972 -0.024406761 0.72093284
0.040677972 -0.025762707 0.72093284
0.040677972 -0.027118623 0.72093284
0.040677972 -0.028474569 0.72093284
0.040677972 -0.029830515 0.72093284
0.040677972 -0.031186432 0.7209329
0.040677972 -0.032542348 0.72093284
0.040677972 -0.033898264 0.72093284
0.040677972 -0.03525424 0.72093284
0.040677972 -0.036610156 0.72093284
0.040677972 -0.037966102 0.7209329
0.040677972 -0.039321989 0.72093284
0.040677972 -0.040677965 0.7209329
0.040677972 -0.042033881 0.72093284
0.040677972 -0.043389827 0.72093284
0.040677972 -0.044745743 0.72093284
0.040677972 -0.046101689 0.72093284
0.040677972 -0.047457606 0.7209329
0.040677972 -0.048813552 0.72093284
0.040677972 -0.050169498 0.72093284
0.040677972 -0.051525444 0.72093284
0.040677972 -0.05288133 0.72093284
0.040677972 -0.054237276 0.72093284
0.040677972 -0.055593222 0.72093284
0.040677972 -0.056949168 0.72093284
0.040677972 -0.058305115 0.72093284
0.040677972 -0.059661031 0.7209329
0.040677972 -0.061016947 0.72093284
0.040677972 -0.062372863 0.7209329
0.040677972 -0.063728809 0.72093284
0.040677972 -0.065084726 0.72093284
0.040677972 -0.066440701 0.72093284
0.042346157 0.068300277 0.72214872
0.042346157 0.066934288 0.72214872
0.042346157 0.065568268 0.72214878
0.042346157 0.064202279 0.72214872
0.042346157 0.062836289 0.72214872
0.042346157 0.06147024 0.72214872
0.042346157 0.060104221 0.72214878
0.042346157 0.058738232 0.72214872
0.042346157 0.057372212 0.72214872
0.042346157 0.056006253 0.72214872
0.042346157 0.054640234 0.72214872
0.042346157 0.053274214 0.72214878
0.042346157 0.051908225 0.72214872
0.042346157 0.050542206 0.72214872
0.042346157 0.049176216 0.72214866
0.042346157 0.047810197 0.72214878
0.042346157 0.046444178 0.72214872
0.042346157 0.045078218 0.72214872
0.042346157 0.043712169 0.72214872
0.042346157 0.042346179 0.72214872
0.042346157 0.04098016 0.72214878
0.042346157 0.039614171 0.72214866
0.042346157 0.038248152 0.72214872
0.042346157 0.036882132 0.72214872
0.042346157 0.035516173 0.72214872
0.042346157 0.034150153 0.72214872
0.042346157 0.032784164 0.72214872
0.042346157 0.031418115 0.72214872
0.042346157 0.030052125 0.72214866
0.042346157 0.028686106 0.72214878
0.042346157 0.027320087 0.72214872
0.042346157 0.025954098 0.72214872
0.042346157 0.024588108 0.72214872
0.042346157 0.023222119 0.72214872
0.042346157 0.021856099 0.72214872
0.042346306 0.020490199 0.72214931
0.042346306 0.01912415 0.72214931
0.042346306 0.017758131 0.72214937
0.042346306 0.016392171 0.72214925
0.042346306 0.015026122 0.72214931
0.042346306 0.013660103 0.72214931
0.042346306 0.012294084 0.72214931
0.042346306 0.010928065 0.72214937
0.042346306 0.0095620751 0.72214925
0.042346306 0.0081960559 0.72214937
0.042346306 0.0068300962 0.72214925
0.042346306 0.005464077 0.72214931
0.042346306 0.0040980577 0.72214931
0.042346306 0.0027320385 0.72214931
0.042346306 0.0013660192 0.72214925
0.042346306 -0 0.72214937
0.042346306 -0.0013659894 0.72214931
0.042346306 -0.0027320087 0.72214931
0.042346306 -0.0040980279 0.72214937
0.042346306 -0.0054640174 0.72214925
0.042346306 -0.0068300366 0.72214937
0.042346306 -0.0081960559 0.72214931
0.042346306 -0.0095620453 0.72214931
0.042346306 -0.010928035 0.72214925
0.042346306 -0.012294054 0.72214931
0.042346306 -0.013660073 0.72214931
0.042346306 -0.015026093 0.72214925
0.042346306 -0.016392112 0.72214931
0.042346306 -0.017758131 0.72214931
0.042346306 -0.01912415 0.72214931
0.042346306 -0.02049014 0.72214931
0.042346306 -0.021856159 0.72214937
0.042346306 -0.023222148 0.72214925
0.042346306 -0.024588168 0.72214931
0.042346306 -0.025954187 0.72214931
0.042346306 -0.027320176 0.72214931
0.042346306 -0.028686196 0.72214931
0.042346306 -0.030052185 0.72214925
0.042346306 -0.031418204 0.72214937
0.042346306 -0.032784194 0.72214925
0.042346306 -0.034150213 0.72214931
0.042346306 -0.035516232 0.72214931
0.042346306 -0.036882252 0.72214925
0.042346306 -0.038248271 0.72214925
0.042346306 -0.03961426 0.72214931
0.042346306 -0.04098025 0.72214931
0.042346306 -0.042346299 0.72214931
0.042346306 -0.043712318 0.72214931
0.042346306 -0.045078337 0.72214925
0.042346306 -0.046444356 0.72214937
0.042346306 -0.047810346 0.72214931
0.042346306 -0.049176335 0.72214931
0.042346306 -0.050542355 0.72214931
0.042346306 -0.051908344 0.72214931
0.042346306 -0.053274393 0.72214925
0.042346306 -0.054640412 0.72214937
0.042346306 -0.056006402 0.72214931
0.042346306 -0.057372391 0.72214931
0.042346306 -0.058738381 0.72214931
0.042346306 -0.0601044 0.72214931
0.042346306 -0.061470419 0.72214937
0.042346306 -0.062836438 0.72214925
0.042346306 -0.064202458 0.72214931
0.042346306 -0.065568477 0.72214931
0.042346306 -0.066934437 0.72214931
0.044039309 0.068811417 0.72338283
0.044039309 0.067435235 0.72338277
0.044039309 0.066058993 0.72338277
0.044039309 0.064682722 0.72338283
0.044039309 0.06330651 0.72338283
0.044039309 0.061930299 0.72338277
0.044039309 0.060554057 0.72338277
0.044039309 0.059177846 0.72338277
0.044039309 0.057801604 0.72338277
0.044039309 0.056425393 0.72338277
0.044039309 0.055049181 0.72338277
0.044039309 0.05367294 0.72338283
0.044039309 0.052296698 0.72338283
0.044039309 0.050920427 0.72338283
0.044039309 0.049544245 0.72338277
0.044039309 0.048168004 0.72338283
0.044039469 0.046791941 0.72338343
0.044039469 0.045415699 0.72338343
0.044039469 0.044039518 0.72338337
0.044039469 0.042663246 0.72338337
0.044039469 0.041287005 0.72338337
0.044039469 0.039910793 0.72338337
0.044039469 0.038534552 0.72338343
0.044039469 0.03715831 0.72338343
0.044039469 0.035782099 0.72338343
0.044039469 0.034405857 0.72338343
0.044039469 0.033029616 0.72338343
0.044039469 0.031653345 0.72338343
0.044039469 0.030277163 0.72338337
0.044039469 0.028900921 0.72338337
0.044039469 0.02752465 0.72338343
0.044039469 0.026148438 0.72338343
0.044039469 0.024772197 0.72338343
0.044039469 0.023395985 0.72338337
0.044039469 0.022019744 0.72338337
0.044039469 0.020643502 0.72338337
0.044039469 0.019267261 0.72338337
0.044039469 0.017891049 0.72338343
0.044039469 0.016514808 0.72338337
0.044039469 0.015138566 0.72338343
0.044039469 0.013762325 0.72338343
0.044039469 0.012386113 0.72338343
0.044039469 0.011009842 0.72338343
0.044039469 0.0096336305 0.72338337
0.044039469 0.0082574487 0.72338337
0.044039469 0.0068811774 0.72338343
0.044039469 0.005504936 0.72338343
0.044039469 0.0041287243 0.72338343
0.044039469 0.0027524829 0.72338343
0.044039469 0.0013762414 0.72338343
0.044039469 2.9802322e-08 0.72338343
0.044039469 -0.0013762116 0.72338343
0.044039469 -0.0027524829 0.72338343
0.044039469 -0.0041286647 0.72338337
0.044039469 -0.0055049062 0.72338343
0.044039469 -0.0068811476 0.72338343
0.044039469 -0.0082574189 0.72338343
0.044039469 -0.0096336305 0.72338343
0.044039469 -0.011009842 0.72338337
0.044039469 -0.012386084 0.72338337
0.044039469 -0.013762325 0.72338337
0.044039469 -0.015138566 0.72338337
0.044039469 -0.016514808 0.72338343
0.044039469 -0.01789102 0.72338343
0.044039469 -0.019267261 0.72338343
0.044039469 -0.020643502 0.72338343
0.044039469 -0.022019714 0.72338343
0.044039469 -0.023395985 0.72338343
0.044039469 -0.024772197 0.72338337
0.044039469 -0.026148409 0.72338337
0.044039469 -0.02752465 0.72338337
0.044039469 -0.028900862 0.72338337
0.044039469 -0.030277163 0.72338343
0.044039469 -0.031653345 0.72338343
0.044039469 -0.033029586 0.72338343
0.044039469 -0.034405828 0.72338343
0.044039469 -0.035782009 0.72338337
0.044039469 -0.037158251 0.72338337
0.044039469 -0.038534522 0.72338343
0.044039469 -0.039910734 0.72338343
0.044039469 -0.041286975 0.72338343
0.044039469 -0.042663187 0.72338337
0.044039469 -0.044039428 0.72338337
0.044039469 -0.04541567 0.72338337
0.044039469 -0.046791911 0.72338337
0.044039469 -0.048168182 0.72338337
0.044039469 -0.049544364 0.72338343
0.044039469 -0.050920606 0.72338343
0.044039469 -0.052296847 0.72338343
0.044039469 -0.053673089 0.72338343
0.044039469 -0.05504933 0.72338343
0.044039469 -0.056425542 0.72338337
0.044039469 -0.057801753 0.72338337
0.044039469 -0.059178025 0.72338337
0.044039469 -0.060554266 0.72338337
0.044039469 -0.061930478 0.72338343
0.044039469 -0.063306689 0.72338331
0.044039469 -0.064682961 0.72338337
0.044039469 -0.066059172 0.72338343
0.044039469 -0.067435414 0.72338343
0.045758162 0.069330573 0.72463608
0.045758162 0.067943931 0.72463608
0.045758162 0.066557348 0.72463608
0.045758162 0.065170735 0.72463608
0.045758162 0.063784152 0.72463608
0.045758162 0.06239754 0.72463608
0.045758162 0.061010897 0.72463608
0.045758162 0.059624285 0.72463614
0.045758162 0.058237642 0.72463608
0.045758162 0.056851059 0.72463608
0.045758162 0.055464476 0.72463602
0.045758162 0.054077834 0.72463608
0.045758162 0.052691251 0.72463608
0.045758162 0.051304609 0.72463608
0.045758162 0.049918026 0.72463608
0.045758162 0.048531443 0.72463608
0.045758162 0.04714483 0.72463608
0.045758162 0.045758188 0.72463608
0.045758162 0.044371575 0.72463608
0.045758162 0.042984962 0.72463614
0.045758162 0.04159835 0.72463608
0.045758162 0.040211737 0.72463608
0.045758162 0.038825154 0.72463608
0.045758162 0.037438482 0.72463608
0.045758162 0.036051899 0.72463608
0.045758162 0.034665316 0.72463608
0.045758162 0.033278674 0.72463614
0.045758162 0.031892061 0.72463608
0.045758162 0.030505449 0.72463608
0.045758162 0.029118836 0.72463608
0.045758162 0.027732253 0.72463608
0.045758162 0.026345611 0.72463608
0.045758162 0.024958998 0.72463608
0.045758329 0.023572475 0.72463667
0.045758329 0.022185892 0.72463667
0.045758329 0.020799249 0.72463667
0.045758329 0.019412637 0.72463667
0.045758329 0.018025994 0.72463673
0.045758329 0.016639411 0.72463667
0.045758329 0.015252829 0.72463667
0.045758329 0.013866156 0.72463667
0.045758329 0.012479573 0.72463673
0.045758329 0.011092931 0.72463667
0.045758329 0.0097063184 0.72463667
0.045758329 0.0083197355 0.72463667
0.045758329 0.0069331229 0.72463667
0.045758329 0.0055464804 0.72463673
0.045758329 0.0041598678 0.72463667
0.045758329 0.0027732253 0.72463667
0.045758329 0.0013866425 0.72463667
0.045758329 2.9802322e-08 0.72463667
0.045758329 -0.0013865829 0.72463673
0.045758329 -0.0027732253 0.72463667
0.045758329 -0.004159838 0.72463667
0.045758329 -0.0055464506 0.72463667
0.045758329 -0.0069330633 0.72463667
0.045758329 -0.0083196461 0.72463667
0.045758329 -0.0097062886 0.72463667
0.045758329 -0.011092901 0.72463667
0.045758329 -0.012479514 0.72463673
0.045758329 -0.013866127 0.72463667
0.045758329 -0.015252739 0.72463667
0.045758329 -0.016639382 0.72463667
0.045758329 -0.018025964 0.72463667
0.045758329 -0.019412637 0.72463673
0.045758329 -0.02079922 0.72463667
0.045758329 -0.022185832 0.72463667
0.045758329 -0.023572475 0.72463667
0.045758329 -0.024959058 0.72463667
0.045758329 -0.0263457 0.72463673
0.045758329 -0.027732313 0.72463667
0.045758329 -0.029118896 0.72463667
0.045758329 -0.030505568 0.72463667
0.045758329 -0.031892151 0.72463667
0.045758329 -0.033278793 0.72463673
0.045758329 -0.034665376 0.72463667
0.045758329 -0.036051989 0.72463667
0.045758329 -0.037438601 0.72463667
0.045758329 -0.038825214 0.72463673
0.045758329 -0.040211827 0.72463667
0.045758329 -0.041598469 0.72463667
0.045758329 -0.042985052 0.72463667
0.045758329 -0.044371694 0.72463667
0.045758329 -0.045758307 0.72463673
0.045758329 -0.04714492 0.72463667
0.045758329 -0.048531562 0.72463667
0.045758329 -0.049918145 0.72463667
0.045758329 -0.051304758 0.72463667
0.045758329 -0.05269137 0.72463667
0.045758329 -0.054078013 0.72463667
0.045758329 -0.055464625 0.72463667
0.045758329 -0.056851238 0.72463667
0.045758329 -0.058237851 0.72463667
0.045758329 -0.059624434 0.72463667
0.045758329 -0.061011106 0.72463667
0.045758329 -0.062397689 0.72463667
0.045758329 -0.063784301 0.72463673
0.045758329 -0.065170944 0.72463667
0.045758329 -0.066557527 0.72463667
0.045758329 -0.067944199 0.72463667
0.047502976 0.069857359 0.7259078
0.047502976 0.068460166 0.7259078
0.047502976 0.067063034 0.7259078
0.047502976 0.065665901 0.7259078
0.047502976 0.064268768 0.7259078
0.047502976 0.062871605 0.7259078
0.047502976 0.061474472 0.7259078
0.047502976 0.06007731 0.7259078
0.047502976 0.058680147 0.72590774
