# .PCD v0.7 - Point Cloud Data file format
VERSION 0.7
FIELDS x y z
SIZE 4 4 4
TYPE F F F
COUNT 1 1 1
WIDTH 850
HEIGHT 1
VIEWPOINT 0 0 0 1 0 0 0
POINTS 850
DATA ascii
0.027241485 -0.028180838 0.67064834
0.028037619 -0.025233835 0.67007202
0.028037619 -0.025233835 0.67007202
0.025624627 -0.019930243 0.67181897
0.021432566 -0.030200422 0.67485464
0.022288635 -0.027134001 0.67423457
0.021432566 -0.020458341 0.67485452
0.022288635 -0.0096907318 0.67423457
0.020567322 -0.024484903 0.67548096
0.019692862 -0.034462512 0.67611426
0.018808985 -0.024748653 0.67675442
0.018808935 -0.017818987 0.67675412
0.019692862 -0.0078771114 0.67611426
0.018808935 -0.0069295764 0.67675412
0.019692862 -0.0049231648 0.67611426
0.017915485 -0.031849742 0.67740124
0.017915485 -0.014929563 0.67740119
0.017915485 -0.009953022 0.67740124
0.017012306 -0.020014465 0.67805541
0.016099194 -0.0050309896 0.67871636
0.017012261 -0.0040028691 0.67805505
0.017012261 0.0010007322 0.67805505
0.015176076 -0.019223034 0.67938495
0.014242701 -0.031537384 0.68006057
0.014242701 -0.026450694 0.68006063
0.014242701 -0.0040693283 0.68006063
0.014242701 0.0010173619 0.68006068
0.012344654 -0.013373375 0.68143499
0.012344654 -0.0020574331 0.68143499
0.012344654 0.0030861795 0.68143499
0.012344654 0.0072010756 0.68143499
0.011379626 -0.036207855 0.68213391
0.010403642 -0.031210899 0.68284041
0.010403642 -0.017686188 0.68284041
0.010403642 -0.01456508 0.68284041
0.010403642 -0.011443973 0.68284041
0.011379595 -0.0062070489 0.68213356
0.011379595 0.010345101 0.68213356
0.011379595 0.010345101 0.68213356
0.0094165802 -0.028249711 0.68355531
0.025042629 -0.0041737556 0.68321204
0.0094165541 0.0062777102 0.68355495
0.0084181922 -0.037881851 0.68427801
0.0084181922 -0.031568199 0.68427807
0.0084181922 -0.028411388 0.68427801
0.037870981 -0.019987404 0.68424153
0.0084181922 -0.016836375 0.68427807
0.035925522 -0.016906112 0.6848042
0.0084181922 -2.9802322e-08 0.68427801
0.0063867569 -0.04151395 0.68574899
0.0074083321 -0.011641651 0.68500948
0.026482983 -0.0042372644 0.68512845
0.0074083111 -0 0.68500912
0.0074083111 0.00317505 0.68500906
0.0063867569 0.012773514 0.68574893
0.0053533013 -0.041755706 0.68649745
0.0053533013 -0.025695801 0.68649745
0.037552074 -0.017166644 0.68676978
0.0053533013 -0.016059846 0.68649745
0.0053533013 -0.0042826235 0.68649745
0.0053533013 -0.0032120049 0.68649745
0.012858731 0.015001863 0.68660617
0.0043077217 -0.038769513 0.68725431
0.0043077217 -0.03338483 0.68725437
0.0043077217 -0.029077113 0.68725431
0.0043077217 -0.015076995 0.68725431
0.0043077217 0.015077055 0.68725437
0.0032498334 -0.045497626 0.68802053
0.0032498334 -0.021665573 0.68802053
0.0021793945 -0.02070424 0.68879545
0.0021793945 -0.010896951 0.68879539
0.0021793945 0.0065381825 0.68879545
0.0032498243 0.0064996481 0.68802017
0.0032498243 0.014082581 0.68802017
0.0032498243 0.01624915 0.68802011
0.007631484 0.023984671 0.68885756
0.0010961964 -0.046040237 0.68957996
0.0010961964 -0.030693471 0.68957996
0.0010961964 -0.028501093 0.6895799
0.0010961964 -0.026308686 0.68957996
0.0010961964 -0.021923929 0.6895799
0.0010961964 -0.0032885373 0.68957996
0.0010961932 0.019731492 0.68957955
0.0010961932 0.023020059 0.68957955
0.0010961932 0.028501034 0.68957955
0 -0.034185857 0.69037348
0 -0.034185857 0.69037348
0 -0.017644376 0.69037384
0 2.9802322e-08 0.69037348
-0.0022323215 -0.039065629 0.69198984
-0.0022323283 -0.031252563 0.69199026
-0.0022323283 -0.012277782 0.69199026
-0.0022323283 -0.012277782 0.69199026
-0.0022323283 -0.0089293122 0.69199026
0.03437911 -0.0088720024 0.69112593
-0.0011094268 -0 0.69117695
-0.0011094268 0.0011094511 0.69117701
-0.0022323215 0.013393939 0.69198984
0.016646348 0.014426827 0.69121683
-0.0022323215 0.022323221 0.69198984
-0.0033689414 -0.028074533 0.6928131
-0.0033689414 -0.022459596 0.69281304
-0.0033689414 0.011229813 0.69281304
-0.0033689314 0.038181245 0.69281268
-0.0045195357 -0.014688462 0.69364643
-0.0045195222 -0.0067792535 0.69364595
-0.0045195222 -0.0022597313 0.69364595
-0.0045195222 0.019208014 0.69364595
-0.0056843469 -0.048885345 0.69448954
-0.0056843469 -0.047748506 0.6944896
-0.0056843469 -0.037516683 0.6944896
-0.0056843469 -0.012505531 0.6944896
-0.0056843469 0.0034106374 0.6944896
-0.0056843301 0.026147932 0.69448918
-0.0056843301 0.036379725 0.69448924
-0.0056843301 0.038653463 0.69448924
-0.0056843301 0.044337779 0.69448918
-0.0068636504 -0.053765237 0.69534326
-0.0068636504 -0.053765237 0.69534326
-0.0068636504 -0.053765237 0.69534326
-0.0068636714 -0.016015202 0.69534379
-0.0068636714 -0.016015202 0.69534379
0.034396466 -0.0045861602 0.69565797
0.03312118 -0.0034263134 0.69512218
-0.0068636504 0.008007586 0.69534332
-0.0068636504 0.012583375 0.69534326
-0.0068636504 0.012583375 0.69534326
-0.0068636504 0.012583375 0.69534326
-0.0068636504 0.021734893 0.69534332
-0.0068636504 0.029742539 0.69534326
-0.0068636504 0.029742539 0.69534326
-0.0068636504 0.036606163 0.69534332
-0.0080577433 -0.049497545 0.69620812
-0.0080577433 -0.034533203 0.69620812
-0.0080577433 0.0080577731 0.69620812
0.021950368 0.012708127 0.69671226
-0.0080577433 0.019568831 0.69620812
-0.0080577191 0.040288597 0.6962077
-0.010491336 -0.051290959 0.69797021
-0.0092668869 -0.038225889 0.69708383
-0.010491336 -0.017485559 0.69797021
-0.0092668869 -0.0011583567 0.69708389
-0.0092668869 -0.0011583567 0.69708389
0.030099619 0.0023153722 0.6970014
0.023196496 0.011598229 0.69726062
-0.010491336 0.022148401 0.69797027
-0.009266858 0.023167163 0.69708341
-0.009266831 0.045175821 0.697083
-0.010491304 0.053622216 0.69796979
0.030486917 0.0035177171 0.69879949
-0.011731409 0.0082120001 0.69886798
-0.011731409 0.037540525 0.69886792
-0.012987445 -0.046046346 0.6997776
-0.012987445 -0.044865668 0.6997776
-0.012987445 -0.043685019 0.6997776
-0.012987445 -0.036600977 0.6997776
-0.012987445 -0.024794221 0.6997776
-0.012987445 -0.014168113 0.6997776
-0.012987445 0.021252185 0.6997776
-0.012987405 0.029516846 0.69977719
-0.012987405 0.03423956 0.69977725
-0.012987405 0.03423956 0.69977725
-0.012987405 0.040142894 0.69977719
-0.012987405 0.042504251 0.69977719
-0.012987405 0.048407614 0.69977719
-0.014259724 -0.0356493 0.70069909
0.044967491 -0.01420027 0.70010096
-0.014259724 -0.004753232 0.70069909
0.018983347 0.020169795 0.70047563
-0.014259679 0.022577852 0.70069861
-0.014259679 0.022577852 0.70069861
0 0.045118213 0.70057964
-0.014259679 0.046343952 0.70069861
-0.014259635 0.055850238 0.7006982
-0.014259635 0.055850238 0.7006982
0.047717191 -0.016701013 0.70125669
-0.015548511 -0.011960387 0.70163208
-0.015548511 0.011960417 0.70163202
0.025093734 0.013144374 0.70149928
-0.015548511 0.027508914 0.70163208
-0.015548463 0.037077129 0.70163161
-0.015548463 0.052625626 0.70163155
-0.016854228 -0.054174274 0.70257771
-0.016854228 -0.046951026 0.70257771
-0.016854228 -0.040931672 0.70257765
-0.016854228 -0.031300724 0.70257771
-0.016854228 -0.021669716 0.70257771
-0.016854228 -0.014446467 0.70257771
-0.016854174 0.014446437 0.70257723
-0.016854174 0.02768904 0.70257723
-0.016854174 0.033708364 0.70257723
-0.016854174 0.046950936 0.70257723
-0.018177103 -0.036354184 0.70353538
0.037580367 -0.0012122691 0.70359129
-0.018177103 0.001211822 0.70353532
-0.018177103 0.030295193 0.70353538
-0.018177047 0.046048522 0.7035349
-0.019517593 -0.041474849 0.70450616
-0.019517593 -0.041474849 0.70450616
-0.019517593 -0.039035201 0.70450622
-0.019517593 -0.034155816 0.70450628
-0.019517593 -0.019517571 0.70450622
-0.019517593 -0.012198478 0.70450622
-0.019517593 -0.004879415 0.70450622
-0.019517593 -0.004879415 0.70450622
0.038952839 -0.0024345219 0.7041955
-0.019517593 2.9802322e-08 0.70450616
0.012205612 0.032955199 0.70459211
-0.019517532 0.046354145 0.70450574
0 0.048763573 0.70441425
-0.019517532 0.058552593 0.70450574
-0.0085150274 0.059605211 0.70409369
-0.020875929 -0.041751832 0.70548952
-0.020875929 -0.030699849 0.70548952
-0.020875929 -0.014735937 0.70548952
-0.020875996 -0.0085960031 0.70548999
0.034435071 0.0049193501 0.70571017
-0.020875929 0.0061399937 0.70548952
-0.020875929 0.015963972 0.70548958
-0.020875929 0.018419951 0.70548952
-0.020875929 0.036839902 0.70548952
-0.020875862 0.045435727 0.70548904
-0.022252599 -0.048213989 0.70648658
-0.022252599 -0.044505209 0.70648658
-0.022252599 -0.037087619 0.70648658
-0.022252599 0.0037087798 0.70648658
0.024772961 0.018579721 0.70677537
-0.022252528 0.02472505 0.70648611
-0.022252528 0.03461507 0.70648611
0.0073990626 0.040694833 0.70611501
-0.022252528 0.05934009 0.70648611
-0.023647839 -0.053518772 0.70749664
0.031197347 0.011231095 0.70789146
-0.023647839 0.023647845 0.70749664
-0.004994194 0.058681816 0.7079705
-0.025062174 -0.060149223 0.70852089
-0.025062174 -0.056389898 0.70852095
-0.025062174 -0.035087019 0.70852095
-0.025062174 -0.018796623 0.70852095
-0.025062174 -0.0075186491 0.70852089
0.036306225 0.0050077736 0.70837975
-0.025062092 0.03508693 0.70852041
-0.025062092 0.037593156 0.70852047
-0.025062092 0.055136621 0.70852041
-0.026495842 -0.055515081 0.70955884
-0.026495842 -0.040374607 0.70955878
0.050353829 -0.012588441 0.70921344
-0.026495842 0.0012617409 0.70955884
-0.026495842 0.015140474 0.70955884
-0.026495842 0.034066111 0.70955878
-0.026495755 0.049206406 0.70955831
-0.0063024159 0.061763704 0.70941108
-0.027949411 -0.050817102 0.71061158
-0.027949411 -0.050817102 0.71061158
-0.027949411 -0.0050816834 0.71061158
-0.027949411 -0 0.71061152
-0.027949411 0.0076225996 0.71061146
-0.027949411 0.016515583 0.71061152
-0.027949318 0.050816983 0.71061099
-0.027949318 0.05716908 0.71061105
-0.029423118 -0.035819471 0.71167839
-0.029423216 -0.031981766 0.71167892
-0.029423216 -0.010234118 0.71167892
0.017862024 0.031896502 0.71126711
-0.029423118 0.049891412 0.71167839
-0.029423019 0.060125321 0.71167785
-0.030917576 -0.041223407 0.71276069
0.033504583 0.012886405 0.71280962
-0.030917471 0.046376199 0.71276021
-0.032433134 -0.031135827 0.71385831
0.05942896 -0.02067095 0.7132076
-0.032433134 -0.014270574 0.71385837
0.046450216 -0.0038708448 0.71300834
-0.032433022 0.028541088 0.71385777
0.0090368846 0.045184433 0.7130928
-0.032433022 0.049298227 0.71385777
-0.03243291 0.058379233 0.71385729
-0.033970118 -0.018291622 0.71497101
-0.033970118 0.014371991 0.71497101
-0.033970118 0.02090472 0.71497101
0.0025987141 0.054572999 0.71410358
-0.033969998 0.062713891 0.71497047
-0.035529226 -0.0039476752 0.71610016
-0.035529226 -0.0039476752 0.71610016
-0.035529226 0.0065794885 0.71610022
-0.035529099 0.025001973 0.71609962
0.006583808 0.051353723 0.71620452
-0.037110686 -0.059642136 0.71724498
-0.037110686 -0.059642136 0.71724498
-0.037110686 -0.034459919 0.71724504
-0.037110686 -0.030483752 0.71724504
-0.037110686 -0.025182247 0.71724504
-0.037110686 0.017229974 0.71724504
-0.037110686 0.034459949 0.71724498
-0.037110556 0.063618094 0.71724451
-0.038715251 -0.050730348 0.71840715
-0.038715251 -0.044055283 0.71840715
-0.038715251 -0.0093450248 0.71840709
-0.038715251 -0.0026700199 0.71840709
-0.038715251 0.013350099 0.71840709
0.016071258 0.041517466 0.71892172
-0.040343147 -0.016137242 0.7195856
-0.040343001 0.044377357 0.71958506
-0.040343001 0.059169769 0.71958506
-0.040343001 0.06185931 0.71958506
-0.041995179 -0.035221756 0.72078204
-0.041995179 -0.023029596 0.72078204
-0.041995179 -0.017610878 0.72078204
-0.041995179 -0.0054187179 0.72078204
-0.041995179 0.0040640533 0.7207821
-0.041995179 0.020320266 0.72078204
0.018921679 0.039194912 0.72040367
-0.04199503 0.056896538 0.72078145
-0.04199503 0.058251143 0.72078151
-0.043671589 -0.053224772 0.72199571
-0.043671589 -0.036847889 0.72199571
-0.043671589 -0.019106328 0.72199571
-0.043671589 0.025930047 0.72199565
-0.043671589 0.040942132 0.72199571
-0.045373231 -0.045373201 0.72322798
-0.045373231 -0.038498461 0.7232281
-0.045373231 -0.038498461 0.7232281
-0.045373231 -0.037123531 0.7232281
-0.045373231 -0.024749011 0.7232281
-0.045373231 -0.010999531 0.72322804
-0.045373231 -0.010999531 0.72322804
-0.045373231 0.0027499199 0.72322804
-0.045373067 0.030248702 0.7232275
-0.045373067 0.045373112 0.72322744
-0.045373067 0.046748042 0.72322744
-0.045373067 0.052247792 0.7232275
-0.045373067 0.064622283 0.72322744
-0.047100354 -0.027706087 0.72447836
-0.047100354 -0.016623646 0.72447836
0.048372693 0.0041462481 0.72408879
-0.047100354 0.016623646 0.72447842
-0.047100354 0.023550153 0.72447836
-0.048853878 -0.0083749592 0.72574836
-0.048853699 0.036291331 0.7257477
0.01533856 0.048804551 0.72557801
0.061540365 -0.011189133 0.72608864
0.057408735 -0.0056008399 0.72627807
0.043346521 0.012584507 0.726044
0.043346521 0.012584507 0.726044
0.026686665 0.03511405 0.72680289
0.004217308 0.064665377 0.72694874
0.004217308 0.064665377 0.72694874
-0.050634053 -0.05766654 0.72703707
-0.050634053 -0.054853559 0.72703707
-0.050634053 -0.025317013 0.72703713
-0.050634053 -0.01969099 0.72703707
-0.050634053 -0.01969099 0.72703707
-0.050634053 0.012658507 0.72703707
-0.050634053 0.012658507 0.72703707
-0.050634053 0.046414584 0.72703707
-0.050633863 0.066105336 0.72703648
-0.052441861 -0.056693882 0.72834629
-0.052441861 -0.04677248 0.72834635
-0.052441861 -0.0099214017 0.72834629
-0.052441861 0.018425554 0.72834629
0.033995088 0.026912779 0.72823942
-0.052441671 0.052441657 0.72834563
-0.054277569 -0.031423837 0.72967529
-0.054277569 -0.031423837 0.72967529
-0.054277569 -0.019996971 0.72967529
-0.05427777 0.0042850971 0.72967589
-0.054277569 0.035708934 0.72967523
-0.054277368 0.064275861 0.72967458
-0.056142226 -0.053263128 0.7310257
-0.056142226 -0.053263128 0.7310257
-0.056142226 -0.050384045 0.7310257
-0.056142226 -0.043186307 0.7310257
-0.056142226 -0.017274499 0.7310257
-0.056142226 -0.011516362 0.7310257
0.063489221 -0.0086576343 0.73143524
-0.056142226 -0.0014395714 0.7310257
-0.056142226 0.023032755 0.7310257
0.036147106 0.027471811 0.73179102
-0.056142014 0.057581574 0.73102498
-0.058036104 -0.047879755 0.73239678
-0.058036104 -0.037723452 0.73239678
-0.058036104 0.031919867 0.73239672
-0.058036104 0.040625274 0.73239678
-0.058036104 0.047879815 0.73239672
-0.059960335 -0.030711383 0.7337904
-0.061915435 -0.017690092 0.73520625
-0.061915435 0.0088450611 0.73520625
-0.061915435 0.0088450611 0.73520625
0.029600875 0.039961219 0.73591441
0.019189781 0.053140968 0.73544282
-0.063901901 -0.050527066 0.73664433
-0.063901901 -0.041610509 0.73664439
-0.063901901 -0.037152231 0.73664433
-0.063901901 -0.028235704 0.73664439
-0.063901901 -0.0074304342 0.73664433
-0.063901901 -0.001486063 0.73664433
-0.063901901 0.017833114 0.73664433
-0.063901901 0.03715229 0.73664439
-0.063901648 0.050526887 0.73664361
-0.063901648 0.05201301 0.73664367
0.00744431 0.069976538 0.73697883
0.065565556 -0.0059604943 0.73713148
0.056760274 0.0059747696 0.73756188
-0.065920733 -0.032960355 0.73810589
0.042456314 0.027293354 0.74029058
-0.070059285 -0.030460566 0.74110305
-0.070059285 -0.027414471 0.74110305
-0.070059285 0.0060921311 0.74110305
-0.070059009 0.04264465 0.74110234
-0.070059009 0.04264465 0.74110234
-0.072180144 -0.013821721 0.74263847
-0.074337028 -0.03252241 0.74420047
-0.074337028 0.004646033 0.74420047
-0.074337028 0.004646033 0.74420047
-0.074337028 0.029425085 0.74420047
-0.074336722 0.044911802 0.74419975
-0.074336722 0.046460479 0.74419975
-0.076530255 0.020303965 0.74578834
0.037491586 0.039053738 0.74582541
0.0171785 0.06559065 0.74576902
0.059695438 0.01099655 0.74688566
-0.078761384 -0.0094513297 0.7474041
-0.078761056 0.047256649 0.74740332
0.036360025 0.042683542 0.74808532
0.032217097 0.051547348 0.75170469
0.0160829 0.072373092 0.75139511
0.040663186 0.042289764 0.75359648
0.030984612 0.055446148 0.75410855
0.049275242 0.032850176 0.75552559
0.034629177 0.05276832 0.75631028
0.078981847 -0.0016804636 0.76010734
0.071176589 0.010168105 0.7618233
0.015196268 0.08273524 0.76107419
0.027610658 0.070752352 0.76556367
0.022464707 0.077762455 0.76585197
0.017304493 0.084792048 0.766141
0.059304159 0.031396329 0.7678057
0.037331261 0.063996434 0.77184218
0.044647474 0.05536285 0.77283436
0.046716418 0.05390358 0.77414846
0.050930429 0.05093047 0.77682328
0.029273681 0.080502629 0.77811021
0.073801145 0.023985356 0.77997196
0.036161546 0.079936087 0.78699863
0.025624627 -0.028946325 0.67181897
0.025624627 -0.028946325 0.67181897
0.028037619 -0.022897363 0.67007196
0.023554906 -0.016825825 0.67331779
0.023554906 -0.016825825 0.67331779
0.020999944 -0.02100122 0.67516768
0.029998379 -0.019353807 0.67406774
0.029998379 -0.019353807 0.67406774
0.021033891 -0.0073368028 0.675354
0.017915485 -0.013436615 0.67740124
0.025833363 -0.010929495 0.67719436
0.015176076 -0.032881513 0.67938495
0.016555749 -0.024584785 0.67838591
0.024210969 -0.0070615113 0.67902911
0.012821816 -0.018978387 0.68108952
0.025036272 -0.0066429079 0.68060577
0.014242701 -0.0010173321 0.68006063
0.0094165802 -0.035050586 0.68355531
0.039573349 -0.023428589 0.68296587
0.0094165541 -0.0026156902 0.68355489
0.010891619 0.0067433417 0.68248701
0.015512867 0.0072393715 0.68209529
0.016700964 0.006787762 0.68325639
0.0094165541 0.0088934302 0.68355495
0.007067807 -0.017318767 0.68525594
0.0068975445 -0.0090218484 0.68537915
0.0046562487 -0.044784307 0.68700206
0.0048305118 -0.037045918 0.68687588
0.036949515 -0.016601041 0.68653512
0.02476212 -0 0.6872161
0.0025362074 -0.026825678 0.68853712
0.0027146139 -0.016840525 0.68840802
0.023880478 0.00217098 0.68828589
0.0027146093 0.013037845 0.68840778
0.012026278 0.018586099 0.68923008
0.0065957843 0.026383132 0.68995428
-0.0022323283 -0.015068203 0.69199026
0 -0.0049624443 0.69037348
-0.0022323215 -0.0027903765 0.6919899
0 0.022606805 0.69037348
-0.0022323215 0.030694425 0.6919899
-0.0033689414 -0.03874281 0.69281304
-0.0033689414 -0.023021087 0.69281304
0.044785965 -0.021273315 0.69241095
-0.0033689414 -0.012914255 0.69281304
-0.0033689414 0.005053401 0.69281304
-0.0045195222 0.027117163 0.69364595
0.0073372005 0.028779089 0.69349551
-0.0033689314 0.030881897 0.69281268
-0.0056843469 -0.031263903 0.6944896
-0.0056843469 -0.017053038 0.6944896
0.029722041 0.0011431575 0.69524843
-0.0056843469 0.0090949833 0.6944896
0.022904979 0.010307252 0.69550109
-0.0068636504 0.016587168 0.69534338
0.015863227 0.018129408 0.69403309
0.0011328451 0.037383884 0.69400376
-0.0086623151 -0.046766683 0.69664598
-0.010491336 -0.03089112 0.69797021
0.050656173 -0.02532804 0.69622868
0.045159314 -0.017368942 0.69703197
0.040406328 -0.011544645 0.69661379
-0.0086623151 -0.0069283843 0.69664598
-0.010491336 -0.005245626 0.69797021
-0.0086623002 0.0028868541 0.69664574
-0.010491336 0.0110742 0.69797027
0.023196496 0.011598229 0.69726062
-0.0034747231 0.046329647 0.69706941
-0.011731445 -0.053378046 0.69886839
-0.012987445 -0.05135943 0.6997776
-0.011731445 -0.046925753 0.69886833
-0.011731445 -0.03695403 0.69886839
-0.012987445 -0.02538456 0.6997776
0.051304325 -0.024486125 0.69800693
-0.011731445 -0.019356877 0.69886839
-0.011731445 -0.012904584 0.69886839
-0.011731445 -0.012904584 0.69886839
0.04011118 -0.0082581937 0.69966459
-0.012987445 -0.0011806488 0.69977766
-0.011731409 0.028741956 0.69886798
-0.012987405 0.0348299 0.69977725
-0.011731409 0.045165941 0.69886792
-0.0070455298 0.052841485 0.69900244
-0.011346996 0.057129018 0.69895697
-0.014904118 -0.017286509 0.70116556
0.046336874 -0.01544562 0.70067668
0.028651224 0.008356601 0.70136184
-0.014904096 0.017286517 0.70116532
0.0071104039 0.035552025 0.70030761
-0.0082936138 0.055685669 0.70027554
-0.018177103 -0.049078152 0.70353538
-0.018177103 -0.043019116 0.70353532
-0.018177103 -0.024842009 0.70353532
-0.018177103 -0.0169653 0.70353538
0.044767201 -0.010889322 0.70330811
-0.018177103 -0.009088546 0.70353532
-0.018177103 -0.0030295104 0.70353538
-0.018177103 0.0066649467 0.70353532
-0.018177103 0.0090885609 0.70353538
-0.016854174 0.021067739 0.70257723
0.015642492 0.026471943 0.70250469
0.0072040879 0.037221134 0.70219243
0.0072040879 0.037221134 0.70219243
-0.018177047 0.041201323 0.7035349
-0.019517593 -0.043304652 0.70450616
-0.020875929 -0.01289396 0.70548952
-0.020875996 -0.011051983 0.70548999
0.040336564 -0.0036669672 0.70480442
0.034435071 0.0049193501 0.70571017
0.030775912 0.0098482966 0.70585656
0.022109915 0.020881623 0.70552969
-0.020875929 0.03499791 0.70548952
-0.023182761 -0.026905438 0.70716
0.040884957 -0.0024778545 0.70681041
-0.022950219 0.009303309 0.70699161
-0.023182683 0.05298385 0.70715946
-0.022717606 0.054929875 0.70682275
-0.006216431 0.05967778 0.70733523
-0.025062174 -0.057016447 0.70852095
-0.026495842 -0.044790581 0.70955884
-0.02649593 -0.013247952 0.70955932
-0.02649593 -0.013247952 0.70955932
-0.026495842 0.042898059 0.70955878
0.0025266616 0.050533235 0.70975482
-0.029423118 -0.055008411 0.71167833
-0.029423118 -0.055008411 0.71167833
-0.027949411 -0.031125456 0.71061152
-0.027949411 -0.022867709 0.71061152
0.057077665 -0.020294279 0.71036583
-0.029423216 -0.0070359558 0.71167886
-0.029423216 -0.0070359558 0.71167886
0.045801714 -0.0050890446 0.71083385
-0.027949411 0.0050816834 0.71061158
-0.027949411 0.0050816834 0.71061158
0.017862024 0.031896502 0.71126711
-0.027949318 0.050816983 0.71061099
-0.029423019 0.055008292 0.71167785
0.051784344 -0.010356843 0.71353042
0.051784344 -0.010356843 0.71353042
-0.030917576 -0.0012882054 0.71276069
-0.032433022 0.012973219 0.71385777
-0.030917576 0.021255851 0.71276069
-0.032433022 0.035027683 0.71385777
-0.030917471 0.054749697 0.71276021
-0.033970118 -0.064020604 0.71497101
-0.033970118 -0.033316821 0.71497101
0.040258091 0.0051946044 0.71401805
-0.033970118 0.011105627 0.71497101
0.036399879 0.010399997 0.71418071
-0.033969998 0.050955027 0.71497047
0.0039153169 0.053509355 0.71479756
-0.035529099 -0.050661862 0.71609962
-0.035529226 -0.0151328 0.71610022
0.04474514 0.0013160408 0.71611661
-0.037110686 0.021206141 0.71724504
0.011891437 0.044923216 0.71674883
0.0026363034 0.05668059 0.71637231
-0.035528976 0.063162625 0.71609908
-0.038715109 -0.056737632 0.71840656
-0.040343147 -0.049084157 0.71958566
-0.038715251 -0.042720258 0.71840709
0.060442794 -0.01611805 0.71939266
-0.040343147 0.0047067404 0.7195856
-0.038715251 0.0066750646 0.71840709
-0.040343147 0.014792472 0.71958566
0.025507335 0.029534787 0.7193104
-0.038715109 0.042720139 0.71840656
-0.038715109 0.048727661 0.71840656
-0.040343001 0.057152599 0.71958506
-0.040343001 0.057152599 0.71958506
-0.040343001 0.059169769 0.71958506
-0.043671589 -0.057318956 0.72199571
-0.043671589 -0.038894996 0.72199571
0.062068582 -0.017541081 0.72013426
-0.041995179 -0.008805424 0.72078204
-0.043671589 -0.0027294457 0.72199571
-0.041995179 0.0027093887 0.7207821
-0.043671589 0.010917932 0.72199571
0.040512957 0.010803491 0.72026891
-0.041995179 0.014901519 0.72078204
-0.043671433 0.064824805 0.72199512
-0.045373231 -0.061185092 0.7232281
0.064671516 -0.017887831 0.72335398
-0.045373231 -0.0068747103 0.7232281
0.046771314 0.005502522 0.72331017
0.041122347 0.012336731 0.72272086
-0.045373067 0.041248262 0.72322744
-0.048853878 -0.066999584 0.7257483
-0.048853878 -0.043270558 0.7257483
-0.048853878 -0.036989331 0.7257483
-0.047100354 -0.016623646 0.72447836
-0.047100354 -0.011082441 0.72447842
0.048372693 0.0041462481 0.72408879
-0.048853878 0.015354067 0.72574836
-0.048853878 0.015354067 0.72574836
-0.048853878 0.018843651 0.7257483
0.022156412 0.038773715 0.72441459
-0.047100354 0.049178332 0.72447836
-0.047100183 0.063031152 0.72447777
-0.050634053 -0.054853559 0.72703707
-0.050634053 -0.025317013 0.72703713
-0.050634053 -0.0028130114 0.72703707
0.032422937 0.028193891 0.7274223
-0.050634053 0.033052802 0.72703707
-0.050634053 0.054853588 0.72703707
-0.052441861 -0.004960686 0.72834635
-0.052441861 -0.0028346777 0.72834635
0.054946501 0.00071187317 0.72952795
-0.054277569 0.017140299 0.72967529
-0.052441671 0.041102946 0.72834569
-0.052441671 0.043228969 0.72834563
0.011341524 0.056707621 0.72838771
-0.054277368 0.061419129 0.72967458
-0.052441671 0.068741143 0.72834569
-0.056142226 -0.059021294 0.73102564
0.065976128 -0.01290834 0.73038828
0.053251058 0.0043177009 0.7309863
0.047317874 0.011471003 0.73034132
-0.056142226 0.015115216 0.7310257
-0.056142226 0.015115216 0.7310257
0.025177943 0.040999487 0.73091638
-0.058677517 -0.031033387 0.73286128
-0.058998331 -0.0029133409 0.73309392
-0.05899822 0.023306817 0.73309356
0.020437138 0.049633056 0.7334702
-0.058998108 0.050983533 0.73309326
0.016076548 0.055537164 0.73367649
-0.061915196 -0.035380125 0.73520553
-0.061915196 -0.028746307 0.73520553
-0.061915435 -0.022849724 0.73520625
0.07064373 -0.01471743 0.73491257
-0.061915435 -0.0088450015 0.73520619
0.051496524 0.010299325 0.73486245
0.045438115 0.017588973 0.73418844
-0.063901901 0.026749671 0.73664433
0.040067382 0.026711583 0.73638922
0.020769851 0.051924646 0.73633897
0.0089785233 0.068835378 0.73789126
0.0059255403 0.071106493 0.7360763
-0.065920994 -0.0089891851 0.73810655
-0.067973003 -0.0030210018 0.73959213
0.060358923 0.003017962 0.73940647
-0.065920994 0.0074910223 0.73810661
-0.065920733 0.026967615 0.73810589
-0.067973003 0.030965492 0.73959219
-0.065920733 0.037455022 0.73810589
-0.067973003 0.043049574 0.73959219
0.023978252 0.049455166 0.73815924
-0.070059285 -0.033506632 0.74110311
0.068522282 -0.0060908794 0.74106556
-0.070059285 -0.0015230179 0.74110311
0.050495796 0.018362135 0.74196589
0.042456314 0.027293354 0.74029058
0.039675999 0.03204602 0.74146187
0.018212458 0.059190512 0.74046052
-0.072180144 -0.016893208 0.74263847
0.067782283 -0.0030809939 0.74321294
-0.072180144 0.0069108754 0.74263847
-0.072180144 0.026875585 0.74263847
0.041416254 0.030678719 0.74241972
-0.072180144 0.052983314 0.74263847
-0.072180144 0.052983314 0.74263847
-0.076530255 -0.023427635 0.74578834
-0.074337028 0.00077438354 0.74420047
-0.076530255 0.012494743 0.74578834
-0.074336722 0.038717031 0.74419975
0.037491586 0.039053738 0.74582541
0.021836324 0.059270024 0.7455343
0.059695438 0.01099655 0.74688566
-0.078761056 0.047256649 0.74740332
0.06074255 0.012787908 0.75021189
0.053174399 0.02417022 0.75176394
0.041774433 0.038561046 0.75120425
0.064640351 0.0096960366 0.75232685
0.045483515 0.035737067 0.75334114
0.049275242 0.032850176 0.75552559
0.060951818 0.018120825 0.7561096
0.024800634 0.066135019 0.75683743
0.081766926 -0.0066748559 0.75868875
0.040251408 0.048637122 0.75970626
0.040251408 0.048637122 0.75970626
0.054138951 0.032145023 0.76148081
0.022046642 0.074619442 0.76197004
0.032742403 0.063761562 0.76527613
0.083607122 0.0035577416 0.77198648
0.053103559 0.042482853 0.77092952
0.02480853 0.079741687 0.7711612
0.075382113 0.016153365 0.77391028
0.075382113 0.016153365 0.77391028
0.067887075 0.025011092 0.7729072
0.082947209 0.0072128475 0.77492285
0.079944946 0.012718558 0.77658021
0.025812391 0.086655915 0.77981675
0.025812391 0.086655915 0.77981675
0.041807536 0.072213054 0.78664899
0.056479655 0.058427215 0.79235041
0.017907381 -0.026042357 0.67740715
0.017907387 -0.022060961 0.67740721
0.030757356 -0.01324977 0.68153381
0.010154087 0.0015627984 0.68302101
0.030739218 -0.0093857031 0.68557352
0.005864019 0.010142164 0.68612742
0.0012702702 -0.045902278 0.68945378
0.027276617 -0.0016333014 0.68896049
0.023880478 0.00217098 0.68828589
-0.0016708726 0.026150636 0.69158322
-0.010295032 -0.018050168 0.69782817
0.03733591 -0.0061245561 0.69808739
-0.010295011 0.021931089 0.69782794
0.013254948 0.025734961 0.69844192
-0.010295002 0.033963036 0.69782782
-0.012987405 0.058148153 0.69977725
-0.014904117 -0.030102409 0.70116556
-0.017515667 -0.017815623 0.70305651
-0.014904071 0.037851445 0.70116508
-0.021913074 -0.021907343 0.70624053
0.011087644 0.035726875 0.70596814
0.011087644 0.035726875 0.70596814
-0.021913014 0.041961744 0.70624018
-0.0012304597 0.051679343 0.70578694
-0.0012304597 0.051679343 0.70578694
-0.021971138 0.057918813 0.7062822
-0.029423118 -0.05404897 0.71167839
-0.029423118 -0.05404897 0.71167839
-0.026502475 -0.042057525 0.70956373
-0.026502475 -0.042057525 0.70956373
-0.029423216 -0.030062839 0.71167892
0.046218704 -0.0063280761 0.71010464
0.042608202 -0.0016859472 0.71001625
0.030148238 0.014546077 0.70993388
-0.026502427 0.026075359 0.70956349
-0.033201598 0.010089986 0.7144146
0.037133381 0.0097701401 0.71452832
0.025134083 0.02513217 0.71416509
-0.030917471 0.042189501 0.71276021
-0.030917471 0.064411402 0.71276021
-0.037912898 -0.057862166 0.71782577
-0.035529099 -0.049674928 0.71609962
-0.040343147 -0.042024091 0.7195856
0.059564851 -0.017207563 0.71703762
-0.040343147 -0.009749569 0.7195856
-0.037912898 0.021946989 0.71782589
-0.035529099 0.025988892 0.71609962
0.017940316 0.037869379 0.7176578
0.020067548 0.036121607 0.71874845
-0.042833384 -0.045890208 0.72138888
-0.042833384 -0.018016148 0.72138888
0.055697143 -0.0081507862 0.72123885
-0.042833384 -0.0020395517 0.72138888
0.0355132 0.019122511 0.72213507
-0.045373067 0.034029827 0.72322744
-0.042833231 0.0540483 0.72138828
-0.042833231 0.0540483 0.72138828
0.0040910887 0.060002685 0.72187001
0.024590611 0.037953094 0.72690308
0.018234437 0.04592897 0.72654086
-0.053359717 -0.050155528 0.72901082
-0.056142226 -0.026271641 0.7310257
0.064229578 -0.011418581 0.72955054
-0.053359717 -0.0060471036 0.72901082
-0.056142226 0.0179943 0.7310257
0.034788813 0.026266113 0.72865224
0.036666185 0.02589263 0.7308445
-0.056142014 0.05398272 0.7310251
-0.05899822 -0.057902817 0.73309356
-0.061915435 -0.0099506676 0.73520625
0.046288095 0.016896352 0.73463023
-0.066946998 -0.01805073 0.7388494
-0.063901901 0.0018576309 0.73664433
-0.066946864 0.022000443 0.73884904
0.044834066 0.021675929 0.7376557
0.019505663 0.055516124 0.7383759
0.012094067 0.066517413 0.7397427
0.012094067 0.066517413 0.7397427
-0.072180144 -0.0099823475 0.74263847
-0.072180144 -0.0099823475 0.74263847
-0.070059285 0.0057113618 0.74110305
-0.070059009 0.046071433 0.74110234
-0.070059009 0.046071433 0.74110234
0.027252438 0.046934783 0.74001622
0.026043132 0.05053873 0.74214238
-0.074337028 -0.033296764 0.74420047
-0.077645816 -0.010195442 0.74659622
0.0643273 0.0047068894 0.74664736
0.050431769 0.021843147 0.74553961
0.013328444 0.071333155 0.74650836
0.0094437096 0.077123642 0.74725008
0.041774433 0.038561046 0.75120425
0.041774433 0.038561046 0.75120425
0.03431043 0.047071978 0.74987942
0.05508665 0.022682756 0.75283223
0.044406131 0.039472133 0.75578678
0.034921981 0.049535111 0.75331247
0.029192459 0.056763142 0.75302631
0.079647653 -0.0049779713 0.75755572
0.078981847 -0.0016804636 0.76010734
0.068272412 0.015361339 0.7632876
0.070386484 0.013733983 0.76448661
0.073926121 0.01408121 0.76972568
0.087624878 0.0036510527 0.77761686
0.057393704 0.042812616 0.77718413
0.038846854 0.070294291 0.780554
0.03752321 0.07504645 0.78372991
0.03752321 0.07504645 0.78372991
0.034038525 0.081314266 0.78552473
0.045918815 0.077862352 0.79825258
