# .PCD v0.7 - Point Cloud Data file format
VERSION 0.7
FIELDS x y z
SIZE 4 4 4
TYPE F F F
COUNT 1 1 1
WIDTH 1330
HEIGHT 1
VIEWPOINT 0 0 0 1 0 0 0
POINTS 1330
DATA ascii
-0.011249993 0.035000026 0.70814562
-0.011183443 0.033550322 0.70725298
-0.011117638 0.032117635 0.70637041
-0.01105264 0.030701786 0.70549858
-0.010988361 0.029302299 0.70463651
-0.010924861 0.027919114 0.70378482
-0.010862056 0.026551694 0.70294249
-0.010800003 0.025200039 0.70211017
-0.010738655 0.023863703 0.70128739
-0.010677967 0.022542387 0.70047337
-0.010617994 0.021236002 0.699669
-0.010558657 0.019944131 0.69887322
-0.010500014 0.018666714 0.69808662
-0.010441985 0.017403334 0.69730836
-0.010384627 0.016153902 0.69653904
-0.010327864 0.014918059 0.69577771
-0.010271748 0.013695687 0.69502509
-0.010216209 0.012486488 0.69428015
-0.010161298 0.011290371 0.69354361
-0.010106944 0.010106951 0.69281465
-0.010053197 0.0089361966 0.69209385
-0.010000018 0.0077778101 0.69138056
-0.0099473717 0.0066316128 0.69067442
-0.0098953042 0.005497396 0.6899761
-0.0098437509 0.0043750107 0.68928468
-0.00979276 0.0032642484 0.68860078
-0.0097422674 0.0021649599 0.68792355
-0.0096923197 0.0010769367 0.68725359
-0.0096428553 -0 0.68659019
-0.0095939189 -0.0010659993 0.68593383
-0.009545451 -0.0021211803 0.68528372
-0.0094974963 -0.0031658113 0.68464053
-0.0094499942 -0.0041999519 0.68400341
-0.0094029922 -0.0052238703 0.68337303
-0.0093564279 -0.0062376261 0.6827485
-0.0093103498 -0.0072413683 0.68213052
-0.0092647225 -0.0082352757 0.68151855
-0.0092195161 -0.0092194676 0.6809122
-0.0091747474 -0.010194123 0.68031174
-0.0091304369 -0.01115942 0.67971748
-0.0090865511 -0.012115359 0.67912883
-0.0092172343 -0.01331374 0.68088162
-0.0093710609 -0.01457721 0.68294483
-0.0095301364 -0.015883535 0.68507832
-0.0096946778 -0.017234981 0.68728524
-0.0098650008 -0.018633872 0.68956965
-0.010041445 -0.020082861 0.69193614
-0.010224286 -0.02158457 0.69438845
-0.010413907 -0.02314201 0.69693178
-0.010610729 -0.024758369 0.69957161
-0.0108151 -0.026436865 0.70231259
-0.011027498 -0.028181344 0.70516139
-0.011248442 -0.029995829 0.70812476
-0.011478383 -0.031884402 0.71120882
-0.011717921 -0.033851773 0.71442157
-0.011967712 -0.035903126 0.71777189
-0.01222834 -0.038043737 0.72126746
-0.012500572 -0.040279597 0.72491872
-0.012785249 -0.0426175 0.72873688
-0.013083146 -0.045064151 0.73273242
-0.013395255 -0.047627568 0.73691845
-0.013722674 -0.050316483 0.74130994
-0.014066442 -0.053139865 0.7459206
-0.014427876 -0.056108385 0.75076824
-0.014808438 -0.059233755 0.75587249
-0.015209553 -0.062528104 0.76125234
-0.015633002 -0.066005975 0.76693183
-0.016080782 -0.069683373 0.77293754
-0.016554888 -0.073577285 0.7792964
-0.017057801 -0.077707738 0.78604162
-0.017592316 -0.082097471 0.79321074
-0.011506871 0.071917981 0.73088264
-0.011428571 0.070000023 0.72970116
-0.01135137 0.068108261 0.72853625
-0.011275165 0.066241622 0.72738642
-0.011200015 0.064400107 0.7262525
-0.011125823 0.062582791 0.72513306
-0.011052645 0.060789585 0.72402883
-0.010980384 0.059019595 0.72293848
-0.010909102 0.057272762 0.72186297
-0.010838699 0.05554837 0.72080064
-0.010769239 0.05384621 0.71975261
-0.010700625 0.052165568 0.71871722
-0.010632917 0.050506353 0.71769571
-0.010566023 0.048867851 0.71668631
-0.010500003 0.047250003 0.71569014
-0.010434803 0.0456523 0.7147063
-0.010370371 0.044074088 0.71373415
-0.010306765 0.042515457 0.7127744
-0.0102439 0.04097563 0.71182585
-0.010181832 0.039454639 0.71088928
-0.010120478 0.037951797 0.70996356
-0.010059891 0.036467105 0.70904934
-0.0099999942 0.035000026 0.70814562
-0.0099408375 0.033550322 0.70725298
-0.0098823449 0.032117635 0.70637041
-0.0098245684 0.030701786 0.70549858
-0.0097674318 0.029302299 0.70463651
-0.009710988 0.027919114 0.70378482
-0.0096551608 0.026551694 0.70294249
-0.0096000032 0.025200039 0.70211017
-0.0095454715 0.023863703 0.70128739
-0.0094915256 0.022542387 0.70047337
-0.0094382176 0.021236002 0.699669
-0.009385474 0.019944131 0.69887322
-0.0093333451 0.018666714 0.69808662
-0.0092817647 0.017403334 0.69730836
-0.0092307795 0.016153902 0.69653904
-0.0091803242 0.014918059 0.69577771
-0.0091304425 0.013695687 0.69502509
-0.009081075 0.012486488 0.69428015
-0.0090322653 0.011290371 0.69354361
-0.0089839492 0.010106951 0.69281465
-0.0089361742 0.0089361966 0.69209385
-0.0088889059 0.0077778101 0.69138056
-0.0088421078 0.0066316128 0.69067442
-0.0087958258 0.005497396 0.6899761
-0.0087500019 0.0043750107 0.68928468
-0.0087046763 0.0032642484 0.68860078
-0.0086597931 0.0021649599 0.68792355
-0.008615396 0.0010769367 0.68725359
-0.0085714273 -0 0.68659019
-0.008527928 -0.0010659993 0.68593383
-0.008484845 -0.0021211803 0.68528372
-0.0084422184 -0.0031658113 0.68464053
-0.008399995 -0.0041999519 0.68400341
-0.008358215 -0.0052238703 0.68337303
-0.0083168251 -0.0062376261 0.6827485
-0.0082758665 -0.0072413683 0.68213052
-0.0082353083 -0.0082352757 0.68151855
-0.0081951246 -0.0092194676 0.6809122
-0.008155331 -0.010194123 0.68031174
-0.0081159435 -0.01115942 0.67971748
-0.0080769341 -0.012115359 0.67912883
-0.0081930971 -0.01331374 0.68088162
-0.008329832 -0.01457721 0.68294483
-0.0084712319 -0.015883535 0.68507832
-0.0086174915 -0.017234981 0.68728524
-0.0087688891 -0.018633872 0.68956965
-0.0089257294 -0.020082861 0.69193614
-0.0090882536 -0.02158457 0.69438845
-0.0092568072 -0.02314201 0.69693178
-0.0094317589 -0.024758369 0.69957161
-0.0096134227 -0.026436865 0.70231259
-0.0098022204 -0.028181344 0.70516139
-0.0099986158 -0.029995829 0.70812476
-0.010203007 -0.031884402 0.71120882
-0.01041593 -0.033851773 0.71442157
-0.010637965 -0.035903126 0.71777189
-0.010869635 -0.038043737 0.72126746
-0.01111162 -0.040279597 0.72491872
-0.011364667 -0.0426175 0.72873688
-0.011629463 -0.045064151 0.73273242
-0.011906893 -0.047627568 0.73691845
-0.012197932 -0.050316483 0.74130994
-0.012503504 -0.053139865 0.7459206
-0.012824778 -0.056108385 0.75076824
-0.013163056 -0.059233755 0.75587249
-0.013519603 -0.062528104 0.76125234
-0.013896002 -0.066005975 0.76693183
-0.014294028 -0.069683373 0.77293754
-0.014715456 -0.073577285 0.7792964
-0.015162489 -0.077707738 0.78604162
-0.015637614 -0.082097471 0.79321074
-0.010068513 0.071917981 0.73088264
-0.0099999998 0.070000023 0.72970116
-0.0099324491 0.068108261 0.72853625
-0.0098657692 0.066241622 0.72738642
-0.009800015 0.064400107 0.7262525
-0.0097350944 0.062582791 0.72513306
-0.0096710641 0.060789585 0.72402883
-0.0096078357 0.059019595 0.72293848
-0.0095454631 0.057272762 0.72186297
-0.0094838617 0.05554837 0.72080064
-0.0094230836 0.05384621 0.71975261
-0.0093630468 0.052165568 0.71871722
-0.0093038026 0.050506353 0.71769571
-0.0092452709 0.048867851 0.71668631
-0.0091875028 0.047250003 0.71569014
-0.0091304518 0.0456523 0.7147063
-0.0090740742 0.044074088 0.71373415
-0.0090184193 0.042515457 0.7127744
-0.0089634126 0.04097563 0.71182585
-0.0089091035 0.039454639 0.71088928
-0.0088554183 0.037951797 0.70996356
-0.0088024056 0.036467105 0.70904934
-0.0087499944 0.035000026 0.70814562
-0.0086982334 0.033550322 0.70725298
-0.0086470516 0.032117635 0.70637041
-0.0085964967 0.030701786 0.70549858
-0.0085465033 0.029302299 0.70463651
-0.0084971143 0.027919114 0.70378482
-0.0084482655 0.026551694 0.70294249
-0.0084000025 0.025200039 0.70211017
-0.0083522871 0.023863703 0.70128739
-0.0083050849 0.022542387 0.70047337
-0.0082584396 0.021236002 0.699669
-0.0082122898 0.019944131 0.69887322
-0.0081666773 0.018666714 0.69808662
-0.0081215445 0.017403334 0.69730836
-0.0080769323 0.016153902 0.69653904
-0.0080327829 0.014918059 0.69577771
-0.0079891374 0.013695687 0.69502509
-0.0079459408 0.012486488 0.69428015
-0.0079032313 0.011290371 0.69354361
-0.0078609558 0.010106951 0.69281465
-0.0078191524 0.0089361966 0.69209385
-0.0077777924 0.0077778101 0.69138056
-0.0077368445 0.0066316128 0.69067442
-0.0076963478 0.005497396 0.6899761
-0.0076562511 0.0043750107 0.68928468
-0.0076165916 0.0032642484 0.68860078
-0.0075773187 0.0021649599 0.68792355
-0.0075384709 0.0010769367 0.68725359
-0.007499998 -0 0.68659019
-0.0074619371 -0.0010659993 0.68593383
-0.0074242395 -0.0021211803 0.68528372
-0.007386941 -0.0031658113 0.68464053
-0.0073499959 -0.0041999519 0.68400341
-0.0073134378 -0.0052238703 0.68337303
-0.0072772224 -0.0062376261 0.6827485
-0.0072413832 -0.0072413683 0.68213052
-0.0072058951 -0.0082352757 0.68151855
-0.0071707345 -0.0092194676 0.6809122
-0.0071359146 -0.010194123 0.68031174
-0.0071014506 -0.01115942 0.67971748
-0.0070673176 -0.012115359 0.67912883
-0.0071689603 -0.01331374 0.68088162
-0.0072886031 -0.01457721 0.68294483
-0.0074123284 -0.015883535 0.68507832
-0.0075403047 -0.017234981 0.68728524
-0.0076727783 -0.018633872 0.68956965
-0.0078100124 -0.020082861 0.69193614
-0.0079522217 -0.02158457 0.69438845
-0.0080997059 -0.02314201 0.69693178
-0.0082527893 -0.024758369 0.69957161
-0.0084117446 -0.026436865 0.70231259
-0.0085769426 -0.028181344 0.70516139
-0.0087487884 -0.029995829 0.70812476
-0.0089276321 -0.031884402 0.71120882
-0.0091139385 -0.033851773 0.71442157
-0.0093082199 -0.035903126 0.71777189
-0.0095109306 -0.038043737 0.72126746
-0.0097226677 -0.040279597 0.72491872
-0.0099440841 -0.0426175 0.72873688
-0.01017578 -0.045064151 0.73273242
-0.010418531 -0.047627568 0.73691845
-0.01067319 -0.050316483 0.74130994
-0.010940566 -0.053139865 0.7459206
-0.011221682 -0.056108385 0.75076824
-0.011517674 -0.059233755 0.75587249
-0.011829653 -0.062528104 0.76125234
-0.012159003 -0.066005975 0.76693183
-0.012507275 -0.069683373 0.77293754
-0.012876024 -0.073577285 0.7792964
-0.013267178 -0.077707738 0.78604162
-0.013682912 -0.082097471 0.79321074
-0.0086301547 0.071917981 0.73088264
-0.0085714282 0.070000023 0.72970116
-0.0085135279 0.068108261 0.72853625
-0.0084563736 0.066241622 0.72738642
-0.0084000118 0.064400107 0.7262525
-0.0083443662 0.062582791 0.72513306
-0.0082894834 0.060789585 0.72402883
-0.0082352888 0.059019595 0.72293848
-0.0081818262 0.057272762 0.72186297
-0.0081290249 0.05554837 0.72080064
-0.0080769286 0.05384621 0.71975261
-0.0080254683 0.052165568 0.71871722
-0.007974687 0.050506353 0.71769571
-0.0079245176 0.048867851 0.71668631
-0.007875002 0.047250003 0.71569014
-0.007826101 0.0456523 0.7147063
-0.007777778 0.044074088 0.71373415
-0.0077300738 0.042515457 0.7127744
-0.0076829256 0.04097563 0.71182585
-0.0076363743 0.039454639 0.71088928
-0.0075903581 0.037951797 0.70996356
-0.0075449189 0.036467105 0.70904934
-0.0074999956 0.035000026 0.70814562
-0.0074556279 0.033550322 0.70725298
-0.0074117584 0.032117635 0.70637041
-0.0073684263 0.030701786 0.70549858
-0.0073255743 0.029302299 0.70463651
-0.0072832406 0.027919114 0.70378482
-0.0072413706 0.026551694 0.70294249
-0.0072000022 0.025200039 0.70211017
-0.0071591036 0.023863703 0.70128739
-0.0071186447 0.022542387 0.70047337
-0.0070786625 0.021236002 0.699669
-0.0070391055 0.019944131 0.69887322
-0.0070000091 0.018666714 0.69808662
-0.0069613238 0.017403334 0.69730836
-0.0069230846 0.016153902 0.69653904
-0.0068852422 0.014918059 0.69577771
-0.0068478319 0.013695687 0.69502509
-0.0068108062 0.012486488 0.69428015
-0.0067741983 0.011290371 0.69354361
-0.0067379624 0.010106951 0.69281465
-0.0067021311 0.0089361966 0.69209385
-0.0066666789 0.0077778101 0.69138056
-0.0066315811 0.0066316128 0.69067442
-0.0065968698 0.005497396 0.6899761
-0.0065625007 0.0043750107 0.68928468
-0.006528507 0.0032642484 0.68860078
-0.0064948448 0.0021649599 0.68792355
-0.0064615468 0.0010769367 0.68725359
-0.00642857 -0 0.68659019
-0.0063959458 -0.0010659993 0.68593383
-0.0063636336 -0.0021211803 0.68528372
-0.006331664 -0.0031658113 0.68464053
-0.0062999963 -0.0041999519 0.68400341
-0.006268661 -0.0052238703 0.68337303
-0.0062376191 -0.0062376261 0.6827485
-0.0062068994 -0.0072413683 0.68213052
-0.0061764815 -0.0082352757 0.68151855
-0.0061463439 -0.0092194676 0.6809122
-0.0061164983 -0.010194123 0.68031174
-0.0060869576 -0.01115942 0.67971748
-0.0060577006 -0.012115359 0.67912883
-0.006144823 -0.01331374 0.68088162
-0.0062473742 -0.01457721 0.68294483
-0.0063534244 -0.015883535 0.68507832
-0.0064631184 -0.017234981 0.68728524
-0.0065766671 -0.018633872 0.68956965
-0.0066942964 -0.020082861 0.69193614
-0.0068161897 -0.02158457 0.69438845
-0.0069426051 -0.02314201 0.69693178
-0.0070738196 -0.024758369 0.69957161
-0.0072100665 -0.026436865 0.70231259
-0.0073516653 -0.028181344 0.70516139
-0.0074989614 -0.029995829 0.70812476
-0.0076522557 -0.031884402 0.71120882
-0.0078119473 -0.033851773 0.71442157
-0.0079784747 -0.035903126 0.71777189
-0.0081522269 -0.038043737 0.72126746
-0.0083337156 -0.040279597 0.72491872
-0.0085234996 -0.0426175 0.72873688
-0.0087220967 -0.045064151 0.73273242
-0.008930169 -0.047627568 0.73691845
-0.0091484496 -0.050316483 0.74130994
-0.0093776276 -0.053139865 0.7459206
-0.0096185841 -0.056108385 0.75076824
-0.0098722931 -0.059233755 0.75587249
-0.010139703 -0.062528104 0.76125234
-0.010422002 -0.066005975 0.76693183
-0.010720521 -0.069683373 0.77293754
-0.011036592 -0.073577285 0.7792964
-0.011371867 -0.077707738 0.78604162
-0.01172821 -0.082097471 0.79321074
-0.0071917949 0.071917981 0.73088264
-0.0071428572 0.070000023 0.72970116
-0.0070946068 0.068108261 0.72853625
-0.007046978 0.066241622 0.72738642
-0.00700001 0.064400107 0.7262525
-0.006953639 0.062582791 0.72513306
-0.0069079031 0.060789585 0.72402883
-0.0068627405 0.059019595 0.72293848
-0.0068181884 0.057272762 0.72186297
-0.0067741876 0.05554837 0.72080064
-0.0067307744 0.05384621 0.71975261
-0.0066878903 0.052165568 0.71871722
-0.0066455728 0.050506353 0.71769571
-0.0066037644 0.048867851 0.71668631
-0.0065625017 0.047250003 0.71569014
-0.0065217512 0.0456523 0.7147063
-0.0064814813 0.044074088 0.71373415
-0.0064417282 0.042515457 0.7127744
-0.0064024376 0.04097563 0.71182585
-0.0063636452 0.039454639 0.71088928
-0.0063252985 0.037951797 0.70996356
-0.0062874327 0.036467105 0.70904934
-0.0062499964 0.035000026 0.70814562
-0.0062130233 0.033550322 0.70725298
-0.0061764657 0.032117635 0.70637041
-0.006140355 0.030701786 0.70549858
-0.0061046449 0.029302299 0.70463651
-0.0060693668 0.027919114 0.70378482
-0.0060344753 0.026551694 0.70294249
-0.0060000019 0.025200039 0.70211017
-0.0059659197 0.023863703 0.70128739
-0.005932204 0.022542387 0.70047337
-0.0058988854 0.021236002 0.699669
-0.0058659213 0.019944131 0.69887322
-0.0058333413 0.018666714 0.69808662
-0.0058011035 0.017403334 0.69730836
-0.0057692374 0.016153902 0.69653904
-0.0057377019 0.014918059 0.69577771
-0.0057065268 0.013695687 0.69502509
-0.0056756716 0.012486488 0.69428015
-0.0056451652 0.011290371 0.69354361
-0.0056149685 0.010106951 0.69281465
-0.0055851093 0.0089361966 0.69209385
-0.0055555659 0.0077778101 0.69138056
-0.0055263173 0.0066316128 0.69067442
-0.0054973913 0.005497396 0.6899761
-0.0054687508 0.0043750107 0.68928468
-0.0054404223 0.0032642484 0.68860078
-0.0054123709 0.0021649599 0.68792355
-0.0053846221 0.0010769367 0.68725359
-0.0053571416 -0 0.68659019
-0.0053299549 -0.0010659993 0.68593383
-0.005303028 -0.0021211803 0.68528372
-0.0052763866 -0.0031658113 0.68464053
-0.0052499967 -0.0041999519 0.68400341
-0.0052238842 -0.0052238703 0.68337303
-0.0051980158 -0.0062376261 0.6827485
-0.0051724166 -0.0072413683 0.68213052
-0.0051470678 -0.0082352757 0.68151855
-0.0051219529 -0.0092194676 0.6809122
-0.0050970819 -0.010194123 0.68031174
-0.0050724647 -0.01115942 0.67971748
-0.0050480841 -0.012115359 0.67912883
-0.0051206858 -0.01331374 0.68088162
-0.0052061453 -0.01457721 0.68294483
-0.0052945199 -0.015883535 0.68507832
-0.005385932 -0.017234981 0.68728524
-0.0054805558 -0.018633872 0.68956965
-0.0055785803 -0.020082861 0.69193614
-0.0056801587 -0.02158457 0.69438845
-0.0057855039 -0.02314201 0.69693178
-0.00589485 -0.024758369 0.69957161
-0.0060083889 -0.026436865 0.70231259
-0.006126388 -0.028181344 0.70516139
-0.0062491349 -0.029995829 0.70812476
-0.0063768798 -0.031884402 0.71120882
-0.0065099564 -0.033851773 0.71442157
-0.0066487286 -0.035903126 0.71777189
-0.0067935223 -0.038043737 0.72126746
-0.0069447625 -0.040279597 0.72491872
-0.0071029165 -0.0426175 0.72873688
-0.0072684144 -0.045064151 0.73273242
-0.007441808 -0.047627568 0.73691845
-0.0076237074 -0.050316483 0.74130994
-0.0078146905 -0.053139865 0.7459206
-0.0080154873 -0.056108385 0.75076824
-0.0082269106 -0.059233755 0.75587249
-0.0084497519 -0.062528104 0.76125234
-0.0086850012 -0.066005975 0.76693183
-0.0089337677 -0.069683373 0.77293754
-0.0091971606 -0.073577285 0.7792964
-0.0094765555 -0.077707738 0.78604162
-0.0097735086 -0.082097471 0.79321074
-0.0057534357 0.071917981 0.73088264
-0.0057142857 0.070000023 0.72970116
-0.0056756851 0.068108261 0.72853625
-0.0056375824 0.066241622 0.72738642
-0.0056000077 0.064400107 0.7262525
-0.0055629113 0.062582791 0.72513306
-0.0055263224 0.060789585 0.72402883
-0.0054901922 0.059019595 0.72293848
-0.005454551 0.057272762 0.72186297
-0.0054193493 0.05554837 0.72080064
-0.0053846193 0.05384621 0.71975261
-0.0053503127 0.052165568 0.71871722
-0.0053164586 0.050506353 0.71769571
-0.0052830116 0.048867851 0.71668631
-0.0052500013 0.047250003 0.71569014
-0.0052174013 0.0456523 0.7147063
-0.0051851855 0.044074088 0.71373415
-0.0051533827 0.042515457 0.7127744
-0.0051219501 0.04097563 0.71182585
-0.0050909161 0.039454639 0.71088928
-0.0050602388 0.037951797 0.70996356
-0.0050299456 0.036467105 0.70904934
-0.0049999971 0.035000026 0.70814562
-0.0049704188 0.033550322 0.70725298
-0.0049411724 0.032117635 0.70637041
-0.0049122842 0.030701786 0.70549858
-0.0048837159 0.029302299 0.70463651
-0.004855494 0.027919114 0.70378482
-0.0048275804 0.026551694 0.70294249
-0.0048000016 0.025200039 0.70211017
-0.0047727358 0.023863703 0.70128739
-0.0047457628 0.022542387 0.70047337
-0.0047191088 0.021236002 0.699669
-0.004692737 0.019944131 0.69887322
-0.0046666726 0.018666714 0.69808662
-0.0046408824 0.017403334 0.69730836
-0.0046153897 0.016153902 0.69653904
-0.0045901621 0.014918059 0.69577771
-0.0045652213 0.013695687 0.69502509
-0.0045405375 0.012486488 0.69428015
-0.0045161326 0.011290371 0.69354361
-0.0044919746 0.010106951 0.69281465
-0.0044680871 0.0089361966 0.69209385
-0.0044444529 0.0077778101 0.69138056
-0.0044210539 0.0066316128 0.69067442
-0.0043979129 0.005497396 0.6899761
-0.0043750009 0.0043750107 0.68928468
-0.0043523381 0.0032642484 0.68860078
-0.0043298965 0.0021649599 0.68792355
-0.004307698 0.0010769367 0.68725359
-0.0042857137 -0 0.68659019
-0.004263964 -0.0010659993 0.68593383
-0.0042424225 -0.0021211803 0.68528372
-0.0042211092 -0.0031658113 0.68464053
-0.0041999975 -0.0041999519 0.68400341
-0.0041791075 -0.0052238703 0.68337303
-0.0041584126 -0.0062376261 0.6827485
-0.0041379333 -0.0072413683 0.68213052
-0.0041176542 -0.0082352757 0.68151855
-0.0040975623 -0.0092194676 0.6809122
-0.0040776655 -0.010194123 0.68031174
-0.0040579718 -0.01115942 0.67971748
-0.0040384671 -0.012115359 0.67912883
-0.0040965485 -0.01331374 0.68088162
-0.004164916 -0.01457721 0.68294483
-0.004235616 -0.015883535 0.68507832
-0.0043087457 -0.017234981 0.68728524
-0.0043844446 -0.018633872 0.68956965
-0.0044628647 -0.020082861 0.69193614
-0.0045441268 -0.02158457 0.69438845
-0.0046284036 -0.02314201 0.69693178
-0.0047158794 -0.024758369 0.69957161
-0.0048067113 -0.026436865 0.70231259
-0.0049011102 -0.028181344 0.70516139
-0.0049993079 -0.029995829 0.70812476
-0.0051015033 -0.031884402 0.71120882
-0.0052079652 -0.033851773 0.71442157
-0.0053189825 -0.035903126 0.71777189
-0.0054348176 -0.038043737 0.72126746
-0.0055558099 -0.040279597 0.72491872
-0.0056823334 -0.0426175 0.72873688
-0.0058147316 -0.045064151 0.73273242
-0.0059534465 -0.047627568 0.73691845
-0.0060989661 -0.050316483 0.74130994
-0.0062517519 -0.053139865 0.7459206
-0.0064123892 -0.056108385 0.75076824
-0.0065815281 -0.059233755 0.75587249
-0.0067598014 -0.062528104 0.76125234
-0.0069480012 -0.066005975 0.76693183
-0.0071470141 -0.069683373 0.77293754
-0.0073577282 -0.073577285 0.7792964
-0.0075812447 -0.077707738 0.78604162
-0.0078188069 -0.082097471 0.79321074
-0.0043150773 0.071917981 0.73088264
-0.0042857141 0.070000023 0.72970116
-0.004256764 0.068108261 0.72853625
-0.0042281868 0.066241622 0.72738642
-0.0042000059 0.064400107 0.7262525
-0.0041721831 0.062582791 0.72513306
-0.0041447417 0.060789585 0.72402883
-0.0041176444 0.059019595 0.72293848
-0.0040909131 0.057272762 0.72186297
-0.0040645124 0.05554837 0.72080064
-0.0040384643 0.05384621 0.71975261
-0.0040127342 0.052165568 0.71871722
-0.0039873435 0.050506353 0.71769571
-0.0039622588 0.048867851 0.71668631
-0.003937501 0.047250003 0.71569014
-0.0039130505 0.0456523 0.7147063
-0.003888889 0.044074088 0.71373415
-0.0038650369 0.042515457 0.7127744
-0.0038414628 0.04097563 0.71182585
-0.0038181872 0.039454639 0.71088928
-0.0037951791 0.037951797 0.70996356
-0.0037724595 0.036467105 0.70904934
-0.0037499978 0.035000026 0.70814562
-0.0037278139 0.033550322 0.70725298
-0.0037058792 0.032117635 0.70637041
-0.0036842132 0.030701786 0.70549858
-0.0036627871 0.029302299 0.70463651
-0.0036416203 0.027919114 0.70378482
-0.0036206853 0.026551694 0.70294249
-0.0036000011 0.025200039 0.70211017
-0.0035795518 0.023863703 0.70128739
-0.0035593223 0.022542387 0.70047337
-0.0035393313 0.021236002 0.699669
-0.0035195528 0.019944131 0.69887322
-0.0035000045 0.018666714 0.69808662
-0.0034806619 0.017403334 0.69730836
-0.0034615423 0.016153902 0.69653904
-0.0034426211 0.014918059 0.69577771
-0.0034239159 0.013695687 0.69502509
-0.0034054031 0.012486488 0.69428015
-0.0033870991 0.011290371 0.69354361
-0.0033689812 0.010106951 0.69281465
-0.0033510656 0.0089361966 0.69209385
-0.0033333395 0.0077778101 0.69138056
-0.0033157906 0.0066316128 0.69067442
-0.0032984349 0.005497396 0.6899761
-0.0032812504 0.0043750107 0.68928468
-0.0032642535 0.0032642484 0.68860078
-0.0032474224 0.0021649599 0.68792355
-0.0032307734 0.0010769367 0.68725359
-0.003214285 -0 0.68659019
-0.0031979729 -0.0010659993 0.68593383
-0.0031818168 -0.0021211803 0.68528372
-0.003165832 -0.0031658113 0.68464053
-0.0031499981 -0.0041999519 0.68400341
-0.0031343305 -0.0052238703 0.68337303
-0.0031188095 -0.0062376261 0.6827485
-0.0031034497 -0.0072413683 0.68213052
-0.0030882407 -0.0082352757 0.68151855
-0.0030731719 -0.0092194676 0.6809122
-0.0030582491 -0.010194123 0.68031174
-0.0030434788 -0.01115942 0.67971748
-0.0030288503 -0.012115359 0.67912883
-0.0030724115 -0.01331374 0.68088162
-0.0031236871 -0.01457721 0.68294483
-0.0031767122 -0.015883535 0.68507832
-0.0032315592 -0.017234981 0.68728524
-0.0032883335 -0.018633872 0.68956965
-0.0033471482 -0.020082861 0.69193614
-0.0034080949 -0.02158457 0.69438845
-0.0034713026 -0.02314201 0.69693178
-0.0035369098 -0.024758369 0.69957161
-0.0036050333 -0.026436865 0.70231259
-0.0036758326 -0.028181344 0.70516139
-0.0037494807 -0.029995829 0.70812476
-0.0038261279 -0.031884402 0.71120882
-0.0039059736 -0.033851773 0.71442157
-0.0039892374 -0.035903126 0.71777189
-0.0040761135 -0.038043737 0.72126746
-0.0041668578 -0.040279597 0.72491872
-0.0042617498 -0.0426175 0.72873688
-0.0043610483 -0.045064151 0.73273242
-0.0044650845 -0.047627568 0.73691845
-0.0045742248 -0.050316483 0.74130994
-0.0046888138 -0.053139865 0.7459206
-0.004809292 -0.056108385 0.75076824
-0.0049361465 -0.059233755 0.75587249
-0.0050698514 -0.062528104 0.76125234
-0.0052110008 -0.066005975 0.76693183
-0.0053602606 -0.069683373 0.77293754
-0.0055182958 -0.073577285 0.7792964
-0.0056859334 -0.077707738 0.78604162
-0.0058641052 -0.082097471 0.79321074
-0.0028767178 0.071917981 0.73088264
-0.0028571428 0.070000023 0.72970116
-0.0028378426 0.068108261 0.72853625
-0.0028187912 0.066241622 0.72738642
-0.0028000039 0.064400107 0.7262525
-0.0027814556 0.062582791 0.72513306
-0.0027631612 0.060789585 0.72402883
-0.0027450961 0.059019595 0.72293848
-0.0027272755 0.057272762 0.72186297
-0.0027096746 0.05554837 0.72080064
-0.0026923097 0.05384621 0.71975261
-0.0026751563 0.052165568 0.71871722
-0.0026582293 0.050506353 0.71769571
-0.0026415058 0.048867851 0.71668631
-0.0026250007 0.047250003 0.71569014
-0.0026087007 0.0456523 0.7147063
-0.0025925927 0.044074088 0.71373415
-0.0025766913 0.042515457 0.7127744
-0.002560975 0.04097563 0.71182585
-0.002545458 0.039454639 0.71088928
-0.0025301194 0.037951797 0.70996356
-0.0025149728 0.036467105 0.70904934
-0.0024999985 0.035000026 0.70814562
-0.0024852094 0.033550322 0.70725298
-0.0024705862 0.032117635 0.70637041
-0.0024561421 0.030701786 0.70549858
-0.0024418579 0.029302299 0.70463651
-0.002427747 0.027919114 0.70378482
-0.0024137902 0.026551694 0.70294249
-0.0024000008 0.025200039 0.70211017
-0.0023863679 0.023863703 0.70128739
-0.0023728814 0.022542387 0.70047337
-0.0023595544 0.021236002 0.699669
-0.0023463685 0.019944131 0.69887322
-0.0023333363 0.018666714 0.69808662
-0.0023204412 0.017403334 0.69730836
-0.0023076949 0.016153902 0.69653904
-0.002295081 0.014918059 0.69577771
-0.0022826106 0.013695687 0.69502509
-0.0022702687 0.012486488 0.69428015
-0.0022580663 0.011290371 0.69354361
-0.0022459873 0.010106951 0.69281465
-0.0022340436 0.0089361966 0.69209385
-0.0022222265 0.0077778101 0.69138056
-0.002210527 0.0066316128 0.69067442
-0.0021989564 0.005497396 0.6899761
-0.0021875005 0.0043750107 0.68928468
-0.0021761691 0.0032642484 0.68860078
-0.0021649483 0.0021649599 0.68792355
-0.002153849 0.0010769367 0.68725359
-0.0021428568 -0 0.68659019
-0.002131982 -0.0010659993 0.68593383
-0.0021212113 -0.0021211803 0.68528372
-0.0021105546 -0.0031658113 0.68464053
-0.0020999988 -0.0041999519 0.68400341
-0.0020895537 -0.0052238703 0.68337303
-0.0020792063 -0.0062376261 0.6827485
-0.0020689666 -0.0072413683 0.68213052
-0.0020588271 -0.0082352757 0.68151855
-0.0020487811 -0.0092194676 0.6809122
-0.0020388328 -0.010194123 0.68031174
-0.0020289859 -0.01115942 0.67971748
-0.0020192335 -0.012115359 0.67912883
-0.0020482743 -0.01331374 0.68088162
-0.002082458 -0.01457721 0.68294483
-0.002117808 -0.015883535 0.68507832
-0.0021543729 -0.017234981 0.68728524
-0.0021922223 -0.018633872 0.68956965
-0.0022314324 -0.020082861 0.69193614
-0.0022720634 -0.02158457 0.69438845
-0.0023142018 -0.02314201 0.69693178
-0.0023579397 -0.024758369 0.69957161
-0.0024033557 -0.026436865 0.70231259
-0.0024505551 -0.028181344 0.70516139
-0.002499654 -0.029995829 0.70812476
-0.0025507517 -0.031884402 0.71120882
-0.0026039826 -0.033851773 0.71442157
-0.0026594913 -0.035903126 0.71777189
-0.0027174088 -0.038043737 0.72126746
-0.002777905 -0.040279597 0.72491872
-0.0028411667 -0.0426175 0.72873688
-0.0029073658 -0.045064151 0.73273242
-0.0029767232 -0.047627568 0.73691845
-0.0030494831 -0.050316483 0.74130994
-0.003125876 -0.053139865 0.7459206
-0.0032061946 -0.056108385 0.75076824
-0.0032907641 -0.059233755 0.75587249
-0.0033799007 -0.062528104 0.76125234
-0.0034740006 -0.066005975 0.76693183
-0.0035735071 -0.069683373 0.77293754
-0.0036788641 -0.073577285 0.7792964
-0.0037906223 -0.077707738 0.78604162
-0.0039094035 -0.082097471 0.79321074
-0.0014383589 0.071917981 0.73088264
-0.0014285714 0.070000023 0.72970116
-0.0014189213 0.068108261 0.72853625
-0.0014093956 0.066241622 0.72738642
-0.0014000019 0.064400107 0.7262525
-0.0013907278 0.062582791 0.72513306
-0.0013815806 0.060789585 0.72402883
-0.0013725481 0.059019595 0.72293848
-0.0013636377 0.057272762 0.72186297
-0.0013548373 0.05554837 0.72080064
-0.0013461548 0.05384621 0.71975261
-0.0013375782 0.052165568 0.71871722
-0.0013291147 0.050506353 0.71769571
-0.0013207529 0.048867851 0.71668631
-0.0013125003 0.047250003 0.71569014
-0.0013043503 0.0456523 0.7147063
-0.0012962964 0.044074088 0.71373415
-0.0012883457 0.042515457 0.7127744
-0.0012804875 0.04097563 0.71182585
-0.001272729 0.039454639 0.71088928
-0.0012650597 0.037951797 0.70996356
-0.0012574864 0.036467105 0.70904934
-0.0012499993 0.035000026 0.70814562
-0.0012426047 0.033550322 0.70725298
-0.0012352931 0.032117635 0.70637041
-0.0012280711 0.030701786 0.70549858
-0.001220929 0.029302299 0.70463651
-0.0012138735 0.027919114 0.70378482
-0.0012068951 0.026551694 0.70294249
-0.0012000004 0.025200039 0.70211017
-0.0011931839 0.023863703 0.70128739
-0.0011864407 0.022542387 0.70047337
-0.0011797772 0.021236002 0.699669
-0.0011731843 0.019944131 0.69887322
-0.0011666681 0.018666714 0.69808662
-0.0011602206 0.017403334 0.69730836
-0.0011538474 0.016153902 0.69653904
-0.0011475405 0.014918059 0.69577771
-0.0011413053 0.013695687 0.69502509
-0.0011351344 0.012486488 0.69428015
-0.0011290332 0.011290371 0.69354361
-0.0011229936 0.010106951 0.69281465
-0.0011170218 0.0089361966 0.69209385
-0.0011111132 0.0077778101 0.69138056
-0.0011052635 0.0066316128 0.69067442
-0.0010994782 0.005497396 0.6899761
-0.0010937502 0.0043750107 0.68928468
-0.0010880845 0.0032642484 0.68860078
-0.0010824741 0.0021649599 0.68792355
-0.0010769245 0.0010769367 0.68725359
-0.0010714284 -0 0.68659019
-0.001065991 -0.0010659993 0.68593383
-0.0010606056 -0.0021211803 0.68528372
-0.0010552773 -0.0031658113 0.68464053
-0.0010499994 -0.0041999519 0.68400341
-0.0010447769 -0.0052238703 0.68337303
-0.0010396031 -0.0062376261 0.6827485
-0.0010344833 -0.0072413683 0.68213052
-0.0010294135 -0.0082352757 0.68151855
-0.0010243906 -0.0092194676 0.6809122
-0.0010194164 -0.010194123 0.68031174
-0.0010144929 -0.01115942 0.67971748
-0.0010096168 -0.012115359 0.67912883
-0.0010241371 -0.01331374 0.68088162
-0.001041229 -0.01457721 0.68294483
-0.001058904 -0.015883535 0.68507832
-0.0010771864 -0.017234981 0.68728524
-0.0010961111 -0.018633872 0.68956965
-0.0011157162 -0.020082861 0.69193614
-0.0011360317 -0.02158457 0.69438845
-0.0011571009 -0.02314201 0.69693178
-0.0011789699 -0.024758369 0.69957161
-0.0012016778 -0.026436865 0.70231259
-0.0012252775 -0.028181344 0.70516139
-0.001249827 -0.029995829 0.70812476
-0.0012753758 -0.031884402 0.71120882
-0.0013019913 -0.033851773 0.71442157
-0.0013297456 -0.035903126 0.71777189
-0.0013587044 -0.038043737 0.72126746
-0.0013889525 -0.040279597 0.72491872
-0.0014205833 -0.0426175 0.72873688
-0.0014536829 -0.045064151 0.73273242
-0.0014883616 -0.047627568 0.73691845
-0.0015247415 -0.050316483 0.74130994
-0.001562938 -0.053139865 0.7459206
-0.0016030973 -0.056108385 0.75076824
-0.001645382 -0.059233755 0.75587249
-0.0016899504 -0.062528104 0.76125234
-0.0017370003 -0.066005975 0.76693183
-0.0017867535 -0.069683373 0.77293754
-0.0018394321 -0.073577285 0.7792964
-0.0018953112 -0.077707738 0.78604162
-0.0019547017 -0.082097471 0.79321074
0 0.071917981 0.73088264
0 0.070000023 0.72970116
0 0.068108261 0.72853625
0 0.066241622 0.72738642
0 0.064400107 0.7262525
0 0.062582791 0.72513306
0 0.060789585 0.72402883
0 0.059019595 0.72293848
0 0.057272762 0.72186297
0 0.05554837 0.72080064
0 0.05384621 0.71975261
0 0.052165568 0.71871722
0 0.050506353 0.71769571
0 0.048867851 0.71668631
0 0.047250003 0.71569014
0 0.0456523 0.7147063
0 0.044074088 0.71373415
0 0.042515457 0.7127744
0 0.04097563 0.71182585
0 0.039454639 0.71088928
0 0.037951797 0.70996356
0 0.036467105 0.70904934
0 0.035000026 0.70814562
0 0.033550322 0.70725298
0 0.032117635 0.70637041
0 0.030701786 0.70549858
0 0.029302299 0.70463651
0 0.027919114 0.70378482
0 0.026551694 0.70294249
0 0.025200039 0.70211017
0 0.023863703 0.70128739
0 0.022542387 0.70047337
0 0.021236002 0.699669
0 0.019944131 0.69887322
0 0.018666714 0.69808662
0 0.017403334 0.69730836
0 0.016153902 0.69653904
0 0.014918059 0.69577771
0 0.013695687 0.69502509
0 0.012486488 0.69428015
0 0.011290371 0.69354361
0 0.010106951 0.69281465
0 0.0089361966 0.69209385
0 0.0077778101 0.69138056
0 0.0066316128 0.69067442
0 0.005497396 0.6899761
0 0.0043750107 0.68928468
0 0.0032642484 0.68860078
0 0.0021649599 0.68792355
0 0.0010769367 0.68725359
0 -0 0.68659019
0 -0.0010659993 0.68593383
0 -0.0021211803 0.68528372
0 -0.0031658113 0.68464053
0 -0.0041999519 0.68400341
0 -0.0052238703 0.68337303
0 -0.0062376261 0.6827485
0 -0.0072413683 0.68213052
0 -0.0082352757 0.68151855
0 -0.0092194676 0.6809122
0 -0.010194123 0.68031174
0 -0.01115942 0.67971748
0 -0.012115359 0.67912883
0 -0.01331374 0.68088162
0 -0.01457721 0.68294483
0 -0.015883535 0.68507832
0 -0.017234981 0.68728524
0 -0.018633872 0.68956965
0 -0.020082861 0.69193614
0 -0.02158457 0.69438845
0 -0.02314201 0.69693178
0 -0.024758369 0.69957161
0 -0.026436865 0.70231259
0 -0.028181344 0.70516139
0 -0.029995829 0.70812476
0 -0.031884402 0.71120882
0 -0.033851773 0.71442157
0 -0.035903126 0.71777189
0 -0.038043737 0.72126746
0 -0.040279597 0.72491872
0 -0.0426175 0.72873688
0 -0.045064151 0.73273242
0 -0.047627568 0.73691845
0 -0.050316483 0.74130994
0 -0.053139865 0.7459206
0 -0.056108385 0.75076824
0 -0.059233755 0.75587249
0 -0.062528104 0.76125234
0 -0.066005975 0.76693183
0 -0.069683373 0.77293754
0 -0.073577285 0.7792964
0 -0.077707738 0.78604162
0 -0.082097471 0.79321074
0.0014383589 0.071917981 0.73088264
0.0014285714 0.070000023 0.72970116
0.0014189213 0.068108261 0.72853625
0.0014093956 0.066241622 0.72738642
0.0014000019 0.064400107 0.7262525
0.0013907278 0.062582791 0.72513306
0.0013815806 0.060789585 0.72402883
0.0013725481 0.059019595 0.72293848
0.0013636377 0.057272762 0.72186297
0.0013548373 0.05554837 0.72080064
0.0013461548 0.05384621 0.71975261
0.0013375782 0.052165568 0.71871722
0.0013291147 0.050506353 0.71769571
0.0013207529 0.048867851 0.71668631
0.0013125003 0.047250003 0.71569014
0.0013043503 0.0456523 0.7147063
0.0012962964 0.044074088 0.71373415
0.0012883457 0.042515457 0.7127744
0.0012804875 0.04097563 0.71182585
0.001272729 0.039454639 0.71088928
0.0012650597 0.037951797 0.70996356
0.0012574864 0.036467105 0.70904934
0.0012499993 0.035000026 0.70814562
0.0012426047 0.033550322 0.70725298
0.0012352931 0.032117635 0.70637041
0.0012280711 0.030701786 0.70549858
0.001220929 0.029302299 0.70463651
0.0012138735 0.027919114 0.70378482
0.0012068951 0.026551694 0.70294249
0.0012000004 0.025200039 0.70211017
0.0011931839 0.023863703 0.70128739
0.0011864407 0.022542387 0.70047337
0.0011797772 0.021236002 0.699669
0.0011731843 0.019944131 0.69887322
0.0011666681 0.018666714 0.69808662
0.0011602206 0.017403334 0.69730836
0.0011538474 0.016153902 0.69653904
0.0011475405 0.014918059 0.69577771
0.0011413053 0.013695687 0.69502509
0.0011351344 0.012486488 0.69428015
0.0011290332 0.011290371 0.69354361
0.0011229936 0.010106951 0.69281465
0.0011170218 0.0089361966 0.69209385
0.0011111132 0.0077778101 0.69138056
0.0011052635 0.0066316128 0.69067442
0.0010994782 0.005497396 0.6899761
0.0010937502 0.0043750107 0.68928468
0.0010880845 0.0032642484 0.68860078
0.0010824741 0.0021649599 0.68792355
0.0010769245 0.0010769367 0.68725359
0.0010714284 -0 0.68659019
0.001065991 -0.0010659993 0.68593383
0.0010606056 -0.0021211803 0.68528372
0.0010552773 -0.0031658113 0.68464053
0.0010499994 -0.0041999519 0.68400341
0.0010447769 -0.0052238703 0.68337303
0.0010396031 -0.0062376261 0.6827485
0.0010344833 -0.0072413683 0.68213052
0.0010294135 -0.0082352757 0.68151855
0.0010243906 -0.0092194676 0.6809122
0.0010194164 -0.010194123 0.68031174
0.0010144929 -0.01115942 0.67971748
0.0010096168 -0.012115359 0.67912883
0.0010241371 -0.01331374 0.68088162
0.001041229 -0.01457721 0.68294483
0.001058904 -0.015883535 0.68507832
0.0010771864 -0.017234981 0.68728524
0.0010961111 -0.018633872 0.68956965
0.0011157162 -0.020082861 0.69193614
0.0011360317 -0.02158457 0.69438845
0.0011571009 -0.02314201 0.69693178
0.0011789699 -0.024758369 0.69957161
0.0012016778 -0.026436865 0.70231259
0.0012252775 -0.028181344 0.70516139
0.001249827 -0.029995829 0.70812476
0.0012753758 -0.031884402 0.71120882
0.0013019913 -0.033851773 0.71442157
0.0013297456 -0.035903126 0.71777189
0.0013587044 -0.038043737 0.72126746
0.0013889525 -0.040279597 0.72491872
0.0014205833 -0.0426175 0.72873688
0.0014536829 -0.045064151 0.73273242
0.0014883616 -0.047627568 0.73691845
0.0015247415 -0.050316483 0.74130994
0.001562938 -0.053139865 0.7459206
0.0016030973 -0.056108385 0.75076824
0.001645382 -0.059233755 0.75587249
0.0016899504 -0.062528104 0.76125234
0.0017370003 -0.066005975 0.76693183
0.0017867535 -0.069683373 0.77293754
0.0018394321 -0.073577285 0.7792964
0.0018953112 -0.077707738 0.78604162
0.0019547017 -0.082097471 0.79321074
0.0028767178 0.071917981 0.73088264
0.0028571428 0.070000023 0.72970116
0.0028378426 0.068108261 0.72853625
0.0028187912 0.066241622 0.72738642
0.0028000039 0.064400107 0.7262525
0.0027814556 0.062582791 0.72513306
0.0027631612 0.060789585 0.72402883
0.0027450961 0.059019595 0.72293848
0.0027272755 0.057272762 0.72186297
0.0027096746 0.05554837 0.72080064
0.0026923097 0.05384621 0.71975261
0.0026751563 0.052165568 0.71871722
0.0026582293 0.050506353 0.71769571
0.0026415058 0.048867851 0.71668631
0.0026250007 0.047250003 0.71569014
0.0026087007 0.0456523 0.7147063
0.0025925927 0.044074088 0.71373415
0.0025766913 0.042515457 0.7127744
0.002560975 0.04097563 0.71182585
0.002545458 0.039454639 0.71088928
0.0025301194 0.037951797 0.70996356
0.0025149728 0.036467105 0.70904934
0.0024999985 0.035000026 0.70814562
0.0024852094 0.033550322 0.70725298
0.0024705862 0.032117635 0.70637041
0.0024561421 0.030701786 0.70549858
0.0024418579 0.029302299 0.70463651
0.002427747 0.027919114 0.70378482
0.0024137902 0.026551694 0.70294249
0.0024000008 0.025200039 0.70211017
0.0023863679 0.023863703 0.70128739
0.0023728814 0.022542387 0.70047337
0.0023595544 0.021236002 0.699669
0.0023463685 0.019944131 0.69887322
0.0023333363 0.018666714 0.69808662
0.0023204412 0.017403334 0.69730836
0.0023076949 0.016153902 0.69653904
0.002295081 0.014918059 0.69577771
0.0022826106 0.013695687 0.69502509
0.0022702687 0.012486488 0.69428015
0.0022580663 0.011290371 0.69354361
0.0022459873 0.010106951 0.69281465
0.0022340436 0.0089361966 0.69209385
0.0022222265 0.0077778101 0.69138056
0.002210527 0.0066316128 0.69067442
0.0021989564 0.005497396 0.6899761
0.0021875005 0.0043750107 0.68928468
0.0021761691 0.0032642484 0.68860078
0.0021649483 0.0021649599 0.68792355
0.002153849 0.0010769367 0.68725359
0.0021428568 -0 0.68659019
0.002131982 -0.0010659993 0.68593383
0.0021212113 -0.0021211803 0.68528372
0.0021105546 -0.0031658113 0.68464053
0.0020999988 -0.0041999519 0.68400341
0.0020895537 -0.0052238703 0.68337303
0.0020792063 -0.0062376261 0.6827485
0.0020689666 -0.0072413683 0.68213052
0.0020588271 -0.0082352757 0.68151855
0.0020487811 -0.0092194676 0.6809122
0.0020388328 -0.010194123 0.68031174
0.0020289859 -0.01115942 0.67971748
0.0020192335 -0.012115359 0.67912883
0.0020482743 -0.01331374 0.68088162
0.002082458 -0.01457721 0.68294483
0.002117808 -0.015883535 0.68507832
0.0021543729 -0.017234981 0.68728524
0.0021922223 -0.018633872 0.68956965
0.0022314324 -0.020082861 0.69193614
0.0022720634 -0.02158457 0.69438845
0.0023142018 -0.02314201 0.69693178
0.0023579397 -0.024758369 0.69957161
0.0024033557 -0.026436865 0.70231259
0.0024505551 -0.028181344 0.70516139
0.002499654 -0.029995829 0.70812476
0.0025507517 -0.031884402 0.71120882
0.0026039826 -0.033851773 0.71442157
0.0026594913 -0.035903126 0.71777189
0.0027174088 -0.038043737 0.72126746
0.002777905 -0.040279597 0.72491872
0.0028411667 -0.0426175 0.72873688
0.0029073658 -0.045064151 0.73273242
0.0029767232 -0.047627568 0.73691845
0.0030494831 -0.050316483 0.74130994
0.003125876 -0.053139865 0.7459206
0.0032061946 -0.056108385 0.75076824
0.0032907641 -0.059233755 0.75587249
0.0033799007 -0.062528104 0.76125234
0.0034740006 -0.066005975 0.76693183
0.0035735071 -0.069683373 0.77293754
0.0036788641 -0.073577285 0.7792964
0.0037906223 -0.077707738 0.78604162
0.0039094035 -0.082097471 0.79321074
0.0043150773 0.071917981 0.73088264
0.0042857141 0.070000023 0.72970116
0.004256764 0.068108261 0.72853625
0.0042281868 0.066241622 0.72738642
0.0042000059 0.064400107 0.7262525
0.0041721831 0.062582791 0.72513306
0.0041447417 0.060789585 0.72402883
0.0041176444 0.059019595 0.72293848
0.0040909131 0.057272762 0.72186297
0.0040645124 0.05554837 0.72080064
0.0040384643 0.05384621 0.71975261
0.0040127342 0.052165568 0.71871722
0.0039873435 0.050506353 0.71769571
0.0039622588 0.048867851 0.71668631
0.003937501 0.047250003 0.71569014
0.0039130505 0.0456523 0.7147063
0.003888889 0.044074088 0.71373415
0.0038650369 0.042515457 0.7127744
0.0038414628 0.04097563 0.71182585
0.0038181872 0.039454639 0.71088928
0.0037951791 0.037951797 0.70996356
0.0037724595 0.036467105 0.70904934
0.0037499978 0.035000026 0.70814562
0.0037278139 0.033550322 0.70725298
0.0037058792 0.032117635 0.70637041
0.0036842132 0.030701786 0.70549858
0.0036627871 0.029302299 0.70463651
0.0036416203 0.027919114 0.70378482
0.0036206853 0.026551694 0.70294249
0.0036000011 0.025200039 0.70211017
0.0035795518 0.023863703 0.70128739
0.0035593223 0.022542387 0.70047337
0.0035393313 0.021236002 0.699669
0.0035195528 0.019944131 0.69887322
0.0035000045 0.018666714 0.69808662
0.0034806619 0.017403334 0.69730836
0.0034615423 0.016153902 0.69653904
0.0034426211 0.014918059 0.69577771
0.0034239159 0.013695687 0.69502509
0.0034054031 0.012486488 0.69428015
0.0033870991 0.011290371 0.69354361
0.0033689812 0.010106951 0.69281465
0.0033510656 0.0089361966 0.69209385
0.0033333395 0.0077778101 0.69138056
0.0033157906 0.0066316128 0.69067442
0.0032984349 0.005497396 0.6899761
0.0032812504 0.0043750107 0.68928468
0.0032642535 0.0032642484 0.68860078
0.0032474224 0.0021649599 0.68792355
0.0032307734 0.0010769367 0.68725359
0.003214285 -0 0.68659019
0.0031979729 -0.0010659993 0.68593383
0.0031818168 -0.0021211803 0.68528372
0.003165832 -0.0031658113 0.68464053
0.0031499981 -0.0041999519 0.68400341
0.0031343305 -0.0052238703 0.68337303
0.0031188095 -0.0062376261 0.6827485
0.0031034497 -0.0072413683 0.68213052
0.0030882407 -0.0082352757 0.68151855
0.0030731719 -0.0092194676 0.6809122
0.0030582491 -0.010194123 0.68031174
0.0030434788 -0.01115942 0.67971748
0.0030288503 -0.012115359 0.67912883
0.0030724115 -0.01331374 0.68088162
0.0031236871 -0.01457721 0.68294483
0.0031767122 -0.015883535 0.68507832
0.0032315592 -0.017234981 0.68728524
0.0032883335 -0.018633872 0.68956965
0.0033471482 -0.020082861 0.69193614
0.0034080949 -0.02158457 0.69438845
0.0034713026 -0.02314201 0.69693178
0.0035369098 -0.024758369 0.69957161
0.0036050333 -0.026436865 0.70231259
0.0036758326 -0.028181344 0.70516139
0.0037494807 -0.029995829 0.70812476
0.0038261279 -0.031884402 0.71120882
0.0039059736 -0.033851773 0.71442157
0.0039892374 -0.035903126 0.71777189
0.0040761135 -0.038043737 0.72126746
0.0041668578 -0.040279597 0.72491872
0.0042617498 -0.0426175 0.72873688
0.0043610483 -0.045064151 0.73273242
0.0044650845 -0.047627568 0.73691845
0.0045742248 -0.050316483 0.74130994
0.0046888138 -0.053139865 0.7459206
0.004809292 -0.056108385 0.75076824
0.0049361465 -0.059233755 0.75587249
0.0050698514 -0.062528104 0.76125234
0.0052110008 -0.066005975 0.76693183
0.0053602606 -0.069683373 0.77293754
0.0055182958 -0.073577285 0.7792964
0.0056859334 -0.077707738 0.78604162
0.0058641052 -0.082097471 0.79321074
0.0057534357 0.071917981 0.73088264
0.0057142857 0.070000023 0.72970116
0.0056756851 0.068108261 0.72853625
0.0056375824 0.066241622 0.72738642
0.0056000077 0.064400107 0.7262525
0.0055629113 0.062582791 0.72513306
0.0055263224 0.060789585 0.72402883
0.0054901922 0.059019595 0.72293848
0.005454551 0.057272762 0.72186297
0.0054193493 0.05554837 0.72080064
0.0053846193 0.05384621 0.71975261
0.0053503127 0.052165568 0.71871722
0.0053164586 0.050506353 0.71769571
0.0052830116 0.048867851 0.71668631
0.0052500013 0.047250003 0.71569014
0.0052174013 0.0456523 0.7147063
0.0051851855 0.044074088 0.71373415
0.0051533827 0.042515457 0.7127744
0.0051219501 0.04097563 0.71182585
0.0050909161 0.039454639 0.71088928
0.0050602388 0.037951797 0.70996356
0.0050299456 0.036467105 0.70904934
0.0049999971 0.035000026 0.70814562
0.0049704188 0.033550322 0.70725298
0.0049411724 0.032117635 0.70637041
0.0049122842 0.030701786 0.70549858
0.0048837159 0.029302299 0.70463651
0.004855494 0.027919114 0.70378482
0.0048275804 0.026551694 0.70294249
0.0048000016 0.025200039 0.70211017
0.0047727358 0.023863703 0.70128739
0.0047457628 0.022542387 0.70047337
0.0047191088 0.021236002 0.699669
0.004692737 0.019944131 0.69887322
0.0046666726 0.018666714 0.69808662
0.0046408824 0.017403334 0.69730836
0.0046153897 0.016153902 0.69653904
0.0045901621 0.014918059 0.69577771
0.0045652213 0.013695687 0.69502509
0.0045405375 0.012486488 0.69428015
0.0045161326 0.011290371 0.69354361
0.0044919746 0.010106951 0.69281465
0.0044680871 0.0089361966 0.69209385
0.0044444529 0.0077778101 0.69138056
0.0044210539 0.0066316128 0.69067442
0.0043979129 0.005497396 0.6899761
0.0043750009 0.0043750107 0.68928468
0.0043523381 0.0032642484 0.68860078
0.0043298965 0.0021649599 0.68792355
0.004307698 0.0010769367 0.68725359
0.0042857137 -0 0.68659019
0.004263964 -0.0010659993 0.68593383
0.0042424225 -0.0021211803 0.68528372
0.0042211092 -0.0031658113 0.68464053
0.0041999975 -0.0041999519 0.68400341
0.0041791075 -0.0052238703 0.68337303
0.0041584126 -0.0062376261 0.6827485
0.0041379333 -0.0072413683 0.68213052
0.0041176542 -0.0082352757 0.68151855
0.0040975623 -0.0092194676 0.6809122
0.0040776655 -0.010194123 0.68031174
0.0040579718 -0.01115942 0.67971748
0.0040384671 -0.012115359 0.67912883
0.0040965485 -0.01331374 0.68088162
0.004164916 -0.01457721 0.68294483
0.004235616 -0.015883535 0.68507832
0.0043087457 -0.017234981 0.68728524
0.0043844446 -0.018633872 0.68956965
0.0044628647 -0.020082861 0.69193614
0.0045441268 -0.02158457 0.69438845
0.0046284036 -0.02314201 0.69693178
0.0047158794 -0.024758369 0.69957161
0.0048067113 -0.026436865 0.70231259
0.0049011102 -0.028181344 0.70516139
0.0049993079 -0.029995829 0.70812476
0.0051015033 -0.031884402 0.71120882
0.0052079652 -0.033851773 0.71442157
0.0053189825 -0.035903126 0.71777189
0.0054348176 -0.038043737 0.72126746
0.0055558099 -0.040279597 0.72491872
0.0056823334 -0.0426175 0.72873688
0.0058147316 -0.045064151 0.73273242
0.0059534465 -0.047627568 0.73691845
0.0060989661 -0.050316483 0.74130994
0.0062517519 -0.053139865 0.7459206
0.0064123892 -0.056108385 0.75076824
0.0065815281 -0.059233755 0.75587249
0.0067598014 -0.062528104 0.76125234
0.0069480012 -0.066005975 0.76693183
0.0071470141 -0.069683373 0.77293754
0.0073577282 -0.073577285 0.7792964
0.0075812447 -0.077707738 0.78604162
0.0078188069 -0.082097471 0.79321074
0.0071917949 0.071917981 0.73088264
0.0071428572 0.070000023 0.72970116
0.0070946068 0.068108261 0.72853625
0.007046978 0.066241622 0.72738642
0.00700001 0.064400107 0.7262525
0.006953639 0.062582791 0.72513306
0.0069079031 0.060789585 0.72402883
0.0068627405 0.059019595 0.72293848
0.0068181884 0.057272762 0.72186297
0.0067741876 0.05554837 0.72080064
0.0067307744 0.05384621 0.71975261
0.0066878903 0.052165568 0.71871722
0.0066455728 0.050506353 0.71769571
0.0066037644 0.048867851 0.71668631
0.0065625017 0.047250003 0.71569014
0.0065217512 0.0456523 0.7147063
0.0064814813 0.044074088 0.71373415
0.0064417282 0.042515457 0.7127744
0.0064024376 0.04097563 0.71182585
0.0063636452 0.039454639 0.71088928
0.0063252985 0.037951797 0.70996356
0.0062874327 0.036467105 0.70904934
0.0062499964 0.035000026 0.70814562
0.0062130233 0.033550322 0.70725298
0.0061764657 0.032117635 0.70637041
0.006140355 0.030701786 0.70549858
0.0061046449 0.029302299 0.70463651
0.0060693668 0.027919114 0.70378482
0.0060344753 0.026551694 0.70294249
0.0060000019 0.025200039 0.70211017
0.0059659197 0.023863703 0.70128739
0.005932204 0.022542387 0.70047337
0.0058988854 0.021236002 0.699669
0.0058659213 0.019944131 0.69887322
0.0058333413 0.018666714 0.69808662
0.0058011035 0.017403334 0.69730836
0.0057692374 0.016153902 0.69653904
0.0057377019 0.014918059 0.69577771
0.0057065268 0.013695687 0.69502509
0.0056756716 0.012486488 0.69428015
0.0056451652 0.011290371 0.69354361
0.0056149685 0.010106951 0.69281465
0.0055851093 0.0089361966 0.69209385
0.0055555659 0.0077778101 0.69138056
0.0055263173 0.0066316128 0.69067442
0.0054973913 0.005497396 0.6899761
0.0054687508 0.0043750107 0.68928468
0.0054404223 0.0032642484 0.68860078
0.0054123709 0.0021649599 0.68792355
0.0053846221 0.0010769367 0.68725359
