# .PCD v0.7 - Point Cloud Data file format
VERSION 0.7
FIELDS x y z
SIZE 4 4 4
TYPE F F F
COUNT 1 1 1
WIDTH 602
HEIGHT 1
VIEWPOINT 0 0 0 1 0 0 0
POINTS 602
DATA ascii
0.026228715 -0.061473548 0.6587013
0.031579643 -0.057417721 0.65884757
0.017325208 -0.067650795 0.65999591
0.017325208 -0.067650795 0.65999591
0.028737275 -0.058295578 0.65904349
0.03365748 -0.056643039 0.65900707
0.037476711 -0.055596732 0.65967053
0.021511193 -0.063706219 0.66056174
0.022288278 -0.06356284 0.66011226
0.024873581 -0.056380093 0.66098803
0.027245691 -0.056555152 0.66014493
0.040494259 -0.055369735 0.66033477
0.031390749 -0.054520756 0.66025233
0.035502706 -0.054492533 0.6601491
0.030630214 -0.053809822 0.66068006
0.014124826 -0.068546936 0.66141117
0.024055863 -0.065531492 0.66108298
0.014712118 -0.064678252 0.66186917
0.025705002 -0.055555969 0.66100597
0.025705002 -0.055555969 0.66100597
0.043233704 -0.054873526 0.66154277
0.0407448 -0.053632915 0.66156912
0.033214971 -0.052313596 0.661291
0.035727914 -0.052345514 0.66141349
0.034538373 -0.051599398 0.66174352
0.016692029 -0.063429713 0.66231155
0.019194746 -0.062591553 0.66230011
0.021726428 -0.055569246 0.66256022
0.046772324 -0.054289311 0.66246086
0.023427065 -0.052710861 0.66281354
0.019294804 -0.057464749 0.66335034
0.042027593 -0.051273614 0.66374803
0.037692115 -0.050256133 0.66303605
0.047487251 -0.050429031 0.66373169
0.047487251 -0.050429031 0.66373169
0.025192093 -0.049544454 0.66355121
0.036480062 -0.049478501 0.66328144
0.036132678 -0.048737079 0.66368604
0.012654182 -0.059474304 0.66448689
0.045500938 -0.0505566 0.66424489
0.049657959 -0.050499588 0.66401565
0.047297008 -0.048563406 0.6647228
0.032850944 -0.04717055 0.66417778
0.016927283 -0.071094573 0.6651513
0.010588057 -0.060143635 0.66532743
0.041586645 -0.048376292 0.66571695
0.04745499 -0.047454953 0.6654039
0.023699239 -0.046552062 0.6651603
0.047586519 -0.046736747 0.66597092
0.034771383 -0.04537189 0.66556609
0.014469153 -0.056174338 0.66630107
0.016161839 -0.053589225 0.66617948
0.050237663 -0.048534691 0.6663878
0.043360699 -0.047611713 0.6660797
0.022182573 -0.043511987 0.66679579
0.027216239 -0.04337588 0.66615152
0.029766344 -0.043373793 0.66614181
0.013704147 -0.053531468 0.66760051
0.016231542 -0.049548924 0.6670652
0.017538536 -0.046199977 0.66737032
0.019683592 -0.043646187 0.66743135
0.02221697 -0.042724937 0.66711515
0.036881134 -0.042885005 0.66788816
0.0094845565 -0.0508717 0.66898227
0.014607685 -0.048548862 0.66826838
0.022365935 -0.039570481 0.6684984
0.02321443 -0.039550513 0.66839343
0.0069072391 -0.052667677 0.66926533
0.0077757454 -0.050542042 0.66940212
0.046602793 -0.042287678 0.66917104
0.016435491 -0.040656179 0.66965669
0.020778222 -0.037227631 0.66983372
0.027636189 -0.037567452 0.66931987
0.010435372 -0.047828794 0.67076433
0.013915913 -0.040442839 0.6707958
0.035563078 -0.039032608 0.67022789
0.018196182 -0.038125336 0.6700089
0.040800393 -0.038196087 0.67039722
0.02956483 -0.035651684 0.67074978
0.02956483 -0.035651684 0.67074978
0.0052475263 -0.054224461 0.67196512
0.00961986 -0.045475692 0.67195177
0.011364855 -0.0415252 0.67187619
0.019186314 -0.034447759 0.67136574
0.005259404 -0.044704914 0.67244297
0.013138888 -0.036788881 0.67228806
0.032449931 -0.034203947 0.67255354
0.026270788 -0.032400608 0.67223191
0.026270788 -0.032400608 0.67223191
0.022795143 -0.031562477 0.6724838
0.022843657 -0.030751079 0.67293429
0.012313317 -0.075638935 0.67315644
0.010575504 -0.03657338 0.67358363
0.035232183 -0.034351349 0.67346597
0.036521886 -0.034322008 0.67328423
0.011494286 -0.07427077 0.67427987
0.0026548263 -0.04159227 0.67446482
0.0044248514 -0.040708631 0.67447168
0.0079823518 -0.037250966 0.67494428
0.0088556865 -0.036308289 0.6746161
0.030368647 -0.030663064 0.67436397
0.03833288 -0.030666005 0.67438424
0.026525557 -0.029178083 0.67428207
0.01681973 -0.028327972 0.67453891
0.02121737 -0.028289825 0.6742512
0.00089121546 -0.039213479 0.67597938
0.0017784277 -0.039569706 0.6754961
0.0017784277 -0.039569706 0.6754961
0.0053299926 -0.039530262 0.67528319
0.0071141124 -0.037349075 0.67550826
0.010655337 -0.03107807 0.67518973
0.010655337 -0.03107807 0.67518973
0.024905767 -0.026684731 0.67556322
0.0062663448 -0.059082627 0.67693943
0.00044618311 -0.038414925 0.67649972
0.033871256 -0.029414505 0.67601156
0.030384779 -0.027703762 0.67657185
0.030384779 -0.027703762 0.67657185
0.035662465 -0.027638376 0.67606288
0.037559766 -0.026828408 0.67671919
0.024542756 -0.025435224 0.67628425
0.024542756 -0.025435224 0.67628425
0.0026916135 -0.035439044 0.67742527
0.0044851676 -0.035432443 0.67738396
0.0062775309 -0.031387627 0.67732513
0.020646896 -0.022442281 0.67754269
0.020646896 -0.022442281 0.67754269
0.0054086982 -0.028846353 0.67845011
0.007223988 -0.024380952 0.67882401
0.027508147 -0.023449212 0.6785574
0.033400215 -0.022567689 0.67875403
0.013528375 -0.020743459 0.6785568
0.0045375116 -0.058080137 0.67991138
0.029863946 -0.023529142 0.67929953
0.024439441 -0.02081877 0.67934698
0.025379317 -0.020847291 0.67964625
0.018100604 -0.019005597 0.67931455
0.018100604 -0.019005597 0.67931455
0.012704526 -0.018149287 0.67990261
0.0036479924 -0.056543857 0.68099666
0.002727642 -0.050915956 0.68032455
0.0045506014 -0.022753 0.68054342
0.0045506014 -0.022753 0.68054342
0.029139223 -0.02094382 0.68065929
0.0091002434 -0.018200487 0.68052018
0.0091152964 -0.017319053 0.68088365
0.00045715732 -0.027443931 0.68167269
0.030135596 -0.018263996 0.68128687
0.017351305 -0.015524805 0.68129331
0.027495859 -0.018330514 0.68209046
0.032192551 -0.015636355 0.68287718
0.014698761 -0.012861371 0.68260807
-0.0064647496 -0.024935424 0.6837821
0 -0.022120327 0.68333447
0.0055276644 -0.013819128 0.68323696
0 -0.018500268 0.68413907
0.0018507674 -0.014806122 0.68422824
0.018513564 -0.01110813 0.68429941
0.019460987 -0.011120558 0.68454939
0.00093184295 -0.0111821 0.68578768
0.0065100254 -0.0083700418 0.68534368
0.0065100254 -0.0083700418 0.68534368
0.0083615473 -0.0083614886 0.68511605
0.0018691022 -0.0084109306 0.68644148
0.020606156 -0.0084297657 0.68694663
0.0037420907 -0.0065486133 0.68667603
-0.0028183188 -0.043214232 0.68762171
-0.0037596221 -0.039476037 0.68773419
-0.010329723 -0.019720316 0.68753141
-0.0037582947 -0.013154 0.68765402
0.018784065 -0.0065744221 0.68756467
0.0065607289 -0.0046862066 0.6870923
-0.0037732164 -0.0094330311 0.68855464
0.022607163 -0.006593734 0.68823135
0.0018843843 -0.0037687421 0.68828619
0.017007818 -0.0037795007 0.6889348
-0.0094630485 -0.013248235 0.68927908
-0.0047327774 -0.0085189641 0.68933958
0.017983872 -0.0037860572 0.68933094
0.023666127 -0.0028399229 0.68936121
0.014199352 -0.0018932521 0.68935603
0.00047400047 -0.00094845891 0.6898036
0.0075612864 -0.00094518065 0.68900293
0.0094789676 -0 0.68966347
-0.010479434 -0.01047942 0.69081724
-0.010479434 -0.01047942 0.69081724
0.020468725 -0.0019040704 0.69066632
0.022948109 -0.081274539 0.69166106
-0.0038246559 -0.044939667 0.69165927
-0.014352992 -0.012439251 0.69182879
0.018192634 -0 0.69198352
0.018192634 -0 0.69198352
-0.00095484656 0.0019097328 0.69134128
0.0066765109 0.0028613806 0.69108552
0.007632975 0.0028623939 0.69116628
0.0047788476 0.0038231015 0.69156408
-0.011537819 -0.0067303479 0.69294393
-0.0038452893 0.0038453341 0.69290465
-0.0038452893 0.0038453341 0.69290465
0.010574709 0.0048066974 0.69290823
-0.012523369 -0.0057800114 0.69339085
-0.00866492 -0.001925528 0.69325387
-0.006759203 0.003862381 0.69393754
0.0067606382 0.0077264309 0.69398695
0.051277362 -0.069659829 0.69439548
-0.010666686 -0 0.69492686
-0.008723163 0.0038769841 0.69481623
-0.008723163 0.0038769841 0.69481623
-0.0019360655 0.0087123215 0.69452465
0.049652282 -0.07107091 0.69586253
-0.012659173 -0.00097379088 0.69591284
0.00048554377 0.01068294 0.69528311
-0.017553024 -0.00097513199 0.69624722
-0.015618578 2.9802322e-08 0.69648707
-0.010759686 0.0078252554 0.69696802
-0.0077944174 0.0087687373 0.69603825
0.015644215 0.01075542 0.6968739
0.0048738075 0.011697143 0.69614911
0.0048738075 0.011697143 0.69614911
-0.011745096 -0.025447696 0.69711399
-0.012759295 -0.022574097 0.69777215
-0.018613515 0.00097969174 0.69733143
-0.017613027 0.00097852945 0.697052
-0.013728984 0.0029419363 0.69756877
-0.013741102 0.0039260685 0.69777775
-0.012734116 0.0048977733 0.69730461
-0.0088089593 0.010766506 0.69711769
0.011772592 0.01079154 0.69766718
-0.0039154761 0.013704211 0.69714081
-0.0039154761 0.013704211 0.69714081
-0.013780461 -0.019686371 0.69845647
-0.020712823 0.002959013 0.69894087
-0.019683894 0.0029525757 0.69842649
-0.012818586 0.010846525 0.69887322
0.014790209 0.014790237 0.69886571
0.042516902 -0.073168606 0.69952995
-0.016828297 0.0059393942 0.69980383
-0.013868913 0.012878269 0.69998181
0.010897349 0.014860034 0.69998932
-0.015857847 -0.013875574 0.70009732
-0.017861802 0.0069462657 0.70038873
-0.021886129 0.0079586208 0.70099264
-0.011909286 0.016871512 0.70041716
0.0049736062 0.018899739 0.70096785
-0.0029747135 0.019831479 0.70020729
-0.0029747135 0.019831479 0.70020729
0.038921647 -0.079839289 0.70175725
0.039885271 -0.074784875 0.70154977
0.045800336 -0.072683096 0.70119441
-0.01395901 -0.023929715 0.70153546
-0.021967016 0.0099849999 0.70188034
-0.011987319 0.020977825 0.70198715
-0.0069772247 0.02192843 0.70145679
-0.017983781 0.010990113 0.7020247
0.001999699 0.021996737 0.7022059
0.01403362 0.021050453 0.70282203
0.011025223 0.02205047 0.70279586
-0.012029878 0.023057252 0.70284337
0.001001675 0.023038536 0.70264667
-0.014054625 -0.025097489 0.70318425
0.0070320531 0.02109614 0.7033478
-0.0060195215 0.025081336 0.70302773
-0.026246686 0.011104375 0.7045328
-0.022175357 0.014111638 0.70416659
-0.027393123 0.014203846 0.70575738
-0.018216208 0.023276299 0.70514208
0.0060829204 0.025345534 0.70557868
0.0070960214 0.026356667 0.70555395
0.010121712 0.026316464 0.70518064
-0.015224391 0.028418869 0.70585376
-0.027503431 0.018335611 0.70674372
-0.019373909 0.027531356 0.70699334
-0.018348619 0.02854231 0.70691806
-0.0061114999 0.031576067 0.7067287
-0.0050963615 0.031597435 0.70689499
-0.012274875 0.033755928 0.70777231
-0.012274875 0.033755928 0.70777231
-0.029755773 0.020521283 0.708534
-0.027709106 0.022577792 0.70858276
-0.021504244 0.0276483 0.70803916
0.0061586406 0.032846123 0.70862544
-0.023691619 -0.0010300279 0.70950186
-0.023670468 0.027787089 0.70927989
0.0020575568 0.031892121 0.70919001
-0.014396267 0.035990655 0.70907569
-0.0082280952 0.035997897 0.7091257
-0.012360794 0.037082404 0.70950085
-0.028945295 0.025844008 0.71039283
-0.017588466 0.038280785 0.71059924
-0.031103039 0.026955992 0.71111882
-0.032243494 0.028083026 0.71192634
-0.021824947 0.038453519 0.71172607
-0.0072686411 0.039458364 0.71150738
-0.0010412859 0.037486315 0.71220958
0.0020879426 0.04071492 0.7128579
-0.010415894 0.041663587 0.71228284
-0.032428741 0.03138268 0.71336895
-0.031389739 0.031389773 0.71342605
-0.0031459739 0.040897697 0.71398932
-0.021982471 0.042918146 0.71353704
-0.032591041 0.033642381 0.71463299
-0.029417168 0.034670323 0.71446133
-0.029417168 0.034670323 0.71446133
0 0.044167876 0.71470338
-0.0094684418 0.045238137 0.71480799
-0.014711673 0.046236724 0.71451461
-0.013667211 0.046258241 0.71463299
-0.023220656 0.046441346 0.71563739
-0.033894189 0.037071794 0.71653283
0 0.046523601 0.71608865
-0.029717177 0.04351446 0.71704811
-0.0021242236 0.048857152 0.71723741
-0.023410387 0.051077247 0.71771944
-0.029917199 0.0074793398 0.71877271
-0.029836919 0.046886623 0.71808052
-0.029836919 0.046886623 0.71808052
-0.0096135736 0.050204277 0.71870112
-0.025634227 0.052336544 0.71868134
-0.018112881 0.052207738 0.71804655
-0.013892026 0.052362263 0.718808
-0.023566861 0.054632276 0.71943653
-0.035482164 0.039783061 0.72040129
-0.035482164 0.039783061 0.72040129
-0.028999206 0.053702265 0.72011822
-0.01182932 0.053769678 0.72044373
-0.010776254 0.053881288 0.72098267
-0.025796009 0.055891365 0.72030872
-0.021522565 0.057034791 0.72062123
-0.019436859 0.058310598 0.72151387
-0.014076677 0.057389528 0.72223711
-0.028230088 0.060803264 0.72294962
-0.025002392 0.061962456 0.72326052
-0.023980664 0.063221782 0.72397745
-0.039328307 0.038235873 0.72456241
-0.039290905 0.044748008 0.72431153
-0.033856135 0.061159492 0.72448528
-0.029465863 0.063297063 0.72429091
-0.028423512 0.064499527 0.72474563
-0.0054809088 0.054809064 0.72546262
-0.040746544 0.037442774 0.72668803
-0.0098884692 0.059330851 0.72607511
-0.034174349 0.067246318 0.7269634
-0.034174349 0.067246318 0.7269634
-0.028632201 0.068276823 0.72668338
-0.028632201 0.068276823 0.72668338
-0.040876817 0.035352945 0.72753811
-0.041940667 0.044148088 0.72727811
-0.04193382 0.051865518 0.7272346
-0.022091188 0.068482697 0.72748512
-0.043241236 0.049893796 0.72849673
-0.040961105 0.061995208 0.72808814
-0.02324295 0.069728851 0.72802782
-0.0078044827 0.061320931 0.72998786
-0.041223973 0.067963839 0.72980326
-0.033326294 0.072207004 0.72901022
-0.03004436 0.073441774 0.72946352
-0.042390049 0.066931665 0.73013312
-0.039167114 0.073858023 0.730986
-0.0022415598 0.056039035 0.73140115
-0.045970511 0.059425294 0.73151028
-0.02464016 0.075040519 0.73121452
-0.02464016 0.075040519 0.73121452
-0.035839427 0.076158822 0.73120856
-0.042753398 0.074255943 0.73244154
-0.028174115 0.078887552 0.73289424
-0.047470439 0.067814916 0.73368704
-0.012408013 0.068808079 0.73314452
-0.045149975 0.073368758 0.73332512
-0.042892668 0.076755285 0.73332632
-0.03382387 0.080049843 0.7330144
-0.048751779 0.0578219 0.73453534
-0.048774987 0.066923857 0.73466557
-0.01475295 0.072629929 0.73479605
-0.015895724 0.073801607 0.73493284
-0.046468038 0.07480225 0.73443985
-0.02265143 0.078147471 0.7342478
-0.023915982 0.080858856 0.7357651
-0.050230637 0.058221906 0.73642886
-0.017129239 0.076510638 0.73651183
-0.018281786 0.077697605 0.73667175
-0.024014039 0.082333863 0.7368924
-0.051602054 0.072242916 0.73766172
-0.011504881 0.072480768 0.73857325
-0.051693279 0.07581681 0.73815119
-0.019537006 0.080446541 0.73827088
-0.05301021 0.06683895 0.73903394
-0.02659736 0.087886959 0.74000221
-0.016275762 0.080216289 0.74148637
-0.017430216 0.081341028 0.74135602
-0.018706225 0.08417806 0.74307609
0.040395517 -0.056059062 0.65984821
0.017033152 -0.065015361 0.66141367
0.024055863 -0.065531492 0.66108298
0.02692439 -0.055091538 0.66082609
0.01714658 -0.062730178 0.66274977
0.024168937 -0.054171741 0.66202426
0.030998824 -0.04901161 0.66308677
0.02733567 -0.047942698 0.66388047
0.016927283 -0.071094573 0.6651513
0.04557123 -0.056542069 0.66455925
0.039413057 -0.048561629 0.66471577
0.010221796 -0.063886195 0.66646755
0.014888051 -0.0561499 0.66621161
0.05226725 -0.054837763 0.66768038
0.020400528 -0.046751201 0.66603434
0.020400528 -0.046751201 0.66603434
0.031089272 -0.043013327 0.6664536
0.031089272 -0.043013327 0.6664536
0.025153536 -0.040887188 0.66755009
0.0073183402 -0.05500095 0.66870493
0.013156911 -0.048858184 0.66913068
0.039153732 -0.04110023 0.66971713
0.022810381 -0.039164774 0.66862988
0.028949503 -0.037590496 0.6694479
0.004798064 -0.049187891 0.67146552
0.004798064 -0.049187891 0.67146552
0.004798064 -0.049187891 0.67146552
0.010904364 -0.044928029 0.67143518
0.013983242 -0.037142694 0.6718117
0.035031606 -0.037211597 0.67137736
0.019235685 -0.033225268 0.67190748
0.0096930917 -0.066530272 0.67355901
0.010995889 -0.037166942 0.67320085
0.024943568 -0.032382771 0.67211545
0.0030972753 -0.041152522 0.67448074
0.0088357329 -0.038435236 0.67413437
0.014840052 -0.028794762 0.67472124
0.0071656499 -0.063147813 0.67706347
0.0053871819 -0.032771826 0.67758429
0.037328314 -0.026821233 0.67667264
0.017184876 -0.024549607 0.67634499
0.0051211352 -0.058754593 0.67905116
0.032412667 -0.024759367 0.67818511
0.024770843 -0.022518724 0.67828089
0.024874339 -0.021255344 0.67918909
0.0048489617 -0.023033759 0.68032825
0.02683094 -0.018903166 0.68164718
0.0086706933 -0.016885072 0.68117285
-0.0055072932 -0.028913185 0.68241727
0.0018484292 -0.015711635 0.68394601
0.0253872 -0.015231661 0.68369281
0.010787202 -0.013311669 0.68246484
-0.0032541305 -0.020918034 0.68527293
0.026865538 -0.012737256 0.68447971
0.01527074 -0.010180399 0.68425441
0.027190074 -0.010689825 0.68524396
0.02105953 -0.008890897 0.68678194
0.0070210421 -0.0051483214 0.68682754
0.0037624205 -0.0037623942 0.68790305
-0.0050442391 -0.036875468 0.68910074
-0.011349904 -0.020808131 0.68916333
-0.0014166152 -0.0051925257 0.68876249
0.026510172 -0.0037871599 0.68939674
-0.0071434365 -0.0090473071 0.69074351
-0.0052448558 -0.0033370107 0.69102108
0.018768594 -0.002850838 0.69023901
0.022929061 0.00083726645 0.69147438
0.022929061 0.00083726645 0.69147438
0.0089185797 0.0031857491 0.69151735
-0.013406483 -0.008618474 0.69200748
-0.014791219 -0.0054660044 0.6937052
-0.0071241902 0.0010598839 0.69322664
-0.0014382534 0.0038347691 0.692267
-0.0014382534 0.0038347691 0.692267
0.013024216 0.00482364 0.69372642
0.003372007 0.007226266 0.69341218
0.025165055 -0.079366684 0.69448936
0.050412994 -0.065924674 0.69487423
-0.0096756052 -0.028543591 0.69441068
-0.0092130154 0.0033943877 0.69493562
0.027463593 -0.082880706 0.69761729
-0.01169372 -0.023387432 0.69608039
-0.019711034 -0.0049277246 0.69875407
-0.019196123 0.0034458339 0.69847703
-0.017302837 0.0054386482 0.69952309
-0.013335085 0.011359356 0.69928318
-0.0054106275 0.015739545 0.69831204
0.011387156 0.01485312 0.69987816
0.030741937 -0.07883808 0.70023251
-0.015454067 0.015453823 0.70151806
-0.009913668 0.017844617 0.700158
-0.011451986 0.019418471 0.70122743
0.0029940803 0.020958602 0.70176584
-0.0069919331 0.022973508 0.70196408
0.044014666 -0.072023988 0.70232272
-0.018093465 -0.012062281 0.70349586
-0.024586705 0.01053717 0.70308954
-0.014093704 0.024160653 0.70385814
-0.014093704 0.024160653 0.70385814
-0.012572413 0.024641871 0.70363569
-0.022702707 0.014631398 0.70441872
-0.018685784 0.020705521 0.70465893
-0.021350835 0.020842731 0.70627546
-0.001017527 0.029508263 0.70647365
0.0086561628 0.029023647 0.70667124
-0.030924089 0.019069508 0.70967877
0.0066565536 0.031746328 0.70805436
-0.014720752 0.035262011 0.7087695
-0.0066736154 0.034909248 0.70869815
-0.032138616 0.025400117 0.71110958
-0.032138616 0.025400117 0.71110958
-0.025575567 0.030759096 0.711133
-0.025575567 0.030759096 0.711133
-0.0067124134 0.03717792 0.71014148
-0.026610773 0.034958683 0.71275198
-0.0048842793 0.041168593 0.71350306
-0.01723288 0.043343708 0.71296418
-0.035770956 0.028932154 0.71481711
-0.026894858 0.042714901 0.71544266
0.00052458618 0.043020993 0.7141422
-0.031350836 0.040914714 0.71738243
-0.0031723422 0.045470268 0.7161113
-0.0031723422 0.045470268 0.7161113
-0.032444425 0.045278758 0.71903992
-0.027400708 0.050887089 0.71855164
-0.027309641 0.053012751 0.71937209
-0.036720566 0.039420664 0.72156
-0.01134471 0.05510579 0.72167802
-0.030618738 0.056554638 0.72171444
-0.036837377 0.047130391 0.72238934
-0.016636608 0.059313528 0.72276103
-0.033799183 0.059966326 0.7240417
-0.033799183 0.059966326 0.7240417
-0.028911911 0.063278571 0.72421396
-0.02901143 0.065139219 0.72512078
-0.035150666 0.016476899 0.72601223
-0.040876817 0.035352945 0.72753811
-0.041910619 0.046873719 0.72708714
-0.041910619 0.046873719 0.72708714
-0.0093570556 0.059451967 0.72661662
-0.0093570556 0.059451967 0.72661662
-0.037052568 0.063465945 0.72652024
-0.04459605 0.051285475 0.7299819
-0.04251796 0.059154026 0.72859162
-0.03898995 0.070739388 0.72976398
-0.022778317 0.071114004 0.72907758
-0.045302637 0.050895363 0.73086095
-0.046033643 0.062875241 0.73188204
-0.04355929 0.065339237 0.73046559
-0.020701302 0.072736442 0.73097664
-0.04513704 0.04118672 0.73324704
-0.047411323 0.053055555 0.73334724
-0.0067840042 0.063317388 0.73378819
-0.0067840042 0.063317388 0.73378819
-0.046802271 0.067100756 0.73308134
-0.045122102 0.072759762 0.73315686
-0.033174098 0.07871823 0.73231024
-0.051149081 0.061072201 0.73727047
-0.026821302 0.083319038 0.73636872
-0.026821302 0.083319038 0.73636872
-0.053142659 0.062962204 0.73972899
-0.012641533 0.073550761 0.73826963
-0.016904317 0.078763142 0.73908818
-0.049782109 0.047466666 0.74032009
-0.054776236 0.074588925 0.74218583
0.0063282438 -0.046483122 0.67157066
0.026383473 -0.037756946 0.66919678
0.015442642 -0.035547268 0.67185158
0.0094678197 -0.066095471 0.6738714
0.055279411 -0.054835841 0.67435604
0.012480962 -0.037825756 0.67227346
0.0088842269 -0.069962196 0.67806184
0.0036269664 -0.053725399 0.67972773
-0.0020413687 -0.031520274 0.67980474
0.022040794 -0.02203723 0.67800188
0.0063932273 -0.065639198 0.68144745
0.037384231 -0.022643115 0.68094724
-0.0014029811 -0.04610898 0.68626463
-0.0025808655 -0.018293414 0.68577528
0.004626371 -0.012028575 0.68420184
0.01798139 -0.0065654791 0.68730426
-0.0086176619 -0.0076601207 0.6919862
0.018402178 -0.0049539432 0.68863535
0.0061811595 0.0015897354 0.6903975
-0.010393648 -0.0059633278 0.69311488
0.018002735 0.0087580979 0.69575262
0.0413904 -0.076867849 0.69873822
-0.014298744 -0.018239498 0.69887048
0.032467823 -0.0098387301 0.698349
-0.010631729 0.010304021 0.69770616
-0.0061869929 0.01443665 0.69788283
-0.013333058 0.024401262 0.70374691
-0.022088047 -0.002036979 0.70692223
-0.0058536883 0.030085105 0.70589918
-0.023568239 0.023056135 0.70820683
0.012345696 0.027777821 0.70919716
-0.026200246 0.029700238 0.71131051
-0.022372536 0.030502737 0.70931572
-0.0046893749 0.039603129 0.71242702
-0.018486977 0.045799799 0.71441191
-0.030537259 0.010476297 0.71798408
-0.028947508 0.052534372 0.71965599
-0.008596343 0.051578075 0.72023851
-0.01069025 0.05672089 0.72331846
-0.041336194 0.054011609 0.72693217
-0.044869594 0.043747902 0.73163289
-0.043979753 0.037213653 0.73306835
-0.013957927 0.070227385 0.73317891
-0.04269927 0.07439483 0.73249143
-0.023915982 0.080858856 0.7357651
-0.050525449 0.05396872 0.73804641
-0.01866651 0.086489812 0.74607164
