# .PCD v0.7 - Point Cloud Data file format
VERSION 0.7
FIELDS x y z
SIZE 4 4 4
TYPE F F F
COUNT 1 1 1
WIDTH 713
HEIGHT 1
VIEWPOINT 0 0 0 1 0 0 0
POINTS 713
DATA ascii
-0.00085681368 0.075399637 0.66767401
0.001733294 0.068465143 0.670048
0.003469137 0.072417989 0.6702019
0.00043663537 0.062427416 0.67160928
0.0017474772 0.062909186 0.67176008
-0.0043682354 0.072512716 0.67173797
0.0064122709 0.07665436 0.67191619
0.0017556876 0.059693426 0.67275113
0.0017556876 0.059693426 0.67275113
0.0035038998 0.065698147 0.67229998
0.0052510877 0.074390441 0.67210841
-0.0087800398 0.076386392 0.67278981
-0.0061799488 0.069745153 0.67395973
0.0097011831 0.074522465 0.67373657
-0.010570735 0.076637864 0.67348766
-0.002655033 0.055755734 0.67448145
0.010632883 0.072658062 0.67473793
-0.010620319 0.073457241 0.67448521
0.0017807815 0.049861908 0.67578024
0.0017807815 0.049861908 0.67578024
0.0053257407 0.064796507 0.67511219
-0.0097974716 0.067691624 0.67584985
-0.0088933362 0.067589372 0.67552501
-0.0097859744 0.0685018 0.67559755
0.013331379 0.075544506 0.67538619
0.014223625 0.077340931 0.67543882
0.014206612 0.078136414 0.6751821
0.00044731432 0.045616999 0.67676055
0.0035717709 0.052683651 0.67639637
-0.0062672868 0.059986919 0.67697191
0.0071375552 0.06334582 0.67621565
0.011596707 0.069580287 0.67618191
-0.014325278 0.072521716 0.67697263
-0.0062895021 0.057504028 0.67773807
0.007171236 0.06005913 0.67723215
0.0027098267 0.041550666 0.67889094
0.0027065335 0.042402357 0.67862588
-0.0026996701 0.044094652 0.67807353
-0.0026996701 0.044094652 0.67807353
-0.01173432 0.061379492 0.67873752
-0.012613096 0.064416662 0.67832595
-0.012613096 0.064416662 0.67832595
-0.0018129462 0.037165433 0.67966282
-0.0081543289 0.053456187 0.67955744
0.0081551559 0.053461611 0.67957962
0.0095140822 0.055270091 0.67956471
-0.012666209 0.06152162 0.67924184
0.012667171 0.061526239 0.67925847
-0.016275531 0.070527345 0.67911315
-0.0018239763 0.032831609 0.68099433
0.0054670461 0.046469927 0.68079793
-0.0054598479 0.047318697 0.68050826
0.0054538967 0.04817611 0.68026876
0.0091184191 0.050151348 0.68095899
-0.011833804 0.055527866 0.68058497
-0.013654437 0.059169263 0.68058574
0.016399946 0.065599799 0.68078184
0.020054309 0.078394145 0.6808908
-0.0045782658 0.040288746 0.68187916
-0.0054896614 0.043459579 0.68170786
-0.0064030341 0.044821292 0.68165362
-0.0073089609 0.046594679 0.68138832
0.015569923 0.059532076 0.68193328
-0.015509905 0.062039673 0.68108106
-0.020139292 0.075522065 0.68182337
-0.00091867591 0.026641637 0.68260884
0.0027567465 0.029405326 0.68266672
0.0055002198 0.042168379 0.68213266
0.015628165 0.056996822 0.68276048
-0.01927924 0.069772512 0.68245995
0.019286387 0.06979838 0.68254209
0.020158684 0.0751369 0.68203622
0.0004622046 0.022180811 0.68394232
0.0027704535 0.025857598 0.68376976
0.0055405386 0.036936939 0.68375498
-0.0073798946 0.039666951 0.6835289
-0.0083031775 0.040593356 0.6835503
0.010133455 0.044218749 0.68322384
0.01106205 0.045170069 0.68337214
-0.01937894 0.066442102 0.68360609
0.022157494 0.080320954 0.68370801
-0.0074159075 0.036152571 0.68461573
0.010170719 0.041607499 0.68404168
0.012518729 0.043581784 0.68468404
0.013875879 0.048103064 0.6841498
-0.01481357 0.049532622 0.68434036
-0.017615391 0.056554675 0.68464887
-0.00093121169 0.016761839 0.68563533
-0.0027868408 0.021365792 0.68508852
0.0037260535 0.023287863 0.68570817
-0.0055947881 0.02983892 0.68593782
-0.0074431277 0.033494085 0.68543714
-0.0092968913 0.036257923 0.68526769
-0.010219175 0.038089663 0.68510514
0.012092007 0.040461451 0.6853801
0.00046709951 0.014476374 0.68630308
-0.0037426786 0.019649059 0.68671155
-0.0084262574 0.029960036 0.68685186
-0.0084262574 0.029960036 0.68685186
-0.0065367301 0.029882193 0.68626463
-0.0065367301 0.029882193 0.68626463
-0.010295138 0.032757252 0.68677241
-0.010295138 0.032757252 0.68677241
0.010284096 0.033657074 0.68653005
-0.014048179 0.039334893 0.68692291
0.014976651 0.042121828 0.68680114
0.015865678 0.046663791 0.68613344
-0.02055168 0.062589198 0.68634886
0.020563506 0.0626252 0.68647861
-0.00093819248 0.011258334 0.68732059
-0.00093819248 0.011258334 0.68732059
-0.0084680887 0.026345164 0.68797398
0.015014458 0.040351391 0.68737161
0.015014458 0.040351391 0.68737161
-0.014990898 0.041224986 0.68701607
0.01594652 0.043149441 0.68728149
0.01594652 0.043149441 0.68728149
-0.016920524 0.044181377 0.68776399
0.019693403 0.056266874 0.68722129
-0.020689968 0.058308125 0.68786639
0.0028230892 0.012233436 0.68800557
0.0037667346 0.0155375 0.6881634
-0.0075540664 0.022662222 0.68878502
-0.0094475392 0.024563611 0.6889047
-0.010372277 0.027345091 0.68846536
0.013177639 0.03388539 0.68806112
0.014139965 0.034878612 0.68840021
-0.01600226 0.040476352 0.6880731
0.019797817 0.052794188 0.68842167
-0.00094886741 0.0028466284 0.68989778
-0.002847099 0.0056942105 0.68993771
0.0085116243 0.022697717 0.68914175
-0.010424336 0.023691714 0.68960798
0.016131299 0.035109311 0.68990558
-0.018004103 0.041693747 0.68958801
-0.018004103 0.041693747 0.68958801
-0.019866992 0.05014053 0.68921685
0.021771846 0.059635937 0.6893509
0.008575879 0.017151773 0.6908654
0.0094962018 0.020891637 0.69007945
0.012344173 0.025637925 0.690063
0.014266723 0.028533429 0.69044036
0.015206622 0.031363666 0.69027108
-0.016145749 0.034191012 0.6901108
0.019956645 0.047515839 0.69024754
0.025738224 0.08293429 0.69096005
-0.00095611642 -0.0028683245 0.69164789
0.0057440968 0.010530859 0.69194549
-0.0086178267 0.013405532 0.69199061
-0.010516718 0.017209172 0.69163549
-0.011452432 0.020041794 0.69122607
0.011455579 0.020047307 0.69128931
-0.015280635 0.027696162 0.69138789
-0.015260945 0.028614283 0.69109082
-0.017206941 0.032502055 0.69160545
-0.019142814 0.038285643 0.69189507
-0.023910312 0.066948891 0.69171929
0.0019227779 -0.0057682991 0.69292068
0.0019227779 -0.0057682991 0.69292068
0.0038432516 0.00096082687 0.69278163
0.0048040831 0.0057649314 0.69278258
0.0047979103 0.0067170858 0.6924845
-0.0047898265 0.0076637268 0.69209421
-0.0086396514 0.011519581 0.69257605
-0.0086287251 0.012463748 0.69228297
-0.012468062 0.01822257 0.69236368
0.017305067 0.028841794 0.69292164
0.022082498 0.050885767 0.69261163
-0.025921142 0.077763438 0.69259566
0.025928803 0.077786416 0.69266409
0.0086741326 0.0086741745 0.693501
-0.010624352 0.0096585453 0.69399774
0.010585773 0.012510478 0.69315112
-0.01155465 0.013480455 0.69328249
0.016363103 0.025025964 0.69319749
-0.00096720195 -0.011606395 0.69432414
-0.0019346281 -0.010640413 0.69435114
0.0077573489 0.0029090047 0.69491959
0.0077573489 0.0029090047 0.69491959
-0.008694699 0.0067625642 0.6940527
-0.010651574 0.0077466071 0.69459522
0.01448943 0.017387301 0.6940248
-0.016462609 0.020336181 0.6946106
0.0058252816 2.9802322e-08 0.69521213
-0.011689121 0.0048705041 0.69598788
0.013623728 0.0097312331 0.69575369
0.013623728 0.0097312331 0.69575369
-0.014559306 0.013588727 0.69514936
-0.016549924 0.016549945 0.69585061
-0.016549924 0.016549945 0.69585061
0.017489351 0.021375895 0.69539332
0.01946974 0.027257651 0.69584143
0.025249906 0.067494616 0.69527733
0.028152032 0.075719267 0.69518304
-0.0068304092 -0.0029273033 0.69639325
0.0087972917 -0.0019549429 0.69680464
0.0087859305 -0.00097617507 0.69649988
-0.0097576547 0.0004875809 0.69639158
-0.018536935 0.021463871 0.69635832
-0.018536935 0.021463871 0.69635832
0.021494498 0.03419584 0.69669497
-0.021440241 0.035084069 0.69609964
-0.025418175 0.06256783 0.69683975
-0.025418175 0.06256783 0.69683975
-0.02634196 0.066342741 0.69635838
0.027369138 0.067445397 0.69680285
-0.0019573704 -0.019573718 0.69709641
0.0049049966 -0.0098099709 0.69765508
0.0058781365 -0.0068578422 0.69733882
0.011761919 0.00048977137 0.69745243
-0.013744338 0.0029452443 0.69783354
-0.0019702341 -0.024627894 0.69864917
-0.008864169 -0.0078792274 0.69859862
0.0088659488 -0.0078808367 0.69864643
-0.012794632 -0.00098416209 0.69842839
0.014738627 0.0049129128 0.69803548
0.014738627 0.0049129128 0.69803548
-0.01868779 0.015737087 0.69827521
0.0029658386 -0.024715334 0.69949317
0.002961894 -0.023695171 0.69917578
-0.0039476501 -0.019738227 0.69908267
0.0069293808 -0.013858736 0.69980669
-0.010888941 -0.0089091063 0.69980478
-0.012845114 -0.0039523244 0.69936591
0.023706192 0.041485846 0.69928676
-0.026674101 0.057299942 0.69932818
0.0019893001 -0.031828791 0.70095062
0.0069566038 -0.016894579 0.70074558
-0.0099434564 -0.013920814 0.70087713
0.009920666 -0.011904776 0.70032698
0.013895324 -0.0049625933 0.70043719
-0.015916299 -0.0019895136 0.70097929
-0.021877779 0.021877795 0.70090103
-0.024858048 0.046733171 0.70087147
0.026819831 0.05363965 0.70063132
-0.0029956696 -0.032952368 0.70189381
-0.0049809138 -0.021916002 0.70132071
-0.015937719 -0.0029883087 0.70130247
-0.01994502 0.0099725425 0.70157862
-0.021974383 0.01897791 0.7019611
0.022924254 0.027907789 0.70144719
-0.0050142175 -0.027076781 0.70292878
0.0079927593 -0.019981891 0.70202374
0.010992722 -0.015989393 0.70208251
0.012987196 -0.011988163 0.70200449
0.026057949 0.045100302 0.70278031
0.026057949 0.045100302 0.70278031
-0.026013555 0.046023995 0.70236814
-0.027049124 0.047085553 0.70268148
0.0010035917 -0.040143669 0.70310938
-0.0030158563 -0.038200796 0.70351827
-0.0060325852 -0.027146608 0.70355338
0.0090424092 -0.023108363 0.70337987
0.015057378 -0.011042088 0.70316583
0.018069508 -0.0020076632 0.70317447
0.019119553 -0 0.70376134
0.02314342 0.022137195 0.70374769
0.028162478 0.04827854 0.7036432
-0.0040338659 -0.036304772 0.70428622
-0.0060566342 -0.030283153 0.70452106
0.0090906359 -0.027271897 0.70467353
-0.0090764537 -0.026220858 0.70429313
-0.010076094 -0.024182588 0.70407933
-0.01716448 -0.010096729 0.7045781
0.022203088 0.013120025 0.70447093
0.026191518 0.041302025 0.70402056
0.0030344755 -0.042482644 0.70501667
0.0080996305 -0.030373544 0.70524883
0.012150281 -0.024300516 0.70526564
-0.016221056 -0.016221046 0.70557773
0.019283289 -0.0060894489 0.7058419
0.021293327 0.0040558875 0.70561439
-0.024355862 0.025370717 0.70582199
-0.027328622 0.039474696 0.70518064
-0.0040671797 -0.042705387 0.70629692
0.0060986131 -0.035575241 0.7062102
-0.011212269 -0.031598181 0.70690101
-0.011212269 -0.031598181 0.70690101
0.011216519 -0.031610161 0.7069943
-0.013209798 -0.02540341 0.70613837
-0.014230619 -0.023378819 0.70621914
0.014218371 -0.022343159 0.70600796
0.026430225 0.034562618 0.70623708
-0.02743919 0.036585599 0.70616931
-0.0092112413 -0.037868381 0.70790875
-0.0091864374 -0.035724998 0.70724332
0.0091886874 -0.035733789 0.7073037
0.017393034 -0.01943922 0.70782387
-0.018412314 -0.016366452 0.70777231
-0.018386379 -0.01532197 0.70742446
0.019449852 -0.01228407 0.70795834
-0.026521394 0.031621695 0.70708358
-0.027589817 0.032699078 0.70751613
0.0061646346 -0.044179827 0.70886666
-0.012328257 -0.035957396 0.70884627
-0.014347791 -0.029720396 0.70823973
-0.024629304 0.019498229 0.70857251
0 -0.04954192 0.70999742
-0.0051586567 -0.047459602 0.70990288
-0.009273841 -0.043277919 0.70958793
0.0082316827 -0.043216318 0.70923388
0.0082316827 -0.043216318 0.70923388
-0.010281906 -0.040099442 0.70904803
0.01645856 -0.026745141 0.7091614
-0.018543022 -0.021633506 0.70952547
-0.026730211 0.025702149 0.70902252
-0.026730211 0.025702149 0.70902252
-0.0010350564 -0.051752776 0.71070564
-0.0010350564 -0.051752776 0.71070564
-0.003103205 -0.050685674 0.71054757
0.0051806625 -0.050770462 0.71096539
-0.0072395545 -0.047574222 0.71050417
0.010356393 -0.045568109 0.71084636
0.010356393 -0.045568109 0.71084636
-0.011396891 -0.044551462 0.710953
0.012401028 -0.04030332 0.71031028
0.016527738 -0.02995649 0.71020526
-0.017550651 -0.026842177 0.71006221
-0.022789912 -0.0051795244 0.71091056
-0.023745291 0.0051620603 0.71006525
-0.0062391981 -0.053033203 0.71186686
-0.0041516484 -0.052933544 0.71139503
0.0020736046 -0.05287686 0.7111271
-0.015576177 -0.037382811 0.71151567
0.021845911 -0.013523638 0.71196705
-0.026009738 0.014565498 0.71199316
-0.028012585 0.021787584 0.71129632
-0.0052222097 -0.057444274 0.71297145
-0.0073089581 -0.055339247 0.71289784
0.0052090315 -0.055215687 0.71233517
0.015630869 -0.039598197 0.71239597
0.025023671 0.010426581 0.71253955
-0.002093306 -0.06070587 0.71350527
0 -0.059555322 0.71306527
-0.0052293707 -0.058568925 0.71331722
-0.02510245 0.0073215663 0.713332
0.028308185 0.015726805 0.71393943
0.0020992339 -0.062976986 0.71422088
-0.011540752 -0.05350706 0.71411031
0.01364651 -0.049337357 0.71424854
-0.0189193 -0.03678748 0.71457219
-0.0189193 -0.03678748 0.71457219
0.026231622 0.0083941519 0.71413583
-0.0073899808 -0.064398378 0.71569222
-0.0094936322 -0.061181128 0.71548373
0.022158163 -0.023213267 0.7155568
-0.0231959 -0.016869724 0.71536565
-0.0031807043 -0.071035713 0.71678424
0.0084855463 -0.066823661 0.71689487
-0.011670843 -0.062598139 0.71696556
-0.012712206 -0.059323609 0.71657073
0.011628235 -0.05919829 0.71603036
0.018010024 -0.044495344 0.71658587
0.025382064 2.9802322e-08 0.71614468
0.028580917 0.0095269978 0.71637803
0.0010638959 -0.074472725 0.71766812
-0.0085181585 -0.0702748 0.71787906
0.0063714264 -0.070085645 0.71718729
0.0085093575 -0.069138527 0.71761346
0.015952129 -0.054237247 0.71756661
0.018065028 -0.046756506 0.71736699
-0.01915542 -0.044695973 0.71773911
0.026552683 -0.0010620952 0.71723628
-0.02761092 0.001061976 0.7172004
-0.02761092 0.001061976 0.7172004
-0.028654635 0.0063677132 0.7170372
0.012792373 -0.063961834 0.71818358
0.024551146 -0.011741817 0.71852398
-0.025573848 -0.0063934326 0.71807396
0.026734391 -0.0064162612 0.71899104
0.026734391 -0.0064162612 0.71899104
-0.011787064 -0.070722371 0.71951628
-0.011770328 -0.069551945 0.71914893
-0.014989585 -0.063170373 0.71930701
0.02573619 -0.010723412 0.71970701
0.0064433822 -0.079468399 0.72008264
0.0096866125 -0.077492863 0.72066039
-0.013991473 -0.069957376 0.72065479
0.013981788 -0.068833441 0.72047496
-0.024770983 -0.019385993 0.72083151
-0.026938433 -0.012930453 0.72096145
-0.02690147 -0.011836588 0.72060442
-0.0021583375 -0.086333513 0.72135532
0.002158589 -0.086343586 0.72138572
-0.0043159304 -0.085239589 0.72131038
0.0032349664 -0.085187435 0.72115088
0.010801845 -0.078853428 0.72160053
-0.014051985 -0.07350266 0.72177851
-0.014051985 -0.07350266 0.72177851
0.016208926 -0.066996872 0.7216996
-0.020507922 -0.050730079 0.72140253
-0.002170603 -0.091165304 0.7228359
0.0054243193 -0.08895883 0.72273022
-0.0064964499 -0.086619318 0.72221792
0.0086799646 -0.085714638 0.72276199
0.015199892 -0.073828042 0.72293371
0.015199892 -0.073828042 0.72293371
-0.018448927 -0.064028591 0.72281879
0.023890417 -0.03366375 0.72298712
0.011981875 -0.083873093 0.72379184
-0.011957251 -0.082613707 0.7232514
0.019560887 -0.059769362 0.72317731
0.021781338 -0.050097078 0.72374493
-0.01092143 -0.088463575 0.7244876
-0.010905718 -0.087245733 0.72410816
0.010911427 -0.08729139 0.72424608
-0.017480545 -0.073199779 0.72458196
-0.017480545 -0.073199779 0.72458196
-0.018559868 -0.068780661 0.72439432
-0.018559868 -0.068780661 0.72439432
-0.020763224 -0.060104042 0.72464645
0.022912597 -0.043642998 0.72422993
-0.028351409 -0.018537462 0.72407615
-0.015342713 -0.082193077 0.72539645
0.016426461 -0.077751875 0.72520077
0.016426461 -0.077751875 0.72520077
-0.027390385 -0.026294768 0.72532588
0.027382707 -0.025192082 0.72525179
0.015403779 -0.084720761 0.72644955
-0.020893276 -0.06487909 0.72629899
-0.02528297 -0.034077048 0.72620565
0.025315784 -0.034121245 0.72655004
-0.015456529 -0.088322997 0.72735924
0.016575342 -0.085086733 0.727597
-0.022121366 -0.063045889 0.72784942
0.023199026 -0.051921606 0.72752279
0.025389284 -0.036428064 0.72732157
-0.027633749 -0.033160478 0.72767603
-0.02882302 -0.029931605 0.72845525
0.018960673 -0.084765315 0.73008621
-0.021401821 -0.083354414 0.73276067
-0.021401821 -0.083354414 0.73276067
-0.0012846489 0.076209217 0.66754591
-0.0011537316 0.069070205 0.66969508
-0.0028805383 0.073150828 0.66940516
-0.0030114877 0.076558083 0.66849232
0.001733294 0.068465143 0.670048
0.0048411917 0.069083579 0.67328352
0.0026662578 0.052880555 0.67538476
0.0035330574 0.060062021 0.67405975
-0.0047942265 0.062934034 0.67512047
-0.0079548834 0.070710093 0.67420739
-0.0011975954 0.043110885 0.6776545
-0.001343737 0.045230038 0.67704976
-0.004786131 0.055332702 0.67744446
-0.0098147709 0.06647253 0.6762296
0.012956195 0.071032383 0.67652905
0.0011335656 0.036818951 0.67962778
0.0054051261 0.054501444 0.67830634
-0.010878467 0.056884587 0.67967874
0.014830078 0.066821642 0.6791212
-0.00091531483 0.02929011 0.68179744
0.0013639163 0.034847807 0.68029112
-0.0050119464 0.045099981 0.68078381
-0.011220765 0.052998342 0.68104607
0.014644394 0.057662338 0.68178773
-0.016732175 0.065252133 0.6811471
-0.019119561 0.075112298 0.68062425
0.019125789 0.075136751 0.68069589
0.0069194287 0.039208278 0.68354511
-0.011469128 0.049238503 0.68232298
0.013756699 0.054109722 0.68223161
0.0034813732 0.024944276 0.6849007
-0.0070984527 0.036725264 0.68434352
-0.011101689 0.042556465 0.68416965
-0.017604275 0.056981966 0.68450761
-0.021063589 0.069072559 0.6851548
-0.023275539 0.081464067 0.68558943
0.0011749462 0.010803282 0.68762153
0.0034310804 0.019022107 0.68667066
-0.0050082756 0.023160866 0.68750352
-0.010346462 0.029158205 0.68789881
0.012636002 0.036970004 0.68678087
-0.018783404 0.05118449 0.68755662
0.019210087 0.054931533 0.68703592
-0.020606797 0.060882907 0.68695372
0.023475911 0.077470154 0.68752432
0.0028428943 0.0071069747 0.68959939
-0.0088451933 0.021480601 0.68961042
-0.0053425059 0.021053722 0.68840897
0.0075360043 0.024492025 0.68823999
-0.014675074 0.032779686 0.68938124
0.016131299 0.035109311 0.68990558
-0.0086178267 0.013405532 0.69199061
0.0071721342 0.012909025 0.69167888
0.0090401229 0.018792335 0.6905458
0.0090401229 0.018792335 0.6905458
0.012844587 0.025211938 0.69051027
0.019077949 0.041016769 0.69111216
-0.019999491 0.045713156 0.69074011
0.019969966 0.04707174 0.69040072
-0.024859138 0.076967344 0.69164884
-0.003838697 0.0011987612 0.69250673
-0.0092742685 0.012791744 0.69243693
-0.021130752 0.044662416 0.69270343
-0.02394785 0.066096067 0.69208181
0.026999066 0.076898329 0.69361198
0.0019327226 -0.0096635818 0.69412118
-0.0035547826 -0.0074303551 0.69481009
0.0053437022 -0.0014574751 0.69535327
0.0053437022 -0.0014574751 0.69535327
0.011018056 0.0055088503 0.69551897
-0.015469974 0.018853724 0.6942448
-0.015469974 0.018853724 0.6942448
0.016980445 0.02086015 0.69506085
-0.025316868 0.065239608 0.69589913
-0.0039136708 -0.013208926 0.69703186
-0.0053837011 -0.0073407516 0.69710696
0.008831487 -0.0049063563 0.69772196
-0.0074746511 -0.0016250312 0.69619143
-0.013193016 0.0053743646 0.69674069
-0.015159667 0.0092905909 0.69692844
0.017116373 0.015158974 0.69693553
0.017116373 0.015158974 0.69693553
-0.021455213 0.034620598 0.69626391
0.026516303 0.061871409 0.69791722
0.028382 0.070954651 0.69709742
0.0029599271 -0.023186415 0.69901747
-0.0054259491 -0.01331687 0.69896203
0.0054277554 -0.013321474 0.69904417
-0.011796137 -0.0019659698 0.69814086
0.015733685 0.006883502 0.69822383
0.018764189 0.013332143 0.69924593
0.027542291 0.063198827 0.69829583
0.0012420648 -0.031279881 0.70055282
-0.0093109123 -0.017291328 0.70165622
-0.015423252 -0.0034827888 0.701033
-0.027489325 0.054977518 0.70068926
0.00033542942 -0.042601429 0.70376992
0.011007363 -0.017011374 0.70240384
-0.010989781 -0.015985161 0.70201802
-0.014554987 -0.012547038 0.70314455
0.014996545 -0.0079981685 0.70218664
0.015989797 -0.0049967766 0.7020883
0.022135403 0.015092343 0.70372814
0.0010076379 -0.043328404 0.70408624
-0.0050513549 -0.032834128 0.70472193
0.0050405161 -0.030747473 0.7041986
-0.012499887 -0.024661075 0.70549411
0.012505293 -0.024671655 0.70559919
0.018876467 -0.0047185719 0.70494223
-0.020285115 -0.0020284951 0.70568395
0.024214225 0.030267835 0.7043972
-0.028271208 0.044930696 0.70458066
0.006624843 -0.03719946 0.70686662
-0.011182063 -0.029479951 0.70623809
0.011186155 -0.029490739 0.7063278
-0.01493496 -0.023080301 0.70664877
0.015253359 -0.020846605 0.70632005
-0.021421213 -0.0010200441 0.7070846
-0.021327816 0.0020312667 0.70601094
0.024552278 0.023017392 0.70779777
-0.026590673 0.029658824 0.7077269
-0.02846274 0.040661037 0.70623213
-0.012370553 -0.038658336 0.70969725
0.012375398 -0.038673416 0.70979464
0.012375398 -0.038673416 0.70979464
-0.016457485 -0.027258053 0.70914519
-0.020596076 -0.012872919 0.70943755
-0.025385186 0.020924896 0.70925915
0.00051965454 -0.055078998 0.71171254
0.0025822418 -0.049576655 0.71017236
-0.014547367 -0.040524781 0.71168125
-0.013437589 -0.038762629 0.71036863
0.015030811 -0.036797665 0.71106482
-0.016940689 -0.032496613 0.71120685
0.018653523 -0.02538985 0.71100748
-0.019668933 -0.0212221 0.710742
-0.022844505 -0.0067498982 0.71150959
-0.02271767 -0.003097862 0.71011782
0.022743687 -0.0025849044 0.71040326
0.023773154 0.0062017143 0.71035773
0.023773154 0.0062017143 0.71035773
-0.02809087 0.019767672 0.71199632
-0.0010442485 -0.059000373 0.71292484
0.0026051258 -0.056789339 0.71238196
-0.0093764132 -0.051049352 0.7123394
-0.0093764132 -0.051049352 0.7123394
-0.014628783 -0.044931233 0.71308517
0.013215027 -0.045556247 0.71268743
0.013529791 -0.043711632 0.71208096
-0.023947584 2.9802322e-08 0.71218872
-0.026183302 0.0094259977 0.7136693
0.027064199 0.016654909 0.71212375
0.0021137691 -0.068697453 0.7159754
-0.0026300056 -0.064695336 0.71478438
0.0047413739 -0.064795829 0.71517879
-0.0010492649 -0.062955856 0.71413583
-0.010875831 -0.057183944 0.7149083
-0.015425697 -0.04697597 0.71472466
-0.019001927 -0.040115148 0.71568036
0.019952528 -0.03097932 0.71434546
-0.021061718 -0.028960228 0.71505833
-0.0232147 -0.017411426 0.715572
-0.025338162 0.00052750111 0.71570313
0.00053083868 -0.072720006 0.71711397
-0.015881455 -0.0513504 0.71642905
0.017016834 -0.051050454 0.71758509
0.017016834 -0.051050454 0.71758509
0.021224093 -0.033428356 0.71701837
0.02331629 -0.01854746 0.71668684
-0.0010698239 -0.079166919 0.71909916
0.013544451 -0.064868025 0.71896166
0.024613701 -0.013377443 0.71918058
0.028791916 0.0063982606 0.7182647
-0.0068445951 -0.084654853 0.72172463
-0.0068445951 -0.084654853 0.72172463
0.007015476 -0.083101764 0.72137344
0.010801845 -0.078853428 0.72160053
0.0093177631 -0.077048421 0.72037143
0.0093177631 -0.077048421 0.72037143
0.012902606 -0.070964336 0.72040129
-0.015032818 -0.06550011 0.72005254
0.016173413 -0.065233141 0.72112811
-0.018366704 -0.060502112 0.7216512
0.023759546 -0.030239433 0.72155106
0.028093411 -0.01080513 0.72168052
-0.0068935342 -0.090702228 0.7235899
-0.0090739336 -0.088559002 0.72368979
0.01089565 -0.086075634 0.72386521
-0.011563475 -0.080941372 0.72253036
-0.024976455 -0.024976432 0.72298825
0.024961788 -0.023334235 0.72283435
-0.014247375 -0.084936664 0.72540712
-0.013109501 -0.08466588 0.7245636
0.014260119 -0.085012615 0.72564375
0.015267275 -0.07742691 0.7240957
-0.020779394 -0.060698107 0.72485191
0.025149714 -0.028977245 0.7248069
-0.016556256 -0.084988773 0.72728986
0.017620137 -0.078740373 0.72668821
-0.01977225 -0.06920287 0.72601223
0.020901544 -0.063804716 0.72640401
0.017237224 -0.088404238 0.72928524
0.018872162 -0.08103928 0.72882932
-0.021058124 -0.070932597 0.72839355
-0.02895659 -0.032297701 0.7296955
-0.022455739 -0.074103922 0.73188567
0.021207791 -0.074785352 0.7302953
0.022489248 -0.073090047 0.73229015
-0.022727052 -0.082953721 0.73516071
-0.0011433437 0.075168759 0.6678251
0.0044523184 0.059661061 0.67579788
-0.0056345784 0.066247247 0.67458934
0.013297691 0.074738458 0.67562413
-0.0085763754 0.054110985 0.67952466
-0.014358656 0.073525079 0.67670667
-0.004613732 0.034832887 0.68359154
-0.006303072 0.045655437 0.68127763
-0.0057784491 0.026251439 0.68692535
0.010876555 0.041885413 0.68429363
0.017658353 0.050512396 0.68665171
0.022032857 0.073695533 0.68556041
0.0062900977 0.022010911 0.6885674
-0.0075353519 0.024489909 0.68822026
0.011148675 0.029362768 0.68827331
0.011148675 0.029362768 0.68827331
-0.015076671 0.03722024 0.68831027
-0.021397067 0.053816594 0.69038612
-0.019775245 0.053204536 0.68816215
-0.023085034 0.06648048 0.689834
-0.0096723493 0.0029713984 0.69562358
0.0067721298 0.0097036902 0.69253039
0.013632651 0.014032639 0.69447505
0.013632651 0.014032639 0.69447505
-0.014255088 0.017894384 0.69365549
-0.015339897 0.024927348 0.69228208
-0.024132852 0.062139187 0.69386834
-0.026517678 0.078045607 0.69290614
0.00099035865 -0.029035121 0.69978732
0.010600909 0.001523903 0.69655883
-0.016958456 0.0065025217 0.69931042
0.022101644 0.033883978 0.69794393
0.023535885 0.045434471 0.6975736
0.023535885 0.045434471 0.6975736
0.028424261 0.070078693 0.69744927
-0.0083012907 -0.02540734 0.70374113
0.012085131 -0.02014187 0.70395499
-0.013576295 -0.013700527 0.70283318
-0.01625498 -0.0094688982 0.70355749
0.01189381 -0.0079292357 0.70010591
0.018090455 0.001762808 0.70207679
-0.019654913 0.01044875 0.70107126
-0.022957742 0.025949692 0.7017988
0.0018883393 -0.04596464 0.70545
-0.005311619 -0.038173731 0.70620835
-0.012277938 -0.032741159 0.70783389
-0.0093749007 -0.03382374 0.70676327
0.0097613279 -0.025915178 0.70457059
0.020888962 0.0014363577 0.70580649
-0.023093954 0.013703797 0.7058748
0.022830108 0.013568632 0.70575374
0.022830108 0.013568632 0.70575374
-0.012464615 -0.04466486 0.71158957
-0.0095923934 -0.045920309 0.71068472
-0.021252435 -0.0099174567 0.70956767
-0.01801456 -0.038472425 0.71412641
-0.0018972642 -0.070327505 0.716456
-0.013977263 -0.065360218 0.71926397
0.013838932 -0.062103864 0.71833724
0.013838932 -0.062103864 0.71833724
-0.028564842 0.0084636509 0.71623439
0.016559642 -0.070037499 0.72296625
-0.025005966 -0.025822543 0.72329807
0.023651492 -0.027414694 0.72036529
-0.028282886 -0.016861364 0.72343981
-0.016568655 -0.08560513 0.72748947
-0.025345072 -0.037868842 0.7268182
0.024515567 -0.037682682 0.72580659
-0.018400153 -0.085945591 0.72947478
0.022265695 -0.065963387 0.72959167
0.022207905 -0.078470588 0.73341483
-0.023982685 -0.076516181 0.73653197
