# .PCD v0.7 - Point Cloud Data file format
VERSION 0.7
FIELDS x y z
SIZE 4 4 4
TYPE F F F
COUNT 1 1 1
WIDTH 682
HEIGHT 1
VIEWPOINT 0 0 0 1 0 0 0
POINTS 682
DATA ascii
0.0098881554 -0.077307358 0.67784017
0.0063381465 -0.080584988 0.67941576
0.0072390637 -0.074200422 0.67927897
0.0094916373 -0.069605738 0.67905879
0.0081501072 -0.068823099 0.67944419
0.0095314924 -0.063543335 0.6799742
0.0095314924 -0.063543335 0.6799742
0.0018195126 -0.079148769 0.68045545
-0.00091165252 -0.078402087 0.68091333
-0.0027429739 -0.076803222 0.68155837
-0.0027452968 -0.075495519 0.68174529
0.0045706877 -0.071302712 0.68151319
0.010953841 -0.057507634 0.68119514
0.008238134 -0.052174866 0.68180555
0.014705241 -0.075364321 0.68270582
0.0018353704 -0.066532031 0.68236971
0.002758692 -0.063449919 0.6828233
0.0055177594 -0.05747658 0.68283844
0.011476268 -0.052328959 0.68245834
0.0082568955 -0.04862389 0.68230873
0.0091734193 -0.048619121 0.68228686
0.0091734193 -0.048619121 0.68228686
-0.0092414971 -0.079476848 0.68393034
-0.0083115445 -0.076650888 0.68377471
-0.0064534573 -0.072831899 0.6833927
-0.0046108696 -0.067318678 0.68345338
-0.0046108696 -0.067318678 0.68345338
-0.00092079927 -0.063535154 0.6831215
-0.00092079927 -0.063535154 0.6831215
0.013847208 -0.061850846 0.68368834
0.013847208 -0.061850846 0.68368834
0.0018471462 -0.057261527 0.68379116
0.0046191616 -0.054506093 0.68385375
0.010138719 -0.04331997 0.68333942
0.010138719 -0.04331997 0.68333942
0.009238869 -0.03880322 0.68386692
0.017604692 -0.079684377 0.68451285
0.017604692 -0.079684377 0.68451285
-0.0074087973 -0.068531334 0.68440109
0.014853664 -0.066841453 0.68494534
-0.0018536608 -0.05468297 0.68457758
0.0027817436 -0.051462099 0.68467832
0.0046365396 -0.048220009 0.68469286
0.0055634766 -0.040798783 0.68467796
0.0092482455 -0.037455231 0.6840933
0.0074151657 -0.034295142 0.68459332
-0.012099356 -0.082834035 0.68551648
-0.012099356 -0.082834035 0.68551648
0.017657466 -0.076205879 0.68518347
-0.010223237 -0.074350774 0.68519431
0.015786998 -0.070577174 0.6850161
-0.0093070772 -0.067476168 0.68551362
-0.0083741415 -0.064201742 0.68545389
-0.0074332589 -0.063182682 0.6851393
-0.0074537443 -0.058698237 0.68575758
-0.0065105576 -0.058595031 0.68536204
-0.0037193303 -0.052535385 0.68530238
-0.0037193303 -0.052535385 0.68530238
0.0018643873 -0.04381308 0.68587238
0.0046551926 -0.04050003 0.68559349
0.011179409 -0.033538222 0.68573326
0.006517997 -0.028865397 0.68561858
0.019623082 -0.077557862 0.68641287
-0.012147441 -0.075687885 0.68640947
0.017744113 -0.070509285 0.68628448
0.016835505 -0.065471411 0.68662369
0.015906265 -0.06175369 0.68670988
0.014007594 -0.055096507 0.68626964
-0.0074826144 -0.052378267 0.68662882
-0.0074826144 -0.052378267 0.68662882
-0.0046720752 -0.046720773 0.68640864
-0.0018726138 -0.03932488 0.68686545
0.0046710633 -0.033631623 0.68635976
0.010279985 -0.026167214 0.68643987
0.006533097 -0.025199085 0.68613935
0.0074879616 -0.019655883 0.68679011
-0.012201993 -0.067580253 0.68742257
0.017806025 -0.066538304 0.68707114
0.017820111 -0.065652996 0.68725014
-0.010326081 -0.057262808 0.68745148
0.01499775 -0.056241542 0.68711948
0.01407484 -0.050669402 0.687352
-0.0075159119 -0.045095474 0.68763363
-0.0065734112 -0.043196678 0.68752974
-0.004699192 -0.037593514 0.68771791
-0.0047046533 -0.035755366 0.68798172
-0.003759989 -0.035719901 0.68775636
-0.0018805315 -0.032909304 0.68782115
0.012187956 -0.032813698 0.68716192
0.0075093284 -0.01548782 0.68743491
-0.012233387 -0.063048959 0.68800563
0.016950777 -0.057444304 0.68816978
0.017002681 -0.053841799 0.6888659
-0.007536856 -0.040510595 0.68826562
-0.0075537809 -0.036824703 0.68877643
-0.0037756364 -0.029261172 0.68870074
-0.00094265718 -0.028279692 0.68839848
0.00047169652 -0.026416644 0.68859071
0.0028287603 -0.026401758 0.68846196
0.0028287603 -0.026401758 0.68846196
0.010365404 -0.016490191 0.68831456
0.0075356076 -0.010361463 0.68822801
0.0056685237 -0.0075579882 0.68890464
0.020807136 -0.069041818 0.68915212
0.019863535 -0.064319968 0.68917716
-0.013252228 -0.058688402 0.68934739
-0.0132589 -0.057770908 0.68946242
0.018005058 -0.054015189 0.68960011
0.017022222 -0.052485004 0.68912804
-0.010397634 -0.045371443 0.68902189
0.015136411 -0.045409203 0.68921173
-0.0066185258 -0.03214711 0.68908572
-0.0047293957 -0.027430475 0.68917632
-0.0037869094 -0.02461493 0.68938112
0.0018914506 -0.022697389 0.68913919
0.0018926312 -0.021765232 0.6892817
0.0085133621 -0.0056755543 0.68918842
0.0056818696 -0.0037878752 0.68944174
-0.01425074 -0.058903009 0.6901831
-0.013325993 -0.048544645 0.69061941
0.018091748 -0.04856205 0.69070166
-0.012354583 -0.045616895 0.6902563
-0.0057053873 -0.02091974 0.69038802
0.0004764976 -0.011436179 0.69089955
0.0047584688 0.0019034147 0.69058013
0.0057019852 0.0019006431 0.69025105
-0.016227126 -0.06777212 0.69126654
-0.015255885 -0.060070068 0.69101447
-0.014320566 -0.049644619 0.69130695
0.016225208 -0.038176924 0.69123924
0.015288164 -0.033442855 0.6915015
-0.01048894 -0.030513287 0.69102585
-0.011476291 -0.029647052 0.69170612
0.013362649 -0.027679712 0.69125152
-0.0047691907 -0.014307588 0.69109786
-0.0057356902 -0.0124273 0.69160724
-0.0057424703 -0.010527849 0.69188011
0.001908979 -0.0085904002 0.69125509
0.0019101524 -0.0076406002 0.69139671
-0.00095743005 -0.0047871172 0.69196498
0.0038222456 0.0047778487 0.69151384
0.0086025167 0.0076466799 0.69157994
-0.016308079 -0.057557911 0.69241607
0.019168999 -0.045526147 0.69221121
0.016301077 -0.032602161 0.69231671
-0.012491958 -0.025944829 0.6928075
-0.0076676272 -0.012459874 0.69221199
0.0038424842 0.014409333 0.69273531
0.0067050895 0.014368087 0.69207114
0.0067192134 0.017278016 0.69255823
0.0067239087 0.018250585 0.69272017
-0.019306459 -0.082534939 0.69387043
-0.017315047 -0.063488454 0.69305545
0.018284164 -0.036568284 0.69314659
-0.012553194 -0.01738134 0.69394463
-0.0096554831 -0.0057932734 0.6939249
-0.0048272009 0.0048272312 0.6938988
0.0038507793 0.018291205 0.69323599
0.007711024 0.021205306 0.69352162
0.0067571164 0.025097877 0.69386554
-0.020300724 -0.08313629 0.69420314
-0.020300724 -0.08313629 0.69420314
-0.020347662 -0.079452753 0.6947428
-0.017454982 -0.046546608 0.69493228
-0.015458676 -0.034781992 0.69407433
-0.015458676 -0.034781992 0.69407433
0.01738913 -0.028015792 0.69404912
0.018423989 -0.028120816 0.69492328
-0.014511956 -0.025154024 0.69438732
-0.013536065 -0.020304084 0.694242
0.013533764 -0.012567043 0.6942023
-0.012608086 -0.0096985102 0.69496405
-0.011634851 -0.0058174133 0.69489604
-0.0048301462 0.0057961941 0.69404095
-0.0058085336 0.0077447295 0.69453824
-0.0058191842 0.010668516 0.69496679
-0.0029033341 0.010645568 0.69446325
0.00048346823 0.010637745 0.69429111
0.0029036601 0.023229301 0.69448942
0.0087136095 0.023236305 0.69455999
0.006776229 0.029041022 0.69452465
-0.022401271 -0.075969487 0.69595766
-0.021402722 -0.074909538 0.69568795
-0.018440641 -0.058233559 0.69513482
-0.018487908 -0.052544594 0.69573539
0.015528541 -0.014557987 0.69512844
-0.011661016 -0.0019434988 0.69542247
-0.011667588 -0.00097224116 0.69555461
-0.0097054131 0.0029116571 0.69513029
-0.0068001994 0.011657506 0.69535136
-0.00097037188 0.015525967 0.6950894
-0.0029218595 0.020453036 0.69595397
0.0019410148 0.020380676 0.69512212
0.002913896 0.03011027 0.6953131
0.0077707213 0.031082928 0.69532311
0.026369726 -0.079109162 0.69660664
-0.016616134 -0.020525813 0.69679081
0.013650968 -0.001950115 0.6962235
0.013678025 0.00048868358 0.69669002
0.011692126 0.0048717558 0.69604832
-0.011720289 0.0068368912 0.69661486
0.011733895 0.0088004172 0.69688863
-0.0097558247 0.011707008 0.6963473
0.0029266449 0.03804642 0.69633913
0.0038975577 0.038975626 0.69605929
0.0068308623 0.040009379 0.69640893
0.0048781023 0.041951716 0.69635653
0.025439348 -0.079253346 0.69703633
-0.022536473 -0.065649688 0.69737685
-0.021527959 -0.065562397 0.69706219
-0.02058468 -0.06077382 0.69746768
-0.020596301 -0.059827328 0.69760126
-0.019636542 -0.049091339 0.697855
-0.01763282 -0.025469601 0.69731754
-0.017658403 -0.022563487 0.69766068
-0.016699908 -0.010805786 0.69798058
0.017669003 -0.0098161101 0.69780284
-0.014680048 -0.0039146543 0.69709271
0.011783266 0.013747156 0.69788194
-0.0088184467 0.021556228 0.69737214
-0.007851935 0.026500285 0.69777405
-0.0058875429 0.029437721 0.69771737
0.023598766 -0.077679247 0.69820613
0.024560809 -0.076629728 0.69800103
0.025568947 -0.069822848 0.69823974
-0.020663131 -0.054117709 0.69836956
-0.018705294 -0.026581198 0.69849759
-0.018705294 -0.026581198 0.69849759
0.01866658 -0.013754308 0.69800568
-0.016759001 -0.0039432943 0.69881976
-0.015778711 0.003944695 0.69890326
-0.014759321 0.0059037507 0.69836855
-0.012776287 0.013759077 0.69808769
-0.0098369168 0.025575966 0.69830513
-0.0039373054 0.036420107 0.69845831
-0.0049306527 0.038459092 0.6988939
-0.024695706 -0.073099285 0.69930375
0.024693659 -0.065191209 0.69928396
0.024756996 -0.060407043 0.69989562
0.025726197 -0.058378667 0.69969988
-0.023704696 -0.056298614 0.69927174
-0.023770386 -0.051502526 0.69993258
-0.01976921 -0.032619208 0.69945639
-0.018774444 -0.01877439 0.69937629
0.017777398 -0.0029629171 0.69925666
-0.01677599 -0.001973629 0.69906104
0.014810464 0.0098736584 0.69919169
-0.01284197 0.022720397 0.6993075
-0.0098780487 0.032597572 0.69929808
0.0098996246 0.034648716 0.69981897
-0.0088983597 0.036582172 0.69951576
-0.0089037782 0.037593752 0.69966114
-0.0039500343 0.041475385 0.69922656
-0.0049494598 0.044545174 0.69980192
-0.0019793061 0.045524031 0.69974434
-0.023783566 -0.05054006 0.70006514
0.017905766 0.0049738884 0.70097834
-0.015861871 0.01387915 0.700158
0.014897777 0.016884148 0.70059705
0.013903653 0.020855486 0.70058084
-0.01389571 0.026798874 0.70044386
-0.01389571 0.026798874 0.70044386
-0.009907661 0.037649125 0.70001304
-0.0029808569 0.049681008 0.70070171
-0.0019884543 0.050705612 0.70084858
0.023970716 -0.047941417 0.70194769
0.016939964 0.011957616 0.70138973
0.011955098 0.031880289 0.70133889
-0.012938064 0.035828471 0.70109206
-0.011966391 0.042879611 0.7015661
0.022985974 -0.051968247 0.70209503
-0.02303078 -0.030040115 0.70256531
-0.020991638 -0.023990422 0.70214611
-0.021036943 -0.019033402 0.702667
-0.021036943 -0.019033402 0.702667
-0.018001825 0.016001642 0.70226675
-0.015046633 0.041127473 0.7029928
-0.011010138 0.050046116 0.70246476
-0.010017512 0.054094613 0.70266503
0.0019995153 0.056986213 0.70218372
0.0050106822 0.056119651 0.70275807
-0.007001353 0.057011068 0.70228893
-0.0039991424 0.058987379 0.70219052
-0.004001765 0.060026497 0.70234883
0.0020051324 0.061156511 0.70286179
0.0020051324 0.061156511 0.70286179
-0.0040070047 0.062108606 0.70266503
0.022119034 -0.04323265 0.70354849
0.023091964 -0.043171912 0.70320761
-0.024146451 -0.024146438 0.70371544
-0.021130608 -0.0080497265 0.7037437
-0.019118477 0.019118488 0.70374769
-0.019118477 0.019118488 0.70374769
-0.018104086 0.027156174 0.70363826
0.015050857 0.029098332 0.70306081
-0.017104561 0.035215318 0.70372713
-0.015072196 0.044211775 0.70340425
0.0090548098 0.052316695 0.70371252
-0.0080293138 0.061223507 0.70312691
-0.0020071191 0.065231383 0.70310163
-0.0010037487 0.065243721 0.70314729
-0.0050269724 0.067361444 0.70354462
-0.0050269724 0.067361444 0.70354462
0.0020136698 0.067457974 0.70389235
-0.023240164 -0.015156597 0.70476317
-0.022201028 -0.01412791 0.70444828
0.015167778 0.038425058 0.70494258
0.012109359 0.046419203 0.70444238
0.011104724 0.050476044 0.70454067
-0.015164346 0.052569747 0.70488739
-0.013115881 0.057508111 0.70439422
-0.012097795 0.059480846 0.70420969
0.0080879452 0.061670601 0.70489621
0.007079212 0.064724237 0.70497423
-0.011117645 0.066705883 0.70482427
-0.010098057 0.067656994 0.70460957
-0.0010078895 0.071560174 0.70414698
0.0030321463 0.071760803 0.70482922
-0.0080905603 0.073826373 0.70497513
0.023304639 -0.024317861 0.70543993
-0.025358243 -0.014200568 0.70570177
-0.022298709 -0.0060814321 0.70552021
-0.021298161 0.011156172 0.70567006
-0.018236272 0.041538179 0.7054112
-0.017226353 0.045599163 0.70545679
-0.017226353 0.045599163 0.70545679
-0.016213039 0.051679075 0.70545679
0.010116596 0.056652933 0.70505714
-0.015224946 0.059884816 0.70586264
-0.010116964 0.070818752 0.70506603
0.0050664106 0.071943015 0.70544887
-0.01012958 0.072932988 0.7053706
-0.011165368 0.074097455 0.70587164
-0.0020236382 0.077910095 0.70509565
-0.0070963087 0.079073161 0.70556384
-0.0070963087 0.079073161 0.70556384
-0.0030412257 0.081099361 0.70555985
0.023440016 -0.013248652 0.7068609
-0.025444901 -0.0081423819 0.70653856
-0.022357132 -0.0010162294 0.70616132
-0.02243313 0.0061181784 0.70699525
0.016265348 0.039646775 0.70624608
-0.01932146 0.040676773 0.70632684
-0.015259863 0.064091474 0.70642471
-0.010161301 0.078242064 0.70613641
0.0050892285 0.078374147 0.7065506
0.0050969427 0.080531716 0.70692313
-0.0071194461 0.08441633 0.70636177
0 0.084397078 0.70630592
-0.0040690154 0.08646661 0.70640767
0.021428902 -0.01938802 0.70717299
0.021428902 -0.01938802 0.70717299
0.024565218 -0.01228258 0.70792794
-0.025561474 -0 0.70766437
-0.025576109 0.0010230541 0.70780563
-0.021479629 0.030685186 0.70775622
0.012241442 0.060187101 0.70709968
0.012282962 0.06448558 0.70793498
0.010223921 0.070545048 0.70764822
-0.015356969 0.07576111 0.70798761
0.00714524 0.077576905 0.70725143
0.0081900824 0.078829497 0.70797849
0.0061363089 0.082840204 0.70772696
-0.012283011 0.085981131 0.70793599
0.0040900032 0.086912602 0.70767444
0.0040900032 0.086912602 0.70767444
-0.0081633246 0.088776171 0.70717096
0 0.08871612 0.70700431
-0.0010199246 0.089753419 0.70705247
-0.0040800646 0.09078145 0.70707458
-0.010238272 0.09112066 0.70799464
-0.0040828278 0.091863632 0.70724136
0.0020474787 0.092136532 0.70797348
0.0020474787 0.092136532 0.70797348
0.020514661 -0.012308747 0.70845473
-0.025679121 0.0082173347 0.70880044
-0.021538716 0.036923528 0.70843548
0.009229213 0.077935606 0.70839083
0.0082097352 0.082097381 0.70857155
0.029846478 -0.077189147 0.70928907
0.024753079 -0.0082509816 0.70981765
0.020619405 -0.003092885 0.70971912
0.023724144 0.0030944645 0.70984334
0.023724144 0.0030944645 0.70984334
-0.02674186 0.0051426888 0.70913076
-0.023685573 0.017506748 0.70943844
-0.020560857 0.049346089 0.70901239
0.015444633 0.057659984 0.70939857
0.015444633 0.057659984 0.70939857
0.012346153 0.070990384 0.70920634
-0.017525338 0.078348637 0.70970273
0.022788968 0.014502108 0.71090019
-0.024772789 0.018579602 0.71001595
-0.025882944 0.021741688 0.7107687
-0.023805214 0.026910245 0.71069431
-0.023805214 0.026910245 0.71069431
-0.022768512 0.042432219 0.71067566
0.016575167 0.05904907 0.71092093
0.014481624 0.068270564 0.71054757
0.012400157 0.076467663 0.71029276
-0.015485166 0.09084633 0.71005088
0.030143218 -0.066522926 0.71175945
0.029097028 -0.061311573 0.7117011
0.019725813 0.0072674155 0.7114647
-0.025915012 0.023841828 0.71107835
-0.024943419 0.030140013 0.71173233
-0.02495897 0.03119871 0.71188873
0.017628489 0.053922445 0.71116757
-0.020760221 0.069546759 0.71141899
0.014548816 0.073783308 0.71170628
0.009328438 0.092247874 0.71105242
0.020831095 0.017706484 0.71227443
-0.027056092 0.027056128 0.71204853
0.017701272 0.058310062 0.71220118
0.014617184 0.079350442 0.7128852
0.029358115 -0.051376671 0.71395218
0.019890068 0.021983773 0.71355176
0.020921331 0.026151687 0.71336377
-0.027182728 0.03554669 0.71322441
-0.026141826 0.038689911 0.71326876
-0.026141826 0.038689911 0.71326876
-0.027246604 0.039822012 0.71381754
0.018818576 0.055410296 0.71322125
0.027336378 -0.036798924 0.71465111
0.022037705 0.035680056 0.71417201
0.018949075 0.062110901 0.71497154
0.017872883 0.06833753 0.71463823
0.027424894 -0.033753663 0.715473
0.027424894 -0.033753663 0.715473
0.023189351 0.02740562 0.71529388
0.018995995 0.03482601 0.71560085
0.018995995 0.03482601 0.71560085
0.020088529 0.043348968 0.71607351
0.020088529 0.043348968 0.71607351
0.017972352 0.074003786 0.71605092
0.01691973 0.081426233 0.71611995
0.027675888 -0.023418039 0.7178036
0.021260649 0.052088588 0.71745968
0.018077543 0.079753876 0.71754473
-0.024485016 0.0872944 0.71782982
0.017031386 0.088350356 0.71780467
-0.025638387 0.072642088 0.71872318
0.02143975 0.057887346 0.71962154
0.028006801 -0.010771811 0.72087628
-0.027124774 0.062929481 0.72276092
-0.027153272 0.086890489 0.72303605
0.025143215 0.024050057 0.72473872
0.025143215 0.024050057 0.72473872
0.025258441 0.029651225 0.72594821
0.012972794 -0.074966051 0.67931312
0.0095314924 -0.063543335 0.6799742
-0.00274646 -0.07484065 0.68183893
0.013642875 -0.073216513 0.6803996
0.0050252257 -0.070814572 0.68141687
0.0066721505 -0.068548098 0.68049669
0.011371469 -0.063222826 0.68043792
0.0073187575 -0.05511906 0.68168402
0.016634572 -0.079476267 0.68392873
-0.0032232963 -0.066762984 0.68313879
0.0011499424 -0.063028544 0.6829592
0.01284265 -0.059167668 0.68228447
0.0087125646 -0.049065515 0.68223202
0.017254081 -0.077083342 0.68476456
-0.010700912 -0.074901633 0.68545306
-0.0055488544 -0.065198883 0.68408954
-0.0037002075 -0.060590774 0.68414819
-0.0013970406 -0.047028854 0.68564874
0.0011627376 -0.0469799 0.68541473
0.0011641777 -0.045174871 0.68569124
0.0032584851 -0.045154877 0.68559182
0.0052706869 -0.036900423 0.68540448
-0.012627728 -0.077164412 0.686629
-0.0093321782 -0.062992036 0.68611962
-0.010786767 -0.061081134 0.68725443
0.0014107393 -0.031033931 0.6878618
0.0014107393 -0.031033931 0.6878618
0.01076172 -0.026784625 0.6867255
0.0084665604 -0.013170183 0.68793291
-0.014665756 -0.070956558 0.6892308
-0.014233391 -0.061203435 0.68990386
-0.011308542 -0.055129007 0.68833125
-0.011308542 -0.055129007 0.68833125
-0.010863841 -0.04876592 0.68887389
-0.0089634582 -0.042927809 0.68859506
-0.0089634582 -0.042927809 0.68859506
0.0145269 -0.041368704 0.68953699
-0.0085421726 -0.031321287 0.68996119
-0.0085421726 -0.031321287 0.68996119
0.0033095507 -0.019269608 0.68914956
0.0094152559 -0.014122874 0.68812525
0.005208177 -0.0052084699 0.68945205
0.014796813 -0.032933213 0.69127965
-0.010529554 -0.023930818 0.69191724
-0.0053855395 -0.021224668 0.69025779
0.0028548753 -0.010943547 0.6905635
0.0028548753 -0.010943547 0.6905635
0.010452867 -0.0071267337 0.69023412
0.0072823633 0.0015832385 0.69014043
0.007018989 0.012761623 0.69188929
-0.013411567 -0.03688167 0.6920951
-0.012553194 -0.01738134 0.69394463
0.013001893 -0.014926851 0.69331872
-0.0072068674 -0.0072063804 0.69279611
0.011583182 -0.0038610399 0.69385648
-0.020850219 -0.07903567 0.69494283
-0.019388301 -0.075129509 0.69485843
-0.01840293 -0.063199259 0.69465566
-0.01654635 -0.028712645 0.69579989
-0.014605858 -0.013145119 0.69589865
0.011674942 0.0034054518 0.69570255
-0.0053206612 0.0072553158 0.69436049
-0.0053206612 0.0072553158 0.69436049
0.010640091 0.009189561 0.69434315
-0.0048689698 0.018502116 0.69591552
0.0096922554 0.018900171 0.69481266
0.0032255831 0.024840644 0.6944741
0.026456691 -0.073000714 0.69738424
-0.019583665 -0.05532372 0.69721663
-0.018635005 -0.034817934 0.69760454
-0.018635005 -0.034817934 0.69760454
0.014704978 0.0012259483 0.69749397
-0.0092802253 0.015140966 0.69664752
-0.010798573 0.01914306 0.69782144
-0.0053666821 0.020978227 0.69638139
0.0097760335 0.026884437 0.69683522
-0.0034281232 0.028893605 0.69727814
0.0087739471 0.031196266 0.6961785
0.0019647798 0.046172351 0.69799078
-0.023297912 -0.060703836 0.69847435
-0.021237709 -0.048894912 0.69929194
-0.019655943 -0.04668273 0.69808912
-0.018817924 -0.013865829 0.6999287
-0.017294733 -0.0034585893 0.69939578
-0.015289489 0.0073978901 0.69895083
0.011797924 0.015239194 0.6981768
0.008857267 0.040842116 0.69841349
0.025406603 -0.049318239 0.70135713
-0.021271937 -0.031574797 0.70154035
-0.020972282 -0.025965691 0.70192361
0.014973926 0.022960067 0.70182258
-0.01343294 0.033332303 0.7010324
-0.0089872954 0.050928026 0.7019015
-0.0034863048 0.053289764 0.70129269
-0.0034863048 0.053289764 0.70129269
0.024593126 -0.036639288 0.70316452
0.013996048 0.028991818 0.70217413
0.012537699 0.038614117 0.70295644
0.012076991 0.044785753 0.7037912
-0.0090067107 0.054540798 0.70242226
0.0025033113 0.058572635 0.70254123
-0.0080547119 0.066451401 0.7038933
-0.0025174012 0.070487559 0.7039237
-0.0025174012 0.070487559 0.7039237
-0.024731159 -0.020692758 0.70451427
-0.024731159 -0.020692758 0.70451427
-0.02119061 -0.001009047 0.7044335
-0.017155029 0.040869489 0.70444393
0.01217502 0.053265944 0.70576334
-0.011083839 0.061464936 0.70408231
0.0086136628 0.063331798 0.70545435
0.0065708365 0.065198794 0.70485699
-0.010474656 0.073320828 0.70553821
0.006089583 0.072060078 0.70584679
0.0254368 -0.026962519 0.70646036
0.025534626 -0.025023416 0.70740509
-0.02138851 0.020879403 0.70670867
-0.016779762 0.055421203 0.70632577
-0.013202451 0.069058985 0.706002
-0.012740478 0.076949738 0.70687747
0.0030476477 0.079238862 0.70607662
-0.010733778 0.087401085 0.70760977
-0.010733778 0.087401085 0.70760977
-0.0045795767 0.087011404 0.70650935
-0.0025476122 0.089168362 0.70684493
0.024633523 -0.010776654 0.70861501
0.024729092 -0.0087576807 0.70957637
0.023098174 -0.0010265857 0.70866585
-0.025276698 0.0047820113 0.70821041
-0.023625715 0.012840211 0.70881015
-0.022681905 0.032991886 0.70972526
-0.022681905 0.032991886 0.70972526
-0.020576373 0.05092667 0.70919967
0.012687671 0.069263451 0.70916337
-0.016955813 0.075013317 0.70890224
0.0087166466 0.079470977 0.70838338
0.023862448 0.0067442507 0.71129501
0.023862448 0.0067442507 0.71129501
0.02126259 0.010891072 0.71123081
-0.02693833 0.019167826 0.71095508
-0.02693833 0.019167826 0.71095508
-0.02693833 0.019167826 0.71095508
-0.025311701 0.019112892 0.7102378
-0.023811916 0.027435631 0.71076465
-0.023811916 0.027435631 0.71076465
-0.021213926 0.057428107 0.71063483
0.014856149 0.068747833 0.71103114
0.014562305 0.074891865 0.71193886
-0.019210264 0.082547843 0.71150023
-0.016885875 0.087182954 0.71040046
0.025097504 -0.0026130527 0.71328235
0.019770198 0.01144594 0.71202868
0.022008071 0.033536136 0.71383131
-0.023950227 0.039049432 0.71221638
-0.024086118 0.04398337 0.71364278
-0.023042368 0.064937621 0.71368086
0.028495021 -0.038520798 0.71561003
0.024157964 0.013130069 0.71439695
0.017922297 0.071162373 0.71534002
-0.02312291 0.073047504 0.71456468
-0.022083096 0.086755171 0.71469378
0.018066952 0.079176083 0.71739435
-0.024425771 0.081242383 0.71720803
-0.024495753 0.088397712 0.71794254
0.018116355 0.050619408 0.7180959
-0.025578206 0.065011293 0.71811777
-0.025723182 0.083064586 0.71957612
0.01958574 0.090856552 0.72351068
0.02666056 0.03221485 0.72900546
0.016606728 -0.081418604 0.68355531
0.0056867022 -0.066077307 0.68157834
0.0022213073 -0.057816938 0.68371087
0.010301671 -0.053937908 0.68184686
0.018064849 -0.066269487 0.68735516
0.012121033 -0.037876628 0.68591905
-0.01655289 -0.078537166 0.69061506
0.017206689 -0.046140861 0.69050241
-0.0023630208 -0.025984412 0.68894345
-0.0050225044 -0.010044456 0.69177938
0.0026666259 -0.010041501 0.69049788
0.0036994573 0.0020289309 0.69132447
-0.021352833 -0.074867785 0.69572657
-0.018242996 -0.070153639 0.693793
-0.017637566 -0.057970315 0.69408691
-0.014891948 -0.041790273 0.69275689
0.015332574 -0.029945903 0.69217157
0.023588438 -0.078463696 0.69810224
-0.01952176 -0.06198103 0.69646937
-0.017938638 -0.022111325 0.69807827
-0.017037496 -0.0024695322 0.69925874
-0.014697636 -0.0023671868 0.69733226
0.013790323 0.010259375 0.69858283
0.013790323 0.010259375 0.69858283
0.00048792464 0.025875058 0.69654191
-0.010325902 0.030067598 0.6991412
-0.0064165909 0.038000382 0.69910443
0.0021571189 0.045364566 0.69788063
-0.02262531 -0.034350924 0.70178616
-0.021776915 -0.021732356 0.70298398
0.013105251 0.037358992 0.70313233
0.013105251 0.037358992 0.70313233
0.010396146 0.042381682 0.70213693
0.0092949318 0.049607761 0.7033776
-0.012487148 0.053718507 0.7036047
-0.0024917219 0.054318361 0.7014339
-0.0057997145 0.057793718 0.70221436
-0.0049779359 0.06940946 0.70386982
-0.0017613983 0.069704913 0.70382643
0.025197443 -0.032252729 0.70414889
0.025197443 -0.032252729 0.70414889
0.022459336 -0.014123289 0.70729864
-0.025773205 -0.0056128111 0.7072261
0.018135071 0.019142598 0.70405388
0.018135071 0.019142598 0.70405388
-0.020826427 0.021841329 0.70606816
-0.016836237 0.061730601 0.70714998
-0.013444214 0.069893092 0.70625609
0.0014754473 0.074277543 0.70493215
-0.028013403 0.010116264 0.71130359
0.022078045 0.013956627 0.71117258
0.016393954 0.046620578 0.70818657
-0.014415232 0.082439229 0.70840228
0.010111181 0.081926897 0.70969748
-0.0095826415 0.093605205 0.7086972
-0.0095826415 0.093605205 0.7086972
-0.024135247 0.049845062 0.71415848
0.015618226 0.070543043 0.71219242
-0.021885579 0.081724636 0.71399069
0.016901227 0.08028087 0.7158407
0.026898498 -0.01433897 0.71884966
0.02152551 0.042520307 0.71638697
-0.024506569 0.089502588 0.71805614
-0.024506569 0.089502588 0.71805614
