# .PCD v0.7 - Point Cloud Data file format
VERSION 0.7
FIELDS x y z
SIZE 4 4 4
TYPE F F F
COUNT 1 1 1
WIDTH 693
HEIGHT 1
VIEWPOINT 0 0 0 1 0 0 0
POINTS 693
DATA ascii
-0.049525768 0.039540514 0.65366888
-0.047534309 0.042341709 0.65369231
-0.055333439 0.033681244 0.65442491
-0.052494317 0.035263538 0.65430647
-0.047244739 0.041639417 0.65414107
-0.04056336 0.041768461 0.6547401
-0.039354682 0.043370485 0.65472007
-0.041676249 0.048889458 0.65431201
-0.041676249 0.048889458 0.65431201
-0.050729323 0.034624815 0.65521997
-0.049534313 0.035439387 0.65527141
-0.038658876 0.042685837 0.65526009
-0.056513101 0.030284196 0.65666139
-0.051508754 0.031635433 0.65665334
-0.051508754 0.031635433 0.65665334
-0.036519092 0.041388303 0.65674287
-0.044524383 0.035293721 0.6574533
-0.040798575 0.038350701 0.65781385
-0.04242526 0.051399857 0.65778947
-0.05334121 0.02790156 0.65893948
-0.042538956 0.035585299 0.65831733
-0.039290424 0.037653327 0.65843648
-0.035956573 0.044128537 0.65810919
-0.061784875 0.02718541 0.65970337
-0.061784875 0.02718541 0.65970337
-0.047758743 0.028407753 0.65961367
-0.04250434 0.03235808 0.6594317
-0.03535999 0.036592975 0.65934777
-0.055493619 0.025676161 0.66078126
-0.058626745 0.026423335 0.66016942
-0.058626745 0.026423335 0.66016942
-0.050436214 0.026458353 0.66043365
-0.039676704 0.033477038 0.66037929
-0.036379497 0.03555268 0.66042972
-0.035540946 0.035540968 0.66036373
-0.038491044 0.048424378 0.66066343
-0.048299897 0.024982721 0.66186619
-0.06147198 0.025751799 0.66137016
-0.044783134 0.027367473 0.66103584
-0.037462711 0.032467693 0.66180527
-0.02997366 0.03496927 0.66182876
-0.051480755 0.023438409 0.66291124
-0.049409285 0.023448467 0.66299814
-0.063610941 0.025109589 0.66288722
-0.039242111 0.028387904 0.66239291
-0.032562386 0.033397347 0.66239154
-0.028431749 0.036794007 0.66270417
-0.036747351 0.048439711 0.66244811
-0.036747351 0.048439711 0.66244811
-0.038517855 0.053590089 0.66297376
-0.038517855 0.053590089 0.66297376
-0.067410253 0.025732776 0.66340601
-0.039519876 0.02522549 0.66381967
-0.067029297 0.027649611 0.66309971
-0.030259253 0.031940341 0.66374403
-0.027691875 0.033565909 0.66340911
-0.027691875 0.033565909 0.66340911
-0.044758424 0.02195698 0.66470087
-0.043529309 0.021976054 0.66487789
-0.05817673 0.022764802 0.66437316
-0.05817673 0.022764802 0.66437316
-0.045447666 0.022723854 0.66400677
-0.068253934 0.024436593 0.66425252
-0.026211396 0.031284571 0.66494966
-0.035349492 0.048815995 0.66401428
-0.056039948 0.02122727 0.66580939
-0.02717522 0.029722899 0.66584212
-0.02750887 0.030471504 0.66516721
-0.035771631 0.022569805 0.66644084
-0.033164266 0.025510997 0.66611731
-0.033185814 0.048502356 0.66625077
-0.035014123 0.052948177 0.66699547
-0.035014123 0.052948177 0.66699547
-0.046188533 0.018817544 0.667319
-0.042791296 0.018828183 0.66743559
-0.029508369 0.027370453 0.66731495
-0.055086996 0.018936187 0.66862053
-0.032747563 0.019820929 0.66887254
-0.028412405 0.024537757 0.66868031
-0.027575858 0.025421306 0.66886473
-0.022396199 0.026703179 0.66877937
-0.019826904 0.0284473 0.66893566
-0.029183438 0.042916834 0.66804165
-0.030131197 0.046488196 0.66865844
-0.048312154 0.017254353 0.66909921
-0.06478443 0.01813966 0.66935879
-0.02247218 0.025929481 0.66948491
-0.025479155 0.037571147 0.66933918
-0.06514883 0.017373055 0.67053181
-0.033798061 0.017332345 0.67004073
-0.027762612 0.020821989 0.67027366
-0.024347 0.024347037 0.67074537
-0.02861055 0.045950323 0.67012995
-0.039208416 0.014812052 0.67117089
-0.03577131 0.01483202 0.67145401
-0.05319754 0.016569704 0.67136228
-0.05319754 0.016569704 0.67136228
-0.052236773 0.01654166 0.67100543
-0.043064058 0.013182878 0.67299604
-0.042517744 0.013587579 0.67246819
-0.046500262 0.014037818 0.6726352
-0.015751721 0.024502724 0.67208767
-0.023692388 0.040364832 0.67266715
-0.023692388 0.040364832 0.67266715
-0.041230157 0.063161075 0.67260474
-0.031684984 0.013202131 0.67330509
-0.059840776 0.014080197 0.67327446
-0.055527978 0.014542624 0.67360884
-0.022950452 0.016771495 0.67392588
-0.022950452 0.016771495 0.67392588
-0.02551073 0.044863731 0.67319453
-0.04072693 0.011509806 0.6745677
-0.05762805 0.01241222 0.67486155
-0.055842612 0.012409508 0.67481458
-0.026542066 0.013271064 0.67441499
-0.017670963 0.021205157 0.67412829
-0.015015282 0.021198064 0.67405677
-0.018618161 0.032803446 0.67486
-0.040700283 0.061050475 0.67442781
-0.033855695 0.0098003745 0.67591268
-0.025743637 0.012427986 0.67513347
-0.016463406 0.019578233 0.67566633
-0.012459219 0.019578815 0.67567247
-0.03829062 0.059662133 0.67580169
-0.051785685 0.01160714 0.67637563
-0.018724263 0.016049415 0.67607981
-0.014290653 0.018756509 0.67645025
-0.0098435907 0.018792331 0.67686212
-0.019677399 0.039354801 0.67675471
-0.020521861 0.040151477 0.67623031
-0.038536832 0.0089620948 0.67718405
-0.0223919 0.010748118 0.67705625
-0.019777946 0.010787994 0.67785811
-0.01618056 0.01438275 0.67783934
-0.017029744 0.03450799 0.67720741
-0.036735605 0.058239371 0.67713213
-0.038734283 0.0081071854 0.67829263
-0.023436848 0.0081127882 0.67844224
-0.05310211 0.0090003908 0.67810875
-0.045958366 0.0099126101 0.67837644
-0.013528814 0.016234577 0.67856389
-0.0071996902 0.019799173 0.67809075
-0.033503454 0.0063385069 0.67942762
-0.026252242 0.0063367784 0.67936754
-0.021729294 0.0072431266 0.67940074
-0.016275473 0.01085031 0.67911237
-0.01361293 0.011797905 0.67991769
-0.013574473 0.030768842 0.67929876
-0.015430674 0.036307484 0.6799559
-0.031770997 0.055372328 0.67996937
-0.031770997 0.055372328 0.67996937
-0.026344039 0.0054505169 0.68013167
-0.018180184 0.0072720647 0.68027508
-0.012722662 0.030897915 0.68021536
-0.047293048 0.070030093 0.68038923
-0.047293048 0.070030093 0.68038923
-0.02838047 0.0036620498 0.68184191
-0.018316749 0.0045792162 0.68192363
-0.045625851 0.006387651 0.68112206
-0.0036537999 0.019182444 0.68134725
-0.027575972 0.0027576089 0.6827352
-0.023888994 0.0027564466 0.68264061
-0.031172253 0.0036673546 0.68216348
-0.0073557012 0.011952996 0.6827988
-0.00091924972 0.01378876 0.68274748
-0.051469855 0.063418239 0.68271238
-0.051469855 0.063418239 0.68271238
-0.034991276 0.0036833286 0.68312722
-0.012904393 0.0046087205 0.68334925
-0.0092378454 0.0064665079 0.68384224
-0.0046181213 0.011083543 0.68380356
-0.0046181213 0.011083543 0.68380356
-0.025479749 0.0009265542 0.68450588
-0.01578436 0.00092849135 0.68497866
-0.012023851 0.0036996603 0.68411434
0.00046314069 0.011107087 0.68427801
-0.005561024 0.023170948 0.68457925
-0.011190327 0.00093254447 0.6859529
-0.012080167 0.0018585026 0.68516016
-0.0055909748 0.0055910051 0.68578434
-0.023291044 0.049377024 0.6857391
-0.0084042419 0.0018676221 0.6862613
-0.0037333793 0.0074668229 0.68615025
-0.0018710243 0.019645751 0.68667352
-0.007492166 0.031841755 0.68691701
0.0018741008 0.0074964166 0.68704486
0.0056382464 0.011276513 0.68768644
-0.0028164044 0.023470044 0.68746769
-0.022618916 -0.0028273463 0.6883496
-0.014122457 -0.0028244555 0.68811846
-0.0094177006 -0.0018835366 0.68818438
-0.0037704725 0.027335942 0.68838906
-0.032244615 -0.001896739 0.68977797
-0.004734748 -0.0018939078 0.68943477
0.0085279373 0.0085279644 0.68957937
0.00094763108 0.018952668 0.68959928
-0.058790319 0.060686767 0.68974411
-0.05686691 0.061605811 0.68963569
-0.056844298 0.064423561 0.68954468
-0.0038011789 -0.0028508306 0.69024229
0.010484705 0.0057189465 0.69093287
0 0.02279973 0.69016826
0 0.02380982 0.69074887
-0.0066854311 -0.0057303011 0.69139314
-0.032462057 -0.0047737956 0.69132185
0.00047774785 -0.0019093901 0.69130534
0.003817827 0.0028634071 0.69124717
-0.0019072109 0.027654618 0.69104165
-0.030628266 0.057428062 0.69189334
-0.057263911 0.05917272 0.6912331
-0.006728455 -0.0076896548 0.69287705
-0.0067058601 -0.0067058504 0.69209778
-0.0047969166 -0.0067156553 0.69243652
-0.029713193 -0.0047924519 0.69222093
-0.029713193 -0.0047924519 0.69222093
-0.025858724 -0.0047886074 0.69203746
0.0086336881 0.0019186139 0.69241607
0.011524665 0.0019207895 0.69267923
-0.073431499 0.038396016 0.69256121
-0.073431499 0.038396016 0.69256121
-0.073981173 0.042274982 0.69277722
-0.073981173 0.042274982 0.69277722
-0.0048116413 -0.0076986253 0.69314748
0.006758186 -0.00096541643 0.69390237
0.014478587 0.0028957129 0.69385022
0.0057930434 0.017379135 0.69391501
-0.029090509 -0.0087271333 0.69492322
0.015515359 0.0038788617 0.6949296
0.0096927788 0.010662079 0.69482529
0.0067659402 0.015465051 0.69416988
-0.069687836 0.041619122 0.69448942
-0.068587542 0.044437051 0.69403917
-0.068587542 0.044437051 0.69403917
-0.059091609 0.060060382 0.69468939
-0.0097226128 -0.010694861 0.69554549
-0.0097226128 -0.010694861 0.69554549
-0.0019470726 -0.010708869 0.69585335
-0.027173048 -0.0087341368 0.69511211
0.0058339979 -0.006806314 0.69556284
0.0097324084 0.011678904 0.69578201
0.0038853004 0.023311794 0.69531953
-0.070834674 0.039783865 0.69508123
-0.06913399 0.048685938 0.69589728
-0.0068317149 -0.011711508 0.69643831
-0.0058555044 -0.011711001 0.69642818
0.0048858952 -0.0097717941 0.69673276
-0.024359925 -0.008769542 0.69606113
0.0078050857 -0.0068294108 0.69636023
0.0068260962 0.019503146 0.69624454
-0.0097589074 0.038059771 0.69642174
-0.069204286 0.051659554 0.6961363
-0.061433665 0.056557983 0.69623995
0.0088277124 -0.0088276863 0.69762075
0.0058799093 0.022539675 0.69741017
-0.0088127181 0.037209272 0.69721848
-0.06653212 0.052834362 0.69703084
0.0029588817 -0.013808101 0.6989333
0.003935881 -0.012791574 0.69837236
0.011833054 -0.008874774 0.69888359
0.011814659 -0.0078763962 0.69851351
0.016774401 -0.0049336255 0.69903845
0.021735054 -0.0039518178 0.69933486
0.014855492 0.0089133084 0.69991648
0.01185909 0.014823854 0.69940734
-0.019888256 -0.014916182 0.7008934
-0.019888256 -0.014916182 0.7008934
-0.010942847 -0.014922053 0.70098794
0.0059498991 -0.014874727 0.70022631
0.0079478789 -0.014902234 0.70066935
0.011922055 -0.012915492 0.70067412
0.013927316 -0.011937648 0.70098889
0.016905287 0.0059666038 0.70089722
0.014909022 0.01093331 0.70077801
0.0099830953 -0.015972942 0.70183408
0.014975479 -0.012978733 0.70184761
0.016938953 -0.0089676678 0.70137525
0 -0.018020838 0.7025218
0.01801875 -0.011011422 0.70249379
0.024054261 -0.0090203583 0.70278811
0 -0.019113183 0.70368028
0.0090310937 -0.018062174 0.7030763
0.012038223 -0.017054111 0.70301121
0.013057377 -0.017075032 0.70330781
-0.022073705 -0.016053587 0.70305109
0.015069411 -0.016074002 0.70335937
0.026104171 -0.0090360343 0.70320952
0.022108728 0.0010049045 0.70343542
0.019143425 -0.014105678 0.70406467
0.022251291 -0.012137085 0.70499986
0.010145189 -0.021304876 0.70574749
0.0284169 -0.012178689 0.70583689
-0.0010182476 -0.021383196 0.70664763
-0.010187493 -0.020374984 0.70676875
0.017293667 -0.020345449 0.70641273
0.023437152 0.0040760338 0.70683086
0.019427197 -0.021472156 0.70767045
-0.0071530621 -0.0204373 0.7075212
0.032689031 -0.0091937482 0.70744061
0.0051063476 0.026553035 0.70737714
0.013356214 -0.024657577 0.70885748
0.02467039 -0.020558625 0.70898581
0.024625467 -0.01949513 0.708534
0.026680326 2.9802322e-08 0.70855933
0.028850047 -0.016485691 0.70957148
0.023720527 0.0082506239 0.70980537
0.0051788609 -0.025894284 0.71087843
-0.0031052593 -0.023806989 0.71071291
0.027870422 -0.019612491 0.71002519
0.026928848 0.00414294 0.71086705
0.026928848 0.00414294 0.71086705
0.0093388455 -0.02697885 0.71133167
0.019722048 -0.026988059 0.71141684
0.019722048 -0.026988059 0.71141684
-0.0051907231 -0.025953621 0.71145123
0.029105732 -0.022868782 0.71177614
0.033184275 -0.017629117 0.71117693
0.03529238 -0.0093421042 0.71141899
0.010425704 -0.028149396 0.71251971
0.026030416 -0.026030421 0.71219289
0.030203328 -0.02291283 0.71225977
0.037480522 -0.018740237 0.71217084
0.013528159 0.021853209 0.71205062
0.015679983 -0.029269278 0.71318644
0.026173769 -0.028267682 0.71357721
-0.0073272455 -0.027215481 0.71352857
0.040781591 -0.018822253 0.71327078
0 -0.029466152 0.71488386
0.031481247 -0.026234329 0.71416241
0.031481247 -0.026234329 0.71416241
0.014795259 -0.031704128 0.71595603
0.021092959 -0.031639457 0.71543545
0.022153491 -0.031647801 0.7155031
0.026336445 -0.030550241 0.71514809
0.041104931 -0.02213338 0.71527243
0.032664619 2.9802322e-08 0.71520591
-0.0021168364 -0.030694127 0.71634567
0.030679462 -0.030679464 0.71622354
0.042344432 -0.023289442 0.71639216
0.045536835 -0.020120889 0.71648514
0.026620831 -0.034074634 0.71789438
0.0053247777 -0.031948686 0.71792394
0.037217997 -0.028710991 0.71754146
0.039328024 -0.010629117 0.71743238
0.030962132 -0.034165084 0.71857673
0.0085392734 -0.032022268 0.71851623
0.040501587 -0.025579929 0.71813536
0.021349734 0.014944822 0.71853507
0.018235665 -0.035398632 0.71979022
0.033161558 -0.034231305 0.71907604
0.0074947923 -0.033191174 0.71930701
0.021516735 -0.036578417 0.72055084
0.024703452 -0.036518157 0.72012269
0.024703452 -0.036518157 0.72012269
0.0086172922 -0.035546303 0.72087067
0.029128257 -0.037758857 0.72127217
0.035652556 -0.036732912 0.7216478
0.043258555 -0.0097331405 0.7219094
0.0086845597 -0.037994921 0.72290075
0.01082962 -0.03682071 0.72227103
0.040059187 -0.035728425 0.72220314
0.040059187 -0.035728425 0.72220314
0.02600313 0.010834664 0.72239226
0.01849176 -0.038071275 0.72342712
0.04792124 -0.030495286 0.72375751
0.038268272 -0.040455014 0.72478598
0.014177744 -0.038170844 0.724114
0.050490286 -0.019757062 0.72580862
0.034132384 -0.042940706 0.72663659
0.034132384 -0.042940706 0.72663659
0.041798308 -0.041798294 0.72637361
0.041798308 -0.041798294 0.72637361
0.051764138 -0.034142286 0.72671384
0.052896008 -0.025346011 0.72686726
0.049514979 -0.015404612 0.72646475
0.046167884 -0.0087938607 0.72619975
0.046167884 -0.0087938607 0.72619975
0.053008553 -0.034234643 0.72743332
0.032330263 -0.045708299 0.72996628
0.027854159 -0.044566631 0.72980452
0.049036425 -0.044578552 0.7298764
0.056859963 -0.035676837 0.7299819
0.035787679 -0.046971321 0.73081809
0.045859527 -0.046978027 0.73085678
0.053692322 -0.043624997 0.73087245
0.055886026 -0.021236658 0.73066247
0.03687061 0.0022346079 0.73055881
0.042633187 -0.048242807 0.73167777
0.052775014 -0.013474435 0.73190635
0.039270576 0.0011220276 0.73169965
0.036007233 -0.048384696 0.73247451
0.051702492 -0.04720661 0.73217064
0.060773414 -0.036013812 0.73252457
0.059902087 -0.044078887 0.7336821
0.058785409 -0.021479279 0.73374504
0.042985179 -0.0011311769 0.73391402
0.026031585 -0.046404123 0.73406357
0.062370207 -0.028350055 0.73459363
0.03866813 -0.051178366 0.73538888
0.064952061 -0.042161822 0.73592281
0.054792553 -0.052509546 0.73640621
0.060684521 -0.05152455 0.73724616
0.067639604 -0.036685884 0.7375946
0.057300951 -0.014898211 0.73749435
0.051717024 -0.055164814 0.73827857
0.058592983 -0.053997457 0.73818552
0.065457717 -0.027561098 0.73806459
0.059886795 -0.017275035 0.73885846
0.063516065 -0.05427736 0.73962331
0.064605892 -0.053069144 0.73934311
0.033425946 -0.051867843 0.7390877
0.069304332 -0.033497065 0.73967993
0.047463804 -0.056724995 0.74030322
0.057821687 -0.056665272 0.74000871
0.05901631 -0.056701928 0.74018955
0.064951837 -0.055673003 0.74083447
0.064775251 -0.05436492 0.7400732
0.064775251 -0.05436492 0.7400732
0.048887488 -0.058199376 0.74183238
0.05454931 -0.058031172 0.74102026
0.070853263 -0.051107228 0.74123883
0.07331077 -0.040728211 0.741754
0.061906222 -0.059570134 0.74281114
0.072375007 -0.033852816 0.74264145
0.075068012 -0.037533969 0.7439931
0.041099835 -0.057539731 0.74431741
0.071039379 -0.026047736 0.74666131
0.077619813 -0.033436209 0.74911451
-0.040989302 0.041055497 0.65517461
-0.041315664 0.048535973 0.65450203
-0.046329945 0.048361495 0.65704966
-0.062800318 0.027559897 0.6594407
-0.048658747 0.030258536 0.65825468
-0.0470649 0.030796248 0.65842974
-0.036208734 0.045260936 0.65949273
-0.066616781 0.026646733 0.66185486
-0.054888107 0.026412383 0.66008663
-0.038664434 0.034736123 0.66049302
-0.038664434 0.034736123 0.66049302
-0.038454495 0.049235243 0.66101247
-0.040530439 0.053351656 0.66051304
-0.050841108 0.023061346 0.66328162
-0.043122731 0.024909526 0.66297227
-0.040022153 0.028349072 0.66211677
-0.050994195 0.021309538 0.66498786
-0.027562272 0.038587198 0.66556305
-0.032789323 0.025124267 0.66643453
-0.029092124 0.028750552 0.66679567
-0.032377101 0.04728806 0.66651893
-0.032377101 0.04728806 0.66651893
-0.05121981 0.018077523 0.66864455
-0.043146826 0.01803156 0.66811639
-0.029455286 0.019925684 0.66997194
-0.060790122 0.020621344 0.66825557
-0.027390346 0.023065707 0.66964215
-0.02282675 0.034886241 0.66877908
-0.044820845 0.015229441 0.67093128
-0.035144478 0.016487613 0.67031872
-0.030386541 0.049486667 0.67041969
-0.033024762 0.012768947 0.67343181
-0.062718578 0.01534988 0.67259532
-0.025038986 0.017131805 0.67292702
-0.07372801 0.028086841 0.67271996
-0.023452457 0.040749829 0.67314929
-0.033237152 0.011078335 0.67479885
-0.052870296 0.012883984 0.67534328
-0.027001711 0.012836479 0.67455345
-0.012899967 0.019572616 0.67560446
-0.020312427 0.020312458 0.67403191
-0.012399835 0.025242925 0.6746484
-0.050822638 0.012482792 0.6760782
-0.043782007 0.06343925 0.67653334
-0.043782007 0.06343925 0.67653334
-0.024873018 0.0067828968 0.67918122
-0.024873018 0.0067828968 0.67918122
-0.0088335089 0.015401594 0.6795429
-0.0072434912 0.022635907 0.6794126
-0.011326073 0.026730001 0.6795758
-0.047652058 0.065492965 0.67891204
-0.016810518 0.0081782341 0.68019867
-0.01156288 0.030430377 0.68121785
-0.044560861 0.0033797324 0.68340135
-0.015220109 0.0032279864 0.68351865
-0.025836583 0.051673204 0.68358886
-0.051729642 0.067433298 0.68383235
-0.044032253 0.067883074 0.68228602
-0.024716256 0.00046317279 0.68493575
-0.042542633 0.0027745366 0.68409699
0.0012374471 0.01515004 0.68475169
-0.0055873743 0.026074409 0.6856395
-0.01298698 0.038033307 0.68477339
-0.015996663 -0.0028229356 0.68799365
-0.037131753 -0.00094003975 0.68776917
0.0046927594 0.012671173 0.68740737
-0.0075209392 0.032904118 0.68778533
-0.055483606 0.065828025 0.68785357
-0.005217222 -0.0028458834 0.68984187
-0.035114001 -0.0015108943 0.68871063
-0.032762498 -0.0014201775 0.68925846
-0.028813098 -0.0018893331 0.68888599
0.00047405454 0.0033145696 0.68946928
-0.022910504 -0.0050922632 0.69129294
0.0033344436 0.0033336505 0.69079965
0.0047672638 0.014301836 0.69100475
0 0.02482754 0.69135529
-0.0047541279 0.031377256 0.6903705
-0.056689255 0.059546813 0.69083774
-0.0053084893 -0.0086867809 0.69384122
-0.0053084893 -0.0086867809 0.69384122
0.0053761262 0.0010548562 0.69256902
0.013009404 0.0014449954 0.69346213
0.0019197162 0.023036629 0.69255114
0.0019197162 0.023036629 0.69255114
0.00096204702 0.024971575 0.69270694
-0.074390471 0.041275114 0.69255781
-0.073042177 0.040858287 0.69346267
-0.060387883 0.064222068 0.69223237
-0.0034046778 -0.010700792 0.69567561
-0.01698157 -0.0092198104 0.6950857
-0.02661911 -0.0072603226 0.69451171
-0.068602249 0.044929773 0.69408917
-0.068533644 0.046875011 0.69495726
-0.06291642 0.052854519 0.69495636
-0.068941548 0.054700673 0.69524544
-0.022960439 -0.0092826486 0.69670135
0.0088277124 -0.0088276863 0.69762075
0.0078011309 0.017552555 0.69624084
-0.0014763889 -0.013780177 0.69845176
-0.011451807 -0.014936492 0.70122039
0.0034768481 -0.015893534 0.70063651
-0.017385496 -0.01341255 0.70066524
-0.013401865 -0.013897657 0.70047742
0.011430455 -0.013418473 0.70077479
0.019255271 -0.0073046884 0.70127362
-0.0016597504 0.033200733 0.7012856
0.0085409433 -0.018589608 0.70340055
0.016564475 -0.014556758 0.70317924
0.016564475 -0.014556758 0.70317924
0.026391074 -0.0046768785 0.70276403
-0.0025355234 -0.02028136 0.70563889
-0.0085966066 -0.018203393 0.70497054
0.028287919 -0.0050514042 0.70472473
0.028287919 -0.0050514042 0.70472473
0.012699647 -0.02133508 0.70609462
0.02917983 -0.012894343 0.70656753
0.032689031 -0.0091937482 0.70744061
0.022436555 0.0066296905 0.70703292
-0.010185876 0.041762084 0.70672971
-0.0046374463 -0.02267231 0.70962024
0.021083951 -0.02314125 0.70911551
0.029093459 -0.015060723 0.70871449
0.027213929 -0.0010268837 0.70873559
0.020568885 0.01234138 0.70910931
0.0025924325 -0.025394112 0.71104014
0.0067210477 -0.025851071 0.71046138
0.033004459 -0.019455483 0.71243995
0.029210433 0.0026089698 0.71267885
0.030388024 0.0020957291 0.71379739
0.012502457 0.022921175 0.71235096
0.035683237 -0.020990103 0.71419424
0.040966861 -0.021008611 0.7144177
0.033188131 -0.0010535121 0.71516848
0.029452655 0.0047347546 0.71476734
0.027059533 -0.032895714 0.71700573
0.034994386 -0.029162541 0.71683282
0.036485925 -0.029047083 0.71737707
0.037070006 -0.0068838745 0.71652067
0.0089226067 -0.032833993 0.71929598
0.04079023 -0.03005597 0.71996915
0.023039825 0.013931021 0.71953177
0.044625729 -0.028430482 0.72146958
0.011380397 -0.036849454 0.72247505
0.037391052 -0.037392154 0.7224769
0.045072611 -0.033125646 0.72302204
0.047402289 -0.026776185 0.72289169
0.043383833 -0.0086767673 0.72266549
0.042933952 -0.0070657134 0.72322571
0.04361755 -0.037074894 0.72407609
0.019919885 -0.042053074 0.72799236
0.019919885 -0.042053074 0.72799236
0.046722859 -0.04120484 0.72727489
0.049081624 -0.039155133 0.72709572
0.051319472 -0.036972038 0.72726095
0.053036544 -0.034805492 0.72757411
0.052871902 -0.029189706 0.72674602
0.05310959 -0.021022528 0.72794151
0.042750861 -0.044972554 0.72889692
0.035053335 0.0033384264 0.7294749
0.033250406 0.0044333935 0.72839952
0.053212389 -0.044810027 0.73127341
0.024735391 -0.044973403 0.73225963
0.062178843 -0.039003238 0.73375368
0.060911257 -0.028763324 0.73314089
0.037593208 -0.051263452 0.73584521
0.039211117 -0.05114539 0.73521185
0.031228013 -0.048830658 0.73497832
0.057756182 -0.047563881 0.73422432
0.060813185 -0.047172941 0.7352407
0.064902984 -0.040991366 0.73571503
0.064929284 -0.033034205 0.73582649
0.064929284 -0.033034205 0.73582649
0.061269533 -0.02496165 0.7347427
0.057004053 -0.051303625 0.7360608
0.063361563 -0.047378197 0.73643887
0.056026097 -0.013720661 0.73685968
0.046618979 -0.055252373 0.73871899
0.070477627 -0.045059443 0.73975211
0.0670112 -0.027728736 0.73975074
0.056617878 -0.012710124 0.7397753
0.06328325 -0.056896523 0.74114841
0.071855165 -0.044619843 0.74061722
0.071263202 -0.030957699 0.74286121
0.051238395 -0.061251089 0.74519253
0.068318017 -0.023557931 0.74519032
0.058103763 -0.064032674 0.74709618
0.075607166 -0.034259498 0.74602699
0.075607166 -0.034259498 0.74602699
0.051111184 -0.064942881 0.75116551
0.073297307 -0.024836496 0.7533077
-0.049420357 0.033205461 0.65641469
-0.043301124 0.023542479 0.66380847
-0.058034599 0.025326913 0.66133642
-0.045848057 0.028190825 0.6602602
-0.032479011 0.036607765 0.6601724
-0.041348677 0.054827999 0.66099358
-0.023227977 0.033652611 0.66693807
-0.05900488 0.015734702 0.67185926
-0.04998707 0.015570569 0.67161268
-0.030740617 0.049845476 0.67024982
-0.030740617 0.049845476 0.67024982
-0.022704765 0.014654776 0.6749649
-0.028004821 0.016627878 0.67210096
-0.037679601 0.058828529 0.67655587
-0.03383562 0.0034519609 0.68309146
-0.0064566834 0.01060504 0.68348706
-0.0055073248 0.021797184 0.68235779
-0.0036731388 0.020202309 0.68251449
-0.050376035 0.065835595 0.68117857
-0.018175328 -0.002113197 0.68729895
-0.025295734 0.049821198 0.68519491
-0.052856691 0.068758518 0.6866709
-0.022199389 -0.0033073388 0.68887156
-0.017405288 0.043633696 0.69107765
-0.057358265 0.059738301 0.69065738
0.014110513 0.0020512147 0.69399798
0.0059703491 0.017966226 0.69442606
0.0050215549 0.021545058 0.69545573
-0.00095963728 0.027829498 0.69249779
-0.069584891 0.04580418 0.69361925
-0.073144414 0.04989168 0.69470698
-0.065749124 0.055277802 0.69283158
-0.0024605561 -0.01378243 0.69844502
-0.022228744 -0.010594944 0.69758719
-0.018169893 -0.010929987 0.69794279
-0.0023594233 -0.011552426 0.69650483
0.010595568 0.014025903 0.69760031
-0.014748359 0.041295409 0.69819218
-0.069307171 0.056617111 0.69648612
-0.069307171 0.056617111 0.69648612
-0.014240786 -0.014367566 0.70138752
0.0013211472 -0.021453276 0.70624137
0.021949738 -0.011100441 0.70444727
0.0096050994 -0.025926685 0.7101602
0.026387796 -0.021945149 0.7103104
0.037612885 -0.017120291 0.71131086
0.02696288 0.0017172754 0.70956993
0.019493723 0.013337821 0.70851564
0.0023153387 -0.033474721 0.7187342
0.026023302 -0.034010082 0.71783394
0.005712497 -0.030947676 0.71733129
0.038632125 -0.023284912 0.71634257
0.035939083 -0.0052851737 0.71601099
0.026022414 -0.038050398 0.72170162
0.045967538 -0.026091008 0.72191674
0.046636395 -0.017355308 0.7226398
0.042772029 -0.0097125433 0.7214092
0.025867891 0.010832332 0.72238255
0.045840826 -0.041975059 0.7274909
0.053528123 -0.030212611 0.72726673
0.041805781 -0.045984551 0.72966379
0.05779355 -0.034060914 0.73042452
0.057827685 -0.04944478 0.73523295
0.054140918 -0.046822041 0.73265392
0.062112655 -0.030205328 0.73394507
0.042011797 -0.053879168 0.73805135
0.045930948 -0.054546636 0.73804796
0.062397361 -0.050262418 0.73722148
0.071913466 -0.038856253 0.74084425
0.069912411 -0.029593695 0.74211925
0.050481431 -0.061921924 0.74646747
0.071570337 -0.05514431 0.74407673
0.073635027 -0.030711731 0.74601048
0.045425169 -0.061762553 0.74941111
0.038639799 -0.059167176 0.75233561
