# .PCD v0.7 - Point Cloud Data file format
VERSION 0.7
FIELDS x y z
SIZE 4 4 4
TYPE F F F
COUNT 1 1 1
WIDTH 1343
HEIGHT 1
VIEWPOINT 0 0 0 1 0 0 0
POINTS 1343
DATA ascii
0.006822905 -0.007797569 0.69613439
0.0068328609 -0.008785069 0.69647783
0.006842392 -0.0097748041 0.69680655
0.0068513057 -0.010766327 0.69711399
0.0068596518 -0.0117594 0.69740182
0.0068679648 -0.012754798 0.69768858
0.0068762703 -0.01375252 0.69797498
0.0068835951 -0.01475051 0.69822764
0.0068906918 -0.01575014 0.69847238
0.0068969876 -0.016749829 0.69868946
0.006903077 -0.01775077 0.69889951
0.0069089597 -0.018752843 0.6991024
0.0069150706 -0.019757301 0.69931316
0.0069212201 -0.020763636 0.69952518
0.0069273799 -0.021771729 0.69973767
0.0069335508 -0.02278167 0.69995052
0.0069397599 -0.023793459 0.70016468
0.0069474415 -0.024812281 0.70042956
0.0069554439 -0.025834471 0.70070553
0.006963436 -0.026858926 0.7009812
0.0069714752 -0.027885884 0.70125842
0.0069795325 -0.028915197 0.70153636
0.0069881943 -0.029949397 0.7018351
0.0069979401 -0.030990869 0.70217121
0.0070077125 -0.032035232 0.70250827
0.0070175133 -0.033082575 0.70284629
0.0070273411 -0.034132779 0.7031852
0.0070371958 -0.035185933 0.70352513
0.0070486111 -0.036249995 0.70391881
0.0070602898 -0.037318647 0.70432156
0.0070720077 -0.038390845 0.70472574
0.0070837652 -0.039466679 0.70513117
0.0070955902 -0.040546209 0.70553899
0.0071090707 -0.041638821 0.70600402
0.0071231234 -0.042738706 0.70648861
0.0071372613 -0.04384315 0.70697623
0.0071514258 -0.044951797 0.70746475
0.0071667614 -0.046072006 0.70799369
0.0071842549 -0.047210813 0.708597
0.0072018341 -0.048355162 0.70920324
0.007219499 -0.049505115 0.70981252
0.0072425185 -0.050697625 0.71060646
0.00726644 -0.051903129 0.71143138
0.0073013091 -0.053195238 0.71263403
0.0074374662 -0.055249721 0.71732998
0.0074597378 -0.056480855 0.71809804
0.0074809608 -0.05771026 0.71882999
0.0075009875 -0.058936298 0.71952075
0.0075210892 -0.060168684 0.72021395
0.0075413319 -0.061407954 0.7209121
0.0075616832 -0.062653929 0.72161406
0.0075821779 -0.063906908 0.72232085
0.0076028826 -0.065167546 0.72303492
0.0076254937 -0.066450715 0.72381473
0.0076487404 -0.067745954 0.72461647
0.0076721292 -0.06904918 0.72542322
0.0076956623 -0.070360303 0.72623479
0.0077195433 -0.07168144 0.72705841
0.0077454573 -0.073028564 0.72795218
0.0077729942 -0.074398637 0.72890192
0.0078007276 -0.075778514 0.7298584
0.0078286603 -0.077168226 0.73082173
0.0078582736 -0.078582704 0.73184305
0.0078905299 -0.080032468 0.73295552
0.0081879152 -0.084218532 0.74321198
0.0081984941 -0.085498571 0.74357688
0.0069113174 0.080344081 0.66938835
0.0069021173 0.079374343 0.66911072
0.0068971934 0.078455597 0.66896212
0.0069037126 0.077666789 0.66915882
0.0069102198 0.076876193 0.66935527
0.0069167628 0.076084405 0.66955268
0.0069233188 0.075291097 0.66975057
0.0069298632 0.074496031 0.66994804
0.0069366843 0.073702276 0.67015386
0.0069436152 0.072907954 0.67036307
0.00695056 0.072112054 0.67057264
0.0069575184 0.071314603 0.67078263
0.0069645154 0.070515752 0.67099375
0.0069715022 0.069715023 0.67120457
0.0069785025 0.068912745 0.67141581
0.0069855172 0.068108797 0.67162752
0.0069925468 0.06730324 0.67183965
0.0069996137 0.066496313 0.67205298
0.0070069409 0.0656901 0.67227405
0.007014357 0.064882815 0.67249787
0.0070217894 0.064073861 0.6727221
0.0070292368 0.063263118 0.67294693
0.0070367255 0.062450945 0.67317289
0.0070442297 0.061637074 0.67339933
0.0070517496 0.060821354 0.6736263
0.0070592612 0.060003728 0.67385292
0.0070668138 0.059184611 0.67408085
0.0070743822 0.058363676 0.67430925
0.0070822178 0.057543039 0.67454576
0.0070901704 0.056721359 0.67478573
0.0070981164 0.055897683 0.67502558
0.0071060807 0.055072159 0.67526585
0.0071140868 0.054244906 0.67550749
0.0071220868 0.053415686 0.67574888
0.0071301046 0.052584589 0.67599082
0.0071381656 0.051751733 0.67623413
0.0071462453 0.050917029 0.67647791
0.0071543176 0.05008021 0.67672151
0.0071627153 0.049243689 0.67697501
0.0071711843 0.048405498 0.67723054
0.0071796998 0.04756552 0.67748749
0.0071882093 0.046723396 0.67774427
0.0071967649 0.045879394 0.67800248
0.0072053149 0.045033246 0.67826056
0.0072139106 0.044185221 0.67851996
0.0072225281 0.043335229 0.67877996
0.0072311391 0.042482942 0.67903984
0.0072397976 0.041628838 0.67930108
0.0072487649 0.040774316 0.67957175
0.0072578331 0.039918065 0.67984539
0.0072669252 0.039059758 0.68011975
0.0072760396 0.038199186 0.68039483
0.0072851763 0.037336528 0.68067056
0.0072943368 0.036471725 0.68094701
0.0073035201 0.035604686 0.68122411
0.0073127262 0.034735471 0.68150192
0.0073219561 0.033864081 0.68178046
0.0073312093 0.032990456 0.68205971
0.0073406198 0.032115221 0.68234372
0.0073405392 0.031197309 0.68234122
0.0073502441 0.03031981 0.68263412
0.0073599746 0.029439956 0.68292773
0.0073697311 0.028557718 0.68322223
0.0073795132 0.027673185 0.6835174
0.0073893219 0.026786298 0.68381345
0.0073991562 0.025897086 0.68411016
0.0074090166 0.02500543 0.68440777
0.0074190134 0.024111807 0.68470943
0.0074293409 0.023216724 0.68502104
0.0074396972 0.022319078 0.68533367
0.0074500819 0.021418989 0.68564701
0.0074604964 0.020516396 0.68596131
0.0074709393 0.01961121 0.68627644
0.0074813841 0.018703461 0.68659163
0.0074918857 0.017793208 0.6869086
0.0075024166 0.016880453 0.68722636
0.0075129778 0.015965134 0.68754506
0.0075239646 0.015047938 0.68787664
0.0075350404 0.014128208 0.68821084
0.0075461199 0.013205767 0.68854523
0.0075572608 0.012280583 0.6888814
0.0075684064 0.011352599 0.68921775
0.0075795841 0.010421962 0.68955511
0.0075908247 0.009488523 0.68989432
0.0076020695 0.0085523427 0.69023359
0.0076133762 0.0076133907 0.69057488
0.0076251235 0.0066719949 0.69092941
0.0076369657 0.0057277679 0.69128668
0.0076488149 0.0047805309 0.69164431
0.0076607307 0.0038304031 0.69200385
0.0076726535 0.0028772354 0.69236374
0.0076846438 0.0019211769 0.6927256
0.0076966421 0.00096210837 0.69308764
0.0077087074 2.9802322e-08 0.69345164
0.007720721 -0.00096508861 0.69381428
0.0077326233 -0.0019331574 0.69417346
0.0077439025 -0.0029039383 0.6945138
0.007755124 -0.0038775504 0.69485253
0.0077659274 -0.0048536956 0.69517851
0.0077760955 -0.0058320463 0.69548535
0.0077855028 -0.0068123043 0.69576931
0.0077949027 -0.0077948868 0.69605291
0.0078042643 -0.0087797642 0.69633543
0.0078126425 -0.0097658038 0.69658822
0.0078207925 -0.010753602 0.69683421
0.0078279506 -0.011741906 0.69705021
0.0078348452 -0.012731612 0.69725823
0.0078414455 -0.013722509 0.69745743
0.0078483019 -0.014715552 0.69766432
0.0078552328 -0.015710473 0.69787353
0.0078622065 -0.016707152 0.698084
0.0078691626 -0.01770556 0.69829386
0.0078761298 -0.018705785 0.69850409
0.0078843823 -0.019710958 0.69875324
0.0078934003 -0.020720154 0.69902539
0.0079024388 -0.021731704 0.69929814
0.0079114977 -0.02274552 0.69957149
0.0079205772 -0.023761719 0.69984549
0.0079298662 -0.02478078 0.70012581
0.0079408465 -0.025807738 0.70045716
0.0079518575 -0.026837468 0.70078945
0.0079628993 -0.027870148 0.7011227
0.0079739708 -0.0289056 0.70145679
0.0079850741 -0.029944032 0.70179176
0.0079973899 -0.030989856 0.70216352
0.0080105457 -0.032042176 0.70256054
0.0080237444 -0.033097893 0.70295876
0.0080369879 -0.034157217 0.70335847
0.0080502732 -0.035219938 0.70375943
0.0080647087 -0.036291182 0.70419502
0.0080805654 -0.037372619 0.70467353
0.0080964519 -0.038458139 0.70515299
0.0081124343 -0.039548099 0.70563531
0.0081284801 -0.040642381 0.70611942
0.0081481701 -0.041759372 0.70671368
0.0081679216 -0.042881608 0.70730978
0.0081878034 -0.044009417 0.7079097
0.0082112504 -0.045161843 0.70861733
0.0082381545 -0.046339601 0.7094292
0.0082690595 -0.047547042 0.71036184
0.008431497 -0.049535036 0.71526378
0.0084578628 -0.050747156 0.71605951
0.0084827775 -0.051956952 0.7168113
0.0085052717 -0.053157926 0.7174902
0.0085279215 -0.054365486 0.71817374
0.0085506923 -0.055579484 0.71886092
0.0085735489 -0.056799769 0.71955061
0.0085966019 -0.058027059 0.72024632
0.0086198896 -0.059261709 0.72094905
0.0086440891 -0.060508579 0.72167933
0.0086702267 -0.061775357 0.72246808
0.0086965216 -0.063049763 0.72326165
0.0087229405 -0.064331651 0.72405893
0.008749634 -0.06562224 0.72486442
0.0087771071 -0.066925406 0.72569352
0.0088079311 -0.068261474 0.72662377
0.0088390894 -0.069607824 0.72756398
0.0088704694 -0.07096374 0.72851098
0.0089027053 -0.072334439 0.72948378
0.0089375712 -0.073734969 0.73053604
0.0092880921 -0.077787727 0.7411139
0.0093000038 -0.079050004 0.74147332
0.0093119461 -0.080315471 0.74183375
0.0093239192 -0.081584305 0.74219507
0.009335923 -0.082856297 0.74255735
0.0093479576 -0.084131598 0.74292046
0.0077663823 0.080252618 0.66915095
0.0077560823 0.07928443 0.66887462
0.0077475687 0.078336567 0.66864628
0.0077552544 0.077552557 0.66885245
0.0077629541 0.076766998 0.66905898
0.0077706701 0.075979888 0.66926599
0.0077784285 0.075191468 0.66947412
0.0077861748 0.07440123 0.66968191
0.0077939373 0.073609442 0.66989005
0.0078017148 0.072816014 0.67009878
0.0078095081 0.072021008 0.67030782
0.0078173438 0.071224719 0.67051798
0.0078252228 0.07042703 0.67072934
0.0078334445 0.069630623 0.67094988
0.007841683 0.068832606 0.67117089
0.0078499671 0.068033069 0.6713931
0.0078582689 0.067231864 0.67161578
0.0078665596 0.066428751 0.67183816
0.0078748958 0.065624177 0.6720618
0.0078832498 0.064817876 0.67228591
0.0078916214 0.064009845 0.67251045
0.0078999847 0.063199878 0.67273486
0.0079084467 0.062388867 0.67296183
0.0079172347 0.061578542 0.67319751
0.0079260413 0.060766309 0.67343378
0.0079348963 0.059952587 0.67367125
0.007943742 0.059136778 0.67390859
0.0079526361 0.05831936 0.67414713
0.0079615219 0.057499915 0.67438555
0.007970456 0.056678802 0.67462516
0.0079793818 0.055855721 0.67486453
0.0079883561 0.055030882 0.67510533
0.0079973787 0.054204524 0.67534733
0.0080067636 0.053378433 0.6755991
0.0080161989 0.052550673 0.67585218
0.0080256276 0.051720738 0.67610514
0.0080350796 0.050888866 0.6763587
0.0080445819 0.050055176 0.67661357
0.0080541065 0.049219549 0.67686903
0.0080636246 0.048381746 0.67712438
0.0080731949 0.047542185 0.67738104
0.0080827875 0.046700567 0.67763841
0.0080924323 0.045857161 0.6778971
0.0081024496 0.045013666 0.67816579
0.0081125209 0.044168174 0.67843598
0.0081226174 0.043320626 0.67870682
0.0081327399 0.042470992 0.67897832
0.0081428867 0.041619211 0.6792506
0.0081530586 0.040765285 0.67952341
0.0081632575 0.039909273 0.67979693
0.0081734806 0.039051056 0.68007123
0.0081837289 0.038190752 0.68034613
0.0081940936 0.03732869 0.68062419
0.0082047833 0.036465704 0.68091089
0.0082155606 0.035600781 0.68119997
0.008226336 0.034733474 0.68148905
0.0082371701 0.033863932 0.68177968
0.008248033 0.032992154 0.68207109
0.0082588941 0.032117933 0.68236244
0.0082585309 0.031198919 0.68235266
0.0082694497 0.03032136 0.68264556
0.0082803983 0.029441416 0.68293917
0.0082915584 0.028559834 0.68323863
0.0083030239 0.027676791 0.68354619
0.008314522 0.026791245 0.68385458
0.0083260201 0.025903225 0.68416297
0.0083375825 0.025012791 0.68447316
0.0083491756 0.024119884 0.68478411
0.0083608022 0.023224443 0.68509603
0.0083724605 0.022326559 0.68540877
0.0083841514 0.021426171 0.68572235
0.0083958749 0.02052322 0.68603688
0.0084081022 0.019618928 0.68636483
0.0084203649 0.018711925 0.68669379
0.008432664 0.017802268 0.6870237
0.008445031 0.016890049 0.68735546
0.0084574018 0.015975088 0.68768728
0.0084698414 0.015057504 0.688021
0.0084822848 0.014137149 0.68835473
0.0084947655 0.013214111 0.68868953
0.0085073151 0.012288362 0.68902618
0.0085203527 0.011360496 0.68937594
0.0085334955 0.010429859 0.6897285
0.0085466467 0.0094963312 0.69008124
0.0085598705 0.0085599124 0.69043595
0.0085731037 0.007620573 0.69079089
0.0085864095 0.006678313 0.69114786
0.0085997237 0.0057331324 0.69150501
0.0086131124 0.0047850907 0.69186419
0.0086264778 0.0038340092 0.69222265
0.0086397175 0.0028799474 0.69257784
0.0086523006 0.0019227564 0.69291532
0.0086647533 0.00096276402 0.6932494
0.0086767739 2.9802322e-08 0.69357181
0.0086882235 -0.00096532702 0.69387901
0.0086986627 -0.0019330382 0.69415903
0.0087091271 -0.0029030144 0.69443965
0.0087195141 -0.003875345 0.69471836
0.0087289121 -0.0048493743 0.69497043
0.0087379571 -0.0058252811 0.69521302
0.0087461704 -0.0068025291 0.69543338
0.0087538557 -0.0077811778 0.69563949
0.0087611787 -0.0087611377 0.69583595
0.0087687531 -0.0097430348 0.6960392
0.008776444 -0.01072672 0.69624543
0.008784147 -0.011712193 0.69645214
0.0087918648 -0.012699306 0.69665909
0.0087995958 -0.013688236 0.69686645
0.008808339 -0.014680564 0.697101
0.0088183088 -0.015676975 0.6973685
0.0088283354 -0.01667574 0.69763744
0.0088383863 -0.017676771 0.69790697
0.0088484585 -0.018680066 0.69817728
0.0088585541 -0.019685656 0.69844806
0.0088704545 -0.020697713 0.69876724
0.0088827023 -0.021713227 0.69909579
0.0088949502 -0.022731513 0.69942439
0.0089071952 -0.023752511 0.69975281
0.0089195091 -0.024776399 0.70008314
0.0089325663 -0.025805175 0.70043337
0.0089471545 -0.026841432 0.70082468
0.0089617912 -0.027881116 0.70121729
0.0089764753 -0.028924197 0.70161128
0.0089912079 -0.029970676 0.70200646
0.0090063848 -0.031021953 0.70241356
0.0090239272 -0.032085061 0.70288408
0.0090415375 -0.033152282 0.70335644
0.0090592541 -0.034223825 0.70383173
0.0090770395 -0.035299569 0.70430881
0.0090975044 -0.036390007 0.70485783
0.0091194287 -0.037490964 0.70544583
0.0091414209 -0.038597107 0.70603585
0.0091646761 -0.039713591 0.70665962
0.0091944654 -0.040864289 0.70745873
0.0092244493 -0.042022496 0.70826304
0.0092739174 -0.043278247 0.70958996
0.0094402954 -0.04510361 0.71405298
0.0094682025 -0.046288997 0.71480161
0.0094939526 -0.047469735 0.71549237
0.0095189977 -0.048652619 0.71616423
0.009544217 -0.049842 0.71684068
0.0095695686 -0.051037669 0.71752065
0.009595057 -0.052239716 0.71820444
0.0096208444 -0.053449124 0.71889615
0.0096467715 -0.054665029 0.71959162
0.0096751666 -0.055900931 0.72035336
0.0097042723 -0.057147354 0.72113407
0.009733554 -0.058401287 0.72191954
0.0097630126 -0.059662819 0.72270972
0.009793289 -0.060936004 0.72352195
0.0098253833 -0.062227398 0.72438282
0.0098598469 -0.063541234 0.72530735
0.0098945526 -0.064864278 0.72623825
0.0099295042 -0.06619668 0.72717583
0.0099668643 -0.067553163 0.72817802
0.010006997 -0.068937063 0.72925448
0.010385245 -0.072696716 0.73940086
0.010398482 -0.073944777 0.73975599
0.010411753 -0.075195968 0.74011201
0.010425058 -0.076450408 0.74046886
0.010438398 -0.077708066 0.74082673
0.0086202445 0.080168277 0.66893202
0.0086097131 0.079209387 0.66867781
0.0085991779 0.078252524 0.66842341
0.0086061591 0.077455491 0.66859192
0.0086146938 0.076670796 0.66879797
0.0086232452 0.075884581 0.66900444
0.0086318441 0.075097054 0.66921204
0.0086406386 0.074309498 0.66942441
0.008649691 0.073522389 0.66964293
0.0086587612 0.072733641 0.66986185
0.0086678211 0.071942925 0.67008066
0.0086769303 0.071150839 0.67030048
0.0086860582 0.070357114 0.6705209
0.0086952057 0.06956169 0.6707418
0.0087043419 0.068764299 0.67096233
0.0087135276 0.067965537 0.67118406
0.0087227328 0.067165047 0.67140627
0.008732141 0.066364318 0.67163342
0.008741782 0.065563351 0.67186618
0.0087514454 0.064760685 0.67209947
0.0087611601 0.063956499 0.67233407
0.0087708663 0.063150257 0.67256832
0.0087806256 0.062342435 0.672804
0.0087904055 0.061532855 0.67304003
0.008800176 0.060721248 0.67327595
0.0088099996 0.059908032 0.67351317
0.0088198148 0.05909279 0.67375004
0.0088298377 0.058276951 0.67399204
0.0088401651 0.057461113 0.67424142
0.0088504851 0.056643128 0.67449051
0.0088608619 0.055823475 0.67474103
0.0088712294 0.055001646 0.67499137
0.0088816537 0.054178119 0.67524296
0.0088920714 0.053352475 0.67549449
0.0089025451 0.052525043 0.67574733
0.0089130122 0.051695496 0.67600006
0.0089235343 0.05086416 0.67625409
0.0089342417 0.050031751 0.6765126
0.0089452313 0.049198776 0.6767779
0.0089562796 0.048363954 0.67704463
0.0089673223 0.047526807 0.67731124
0.0089784255 0.046687841 0.67757928
0.0089895558 0.04584673 0.67784798
0.009000713 0.045003593 0.67811733
0.0090118991 0.044158369 0.6783874
0.0090231122 0.04331094 0.67865813
0.0090343542 0.042461485 0.67892957
0.0090458198 0.041610777 0.67920631
0.0090575768 0.040759087 0.67949015
0.0090693645 0.03990519 0.67977476
0.009081183 0.039049089 0.68006009
0.0090930657 0.038190901 0.68034697
0.0091049792 0.037330449 0.68063456
0.0091168908 0.036467612 0.68092209
0.0091288667 0.035602599 0.68121123
0.0091408743 0.034735352 0.68150115
0.0091528799 0.03386566 0.68179095
0.009165287 0.032995045 0.68209052
0.0091778617 0.032122552 0.68239409
0.0091778617 0.03120473 0.68239409
0.0091905054 0.030328691 0.68269932
0.0092031835 0.029450178 0.68300545
0.0092158969 0.028569311 0.68331236
0.0092286449 0.02768597 0.6836201
0.0092414292 0.026800185 0.68392873
0.0092542134 0.025911808 0.68423742
0.0092670685 0.025021136 0.68454772
0.0092805093 0.024129331 0.68487221
0.0092939548 0.023234904 0.68519688
0.0093074748 0.022337973 0.68552321
0.0093209986 0.021438301 0.68584973
0.0093345977 0.020536155 0.68617797
0.0093482006 0.019631267 0.68650639
0.0093618436 0.018723726 0.68683577
0.009375561 0.017813593 0.68716699
0.0093892831 0.016900718 0.68749827
0.0094035771 0.015986085 0.68784332
0.0094179846 0.015068769 0.68819118
0.0094324006 0.014148653 0.68853921
0.0094468966 0.013225675 0.68888921
0.009461402 0.012299836 0.68923932
0.0094759883 0.011371166 0.68959153
0.0094905822 0.010439664 0.68994379
0.0095052579 0.0095052421 0.69029814
0.0095199067 0.0085679293 0.69065177
0.0095344558 0.0076275766 0.69100302
0.0095483558 0.0066838861 0.69133866
0.0095620053 0.0057372153 0.69166815
0.0095752161 0.0047876239 0.6919871
0.0095879501 0.0038352013 0.69229454
0.0095993914 0.002879858 0.69257075
0.0096108606 0.00192222 0.69284755
0.0096222823 0.00096225739 0.69312334
0.0096327299 2.9802322e-08 0.69337559
0.0096426429 -0.00096425414 0.69361496
0.0096519068 -0.0019304156 0.6938386
0.009660366 -0.002898097 0.6940428
0.009668394 -0.0038672984 0.69423652
0.0096766204 -0.0048383176 0.69443524
0.0096850498 -0.0058110058 0.69463873
0.0096934922 -0.0067854226 0.69484252
0.0097019887 -0.0077615678 0.69504762
0.0097104609 -0.008739382 0.69525218
0.0097195152 -0.009719491 0.69547069
0.0097304778 -0.010703504 0.69573545
0.0097414274 -0.011689723 0.69599974
0.0097524403 -0.012678176 0.6962657
0.0097634774 -0.013668865 0.69653213
0.0097745396 -0.014661759 0.69679916
0.0097870436 -0.015659273 0.69710106
0.009800463 -0.01666078 0.69742495
0.0098138796 -0.017664969 0.69774896
0.0098273335 -0.01867193 0.69807374
0.0098407855 -0.019681543 0.69839847
0.0098544303 -0.020694315 0.69872791
0.00987041 -0.021714866 0.69911367
0.0098864408 -0.022738785 0.69950068
0.0099025248 -0.023766041 0.699889
0.0099186599 -0.024796635 0.70027858
0.0099348482 -0.025830567 0.70066941
0.0099535445 -0.026874542 0.70112073
0.0099728676 -0.027924001 0.70158726
0.009992226 -0.028977424 0.70205456
0.0100117 -0.030035079 0.70252472
0.010032617 -0.031101078 0.70302969
0.010056612 -0.032181144 0.70360899
0.010080723 -0.033266395 0.70419109
0.01010495 -0.034356803 0.70477599
0.010135735 -0.035475075 0.7055192
0.010168528 -0.036606669 0.70631093
0.010212487 -0.037786186 0.70737213
0.010406709 -0.039545447 0.71206105
0.010437927 -0.040707886 0.71281475
0.010467318 -0.041869223 0.71352428
0.010494761 -0.043028504 0.71418691
0.010522349 -0.044193834 0.71485293
0.010550037 -0.045365155 0.71552134
0.010577916 -0.046542823 0.71619439
0.010606123 -0.047727555 0.71687537
0.010634482 -0.048918575 0.71755999
0.010664037 -0.05012092 0.71827352
0.01069586 -0.051340103 0.71904182
0.010727874 -0.052566558 0.71981466
0.010760079 -0.053800374 0.72059214
0.010792945 -0.055043995 0.72138566
0.010826386 -0.056297213 0.722193
0.010863525 -0.057576627 0.72308958
0.010901442 -0.058867782 0.72400498
0.010939624 -0.060167909 0.72492677
0.010979425 -0.061484724 0.72588766
0.011021459 -0.062822312 0.72690243
0.011454523 -0.066436231 0.73735762
0.011469016 -0.067667216 0.73770744
0.011483599 -0.068901569 0.73805952
0.011498165 -0.070138782 0.73841119
0.011512769 -0.071379185 0.73876375
0.011527411 -0.072622657 0.73911726
0.0094741732 0.080099851 0.66875434
0.0094625754 0.079141557 0.66849977
0.0094513642 0.078188568 0.66825372
0.0094558457 0.077366024 0.66835213
0.0094657 0.076586127 0.66856837
0.0094755758 0.075804651 0.6687851
0.0094854394 0.075021237 0.66900158
0.0094953561 0.074236423 0.66921926
0.0095052933 0.073449999 0.66943735
0.009515252 0.072661936 0.66965592
0.0095251976 0.071871966 0.66987419
0.0095351981 0.071080565 0.67009372
0.0095455833 0.070290238 0.67032164
0.0095560569 0.069498628 0.67055148
0.0095665883 0.068705529 0.67078263
0.0095771085 0.067910433 0.67101353
0.0095876856 0.067113847 0.67124563
0.0095982524 0.066315204 0.67147756
0.009608876 0.065515071 0.67171073
0.0096195238 0.06471318 0.67194438
0.0096301604 0.063909262 0.67217785
0.0096408557 0.063103825 0.67241251
0.0096518788 0.062298506 0.67265451
0.0096630631 0.061492264 0.67289996
0.009674307 0.060684323 0.67314672
0.0096855424 0.059874296 0.67339337
0.0096968049 0.059062392 0.67364055
0.009708127 0.058248758 0.67388898
0.0097194416 0.057433099 0.67413735
0.0097308178 0.05661568 0.67438704
0.0097422199 0.055796355 0.67463726
0.0097536147 0.054974943 0.6748873
0.0097653819 0.054153502 0.67514563
0.0097773178 0.053330868 0.67540753
0.009789316 0.052506357 0.67567092
0.0098013096 0.051679671 0.67593414
0.0098133683 0.050851107 0.67619878
0.009825456 0.050020516 0.67646408
0.0098375734 0.049187899 0.67673004
0.0098497206 0.048353195 0.67699665
0.0098618986 0.047516465 0.67726392
0.0098741064 0.046677649 0.67753184
0.0098866634 0.045838177 0.67780745
0.0098993955 0.044997245 0.67808688
0.0099121965 0.044154346 0.67836779
0.0099250302 0.043309242 0.67864949
0.0099379327 0.042462081 0.67893261
0.0099508697 0.041612744 0.67921662
0.009963803 0.040761024 0.67950046
0.0099768071 0.039907217 0.67978591
0.0099898456 0.039051205 0.68007201
0.010002881 0.038192838 0.68035805
0.010016425 0.037333935 0.68065536
0.010030078 0.036473036 0.68095505
0.010043769 0.035609722 0.68125546
0.010057534 0.034744233 0.6815576
0.010071337 0.03387633 0.68186057
0.01008514 0.033005923 0.68216348
0.01009902 0.032133222 0.68246806
0.010100243 0.031218946 0.68249494
0.010112899 0.030338705 0.68277276
0.010126892 0.029460073 0.68307978
0.010141446 0.028580427 0.6833992
0.01015608 0.027698427 0.68372041
0.010170719 0.026813716 0.68404174
0.010185399 0.025926501 0.6843639
0.010200161 0.025036782 0.68468785
0.010214927 0.024144381 0.68501192
0.010229773 0.023249507 0.68533778
0.010244626 0.022351891 0.68566376
0.01025952 0.021451771 0.68599069
0.010275034 0.020550072 0.68633115
0.010290672 0.01964584 0.68667436
0.010306319 0.018738806 0.68701774
0.010322053 0.017829001 0.68736309
0.010337795 0.016916394 0.68770856
0.010353625 0.016001076 0.68805599
0.010369464 0.015082866 0.68840361
0.010385391 0.014161915 0.68875319
0.010401327 0.013238072 0.68910295
0.010417076 0.012311131 0.6894486
0.010432319 0.011380732 0.68978316
0.010447091 0.010447145 0.69010735
0.010461547 0.0095105171 0.69042468
0.010475325 0.0085707605 0.690727
0.010487941 0.0076276362 0.69100386
0.010500426 0.0066820681 0.69127792
0.010512821 0.0057342649 0.69155002
0.010524319 0.004783839 0.69180226
0.010535077 0.0038309693 0.69203842
0.010545411 0.0028760433 0.69226527
0.010554593 0.0019190311 0.69246674
0.010563344 0.00096032023 0.69265878
0.010572231 -0 0.69285387
0.010581377 -0.00096189976 0.69305462
0.010590539 -0.001925528 0.69325566
0.010599717 -0.0028907955 0.69345713
0.010608912 -0.0038577318 0.69365895
0.010618203 -0.0048264265 0.6938628
0.010630097 -0.0057981908 0.69412386
0.010642019 -0.0067721903 0.69438553
0.010653967 -0.0077483356 0.69464773
0.010665941 -0.0087266564 0.69491053
0.010677901 -0.0097071826 0.69517303
0.010690886 -0.010690838 0.69545799
0.010705441 -0.011678636 0.69577748
0.010719995 -0.012669057 0.6960969
0.010734589 -0.013662189 0.69641715
0.010749181 -0.014657944 0.69673741
0.010763854 -0.015656531 0.69705945
0.010780593 -0.016660869 0.69742686
0.010797978 -0.01766938 0.69780838
0.01081542 -0.018681169 0.69819123
0.010832918 -0.019696206 0.69857526
0.010850472 -0.020714521 0.69896054
0.010869758 -0.021739513 0.69938385
0.010890665 -0.022771358 0.69984263
0.010911694 -0.023807317 0.70030421
0.010932761 -0.02484718 0.70076656
0.010953954 -0.025891125 0.70123166
0.010979827 -0.026950449 0.70179951
0.011005954 -0.028015137 0.70237291
0.011032206 -0.029084921 0.70294911
0.011062318 -0.030169934 0.70360994
0.011097784 -0.031275541 0.70438832
0.011134468 -0.032391191 0.70519352
0.011199356 -0.033598036 0.70661759
0.011392597 -0.03521347 0.7108587
0.011425755 -0.036354691 0.71158648
0.011455528 -0.037490815 0.71223992
0.011485361 -0.038632572 0.71289468
0.011515399 -0.039780468 0.71355397
0.011545593 -0.040934384 0.71421665
0.011576093 -0.042094886 0.71488601
0.011606802 -0.043261737 0.71556008
0.011637677 -0.044434756 0.7162376
0.011671634 -0.045625478 0.71698296
0.01170624 -0.046824962 0.71774232
0.011741101 -0.048031777 0.71850753
0.011776472 -0.049247026 0.71928376
0.011812666 -0.050472289 0.72007811
0.011850511 -0.051711321 0.72090882
0.011891529 -0.052971333 0.72180897
0.01193283 -0.054240137 0.72271544
0.011974993 -0.055520386 0.7236408
0.012019292 -0.056818455 0.72461307
0.012066618 -0.058139145 0.72565174
0.012523998 -0.061481446 0.73569006
0.012539749 -0.062698722 0.7360357
0.012555539 -0.063919067 0.73638225
0.012571369 -0.065142542 0.73672974
0.012587296 -0.066369385 0.73707932
0.012603207 -0.067598999 0.73742849
0.010327959 0.080041707 0.66860342
0.010316248 0.079091251 0.6683678
0.010304563 0.078142941 0.66813266
0.010305376 0.077290356 0.66814905
0.010316106 0.076511115 0.66836494
0.010326858 0.075730324 0.66858125
0.010337668 0.074948132 0.66879874
0.010348964 0.074167579 0.66902602
0.01036025 0.073385149 0.66925305
0.010371597 0.072601169 0.66948128
0.010382967 0.07181555 0.6697101
0.010394326 0.071027935 0.66993862
0.010405747 0.070238799 0.6701684
0.010417158 0.069447726 0.67039788
0.010428629 0.068655133 0.67062873
0.010440089 0.067860574 0.67085928
0.01045161 0.067064524 0.67109108
0.010463632 0.066269666 0.6713329
0.010475717 0.065473258 0.67157608
0.010487794 0.064674735 0.67181909
0.010499935 0.063874602 0.67206329
0.010512068 0.063072443 0.67230737
0.010524228 0.062268376 0.67255205
0.010536455 0.061462641 0.67279792
0.010548709 0.060655087 0.67304456
0.010560954 0.059845388 0.67329091
0.010573266 0.059034109 0.67353857
0.010586054 0.058223277 0.67379588
0.01059891 0.057410777 0.6740545
0.010611835 0.056596488 0.67431462
0.010624754 0.055779994 0.67457443
0.010637743 0.054961711 0.67483574
0.010650763 0.054141372 0.6750977
0.010663815 0.053319097 0.67536026
0.0106769 0.052494764 0.67562354
0.010690016 0.051668435 0.67588747
0.010703164 0.05084005 0.67615193
0.010716804 0.050011784 0.67642635
0.010730517 0.049181551 0.67670226
0.010744266 0.048349231 0.67697883
0.010758088 0.047514915 0.67725694
0.010771984 0.046678632 0.67753649
0.010785917 0.045840144 0.67781675
0.010799846 0.044999421 0.67809701
0.010813851 0.044156581 0.67837882
0.010827892 0.043311596 0.67866123
0.010841968 0.042464375 0.67894447
0.010856593 0.041616976 0.67923868
0.010871257 0.040767223 0.67953372
0.01088604 0.039915532 0.67983109
0.010900823 0.039061308 0.68012851
0.010915685 0.038204938 0.68042749
0.010930589 0.037346184 0.68072742
0.010945494 0.036485016 0.68102723
0.010960479 0.035621613 0.68132871
0.010975465 0.034755677 0.68163025
0.010990774 0.033888251 0.68193817
0.011006489 0.033019513 0.68225437
0.011022249 0.032148242 0.68257147
0.011031646 0.031256318 0.68276048
0.0110385 0.030355901 0.6828984
0.011054352 0.029478282 0.68321729
0.011070291 0.028598279 0.68353796
0.011086234 0.027715623 0.68385869
0.011102223 0.026830405 0.68418038
0.011118299 0.025942683 0.68450379
0.011134959 0.02505371 0.68483901
0.011151793 0.024162263 0.68517762
0.011168637 0.023268014 0.68551654
0.011185573 0.022371143 0.6858573
0.01120252 0.0214715 0.68619817
0.011219559 0.020569235 0.68654096
0.011236608 0.019664079 0.68688399
0.011253752 0.01875627 0.68722892
0.011270906 0.017845631 0.68757397
0.011287899 0.016931862 0.68791586
0.011304433 0.016014636 0.68824852
0.011320332 0.015093803 0.68856835
0.011335935 0.014169961 0.68888223
0.011350806 0.013242632 0.68918151
0.011364556 0.012311608 0.68945813
0.011377994 0.01137802 0.68972844
0.011391378 0.010442138 0.68999773
0.011403883 0.0095032454 0.69024932
0.01141546 0.0085616112 0.69048226
0.011426932 0.0076179802 0.69071305
0.011436856 0.0066715479 0.69091272
0.011446277 0.0057231486 0.69110221
0.011455754 0.0047732592 0.69129288
0.011465598 0.0038218796 0.69149089
0.011475459 0.002868861 0.69168931
0.011485336 0.0019142628 0.69188803
0.011495275 0.00095796585 0.69208795
0.011505187 2.9802322e-08 0.69228745
0.011517459 -0.00095978379 0.69253427
0.011530286 -0.0019216835 0.6927923
0.011543144 -0.0028857589 0.69305098
0.011556028 -0.00385198 0.69331026
0.011568942 -0.0048204064 0.69357008
0.011582287 -0.0057911575 0.69383854
0.011597903 -0.0067654252 0.69415271
0.011613562 -0.0077423453 0.69446772
0.011629262 -0.0087219179 0.69478363
0.011645005 -0.0097041428 0.69510031
0.011660746 -0.010688961 0.69541699
0.011677936 -0.011677891 0.69576281
0.011696682 -0.012671381 0.69613999
0.011715442 -0.013667971 0.69651735
0.011734261 -0.014667809 0.69689596
0.011753143 -0.015670866 0.69727588
0.011772776 -0.016678065 0.69767082
0.011795256 -0.017692834 0.69812316
0.011817869 -0.018711627 0.69857812
0.011840568 -0.019734263 0.69903469
0.011863308 -0.020760745 0.69949222
0.01188943 -0.02179724 0.70001775
0.011917511 -0.022841871 0.70058268
0.01194568 -0.02389133 0.70114934
0.011974554 -0.024946958 0.70173031
0.012012645 -0.026027381 0.70249665
0.012051029 -0.027114779 0.70326889
0.012109896 -0.028256416 0.70445323
0.012332561 -0.029803693 0.70893288
0.01236828 -0.030920684 0.70965147
0.012401591 -0.032037377 0.71032166
0.012433693 -0.033156484 0.71096748
0.012465961 -0.034281343 0.71161664
0.012498345 -0.035411954 0.71226823
0.012531106 -0.036549062 0.71292728
0.012564094 -0.037692249 0.71359092
0.012597254 -0.038841516 0.71425813
0.012631919 -0.040001065 0.71495551
0.012669127 -0.04117465 0.71570408
0.012706555 -0.04235515 0.71645707
0.012744205 -0.043542683 0.71721447
0.012783059 -0.044740677 0.71799612
0.012822149 -0.045946032 0.71878266
0.012865173 -0.047172278 0.71964824
0.012909486 -0.048410565 0.72053969
0.012954105 -0.049657375 0.72143734
0.01300134 -0.050921887 0.72238767
0.013049943 -0.052199751 0.72336549
0.013563719 -0.055385172 0.73370183
0.013580652 -0.056586027 0.73404253
0.013597629 -0.057789922 0.73438406
0.01361465 -0.058996826 0.73472655
0.013631711 -0.060206711 0.73506975
0.013648815 -0.061419636 0.73541391
0.011169334 0.079044551 0.66824526
0.01115734 0.078101367 0.66802245
0.011154585 0.077224076 0.66797131
0.011166687 0.076448888 0.66819602
0.011178854 0.075672269 0.66842198
0.01119101 0.074893683 0.66864771
0.011203229 0.074113697 0.66887462
0.011215476 0.073331952 0.66910213
0.011227711 0.07254833 0.66932929
0.011240012 0.071763158 0.66955781
0.011252456 0.070977032 0.66978884
0.011265357 0.07019186 0.67002845
0.011278249 0.069404662 0.67026788
0.01129121 0.068615824 0.6705085
0.01130416 0.06782499 0.67074907
0.01131714 0.067032307 0.67099011
0.01133019 0.066238075 0.6712324
0.011343231 0.065441757 0.67147458
0.011356341 0.06464383 0.67171812
0.011369482 0.063843995 0.67196208
0.011382692 0.063042611 0.67220747
0.011396453 0.06224218 0.672463
0.011410207 0.061439574 0.67271841
0.011424034 0.060635269 0.67297524
0.011437856 0.059828758 0.67323184
0.011451749 0.059020609 0.67348993
0.011465678 0.058210403 0.67374855
0.01147964 0.05739823 0.67400789
0.011493636 0.05658409 0.67426777
0.011507667 0.055767953 0.67452836
0.011521772 0.054949999 0.67479026
0.011536403 0.054132372 0.67506206
0.011551113 0.053312838 0.67533517
0.011565818 0.052491039 0.67560828
0.011580561 0.051667124 0.67588204
0.011595424 0.05084154 0.67615807
0.011610327 0.050013721 0.67643481
0.011625226 0.049183667 0.6767115
0.011640204 0.048351675 0.67698967
0.011655181 0.0475173 0.67726779
0.011670361 0.046681434 0.67754972
0.011686003 0.045845091 0.67784017
0.011701685 0.045006543 0.67813146
0.011717454 0.04416579 0.67842424
0.011733305 0.04332301 0.67871857
0.011749159 0.042477727 0.67901301
0.011765096 0.041630358 0.67930901
0.011781078 0.040780663 0.67960578
0.01179706 0.039928526 0.67990261
0.011813127 0.039074212 0.68020099
0.011829541 0.038218528 0.68050587
0.011846302 0.037361413 0.68081713
0.011863154 0.036502033 0.68113005
0.011880055 0.03564018 0.68144393
0.011897003 0.034775883 0.68175864
0.011914 0.033909142 0.68207431
0.011931046 0.033039838 0.68239081
0.011948139 0.03216809 0.68270826
0.01196273 0.031287163 0.68297923
0.011965767 0.030374616 0.68303567
0.011983579 0.029498041 0.68336642
0.012001577 0.02861917 0.68370068
0.012019585 0.027737528 0.68403506
0.012037692 0.026853353 0.68437135
0.012055807 0.025966346 0.68470776
0.012074023 0.025076836 0.68504608
0.012092249 0.024184525 0.68538451
0.012110575 0.023289591 0.68572485
0.012128912 0.022391886 0.68606544
0.012147077 0.021490991 0.6864028
0.012164933 0.020586848 0.68673432
0.012181928 0.019678503 0.68704998
0.012198652 0.018767148 0.68736053
0.01221455 0.017852038 0.68765575
0.012229476 0.016933143 0.68793297
0.012243841 0.016011178 0.6881997
0.012258193 0.015087068 0.68846625
0.012271745 0.014159739 0.68871796
0.012284121 0.013229072 0.6889478
0.012296521 0.012296498 0.68917805
0.012307364 0.011360645 0.68937939
0.012317431 0.010422438 0.68956637
0.012327515 0.0094827116 0.68975365
0.012337992 0.0085417032 0.6899482
0.012348532 0.0075990856 0.69014394
0.012359137 0.0066549182 0.69034088
0.012369713 0.0057091117 0.69053727
0.012380308 0.0047616661 0.69073397
0.012392856 0.0038132071 0.69096708
0.012406518 0.0028630793 0.69122076
0.012420258 0.0019108057 0.69147593
0.012434028 0.00095650554 0.69173169
0.012447829 2.9802322e-08 0.69198793
0.01246166 -0.0009585619 0.69224483
0.012478108 -0.0019196868 0.6925503
0.012494838 -0.0028834045 0.69286096
0.012511614 -0.0038497448 0.69317251
0.012528435 -0.0048186481 0.6934849
0.012545252 -0.0057900846 0.69379717
0.012562795 -0.0067645907 0.69412303
0.012582818 -0.0077432394 0.69449484
0.012602858 -0.0087250173 0.69486696
0.012622963 -0.0097099543 0.69524038
0.01264313 -0.01069802 0.69561487
0.012663363 -0.011689246 0.69599062
0.012686975 -0.012686968 0.69642913
0.012711073 -0.013688803 0.69687665
0.012735313 -0.014694571 0.69732678
0.012759645 -0.015704125 0.6977787
0.012785628 -0.016719669 0.6982612
0.012815606 -0.01774469 0.69881791
0.012845723 -0.01877448 0.69937718
0.012875931 -0.019809097 0.69993818
0.012913406 -0.020860076 0.70063412
0.012954349 -0.021922737 0.7013945
0.013004488 -0.023007929 0.70232564
0.013255454 -0.024471581 0.70698625
0.01329626 -0.025569737 0.70774406
0.013333381 -0.02666676 0.70843339
0.013367632 -0.027763546 0.70906955
0.013402006 -0.028865814 0.70970786
0.013436611 -0.029973984 0.71035051
0.013471508 -0.031088114 0.71099859
0.013506697 -0.032208234 0.71165204
0.013542072 -0.033334315 0.712309
0.013577633 -0.034466326 0.71296942
0.013616857 -0.035613298 0.71369779
0.013656767 -0.036768198 0.71443897
0.013696854 -0.037929744 0.71518344
0.013738048 -0.039100558 0.71594846
0.013779723 -0.04027915 0.71672237
0.013822887 -0.04146862 0.71752399
0.013870106 -0.042677253 0.7184009
0.013917649 -0.043894112 0.71928382
0.013966898 -0.045123786 0.72019839
0.014017886 -0.046366811 0.72114527
0.014071743 -0.047627449 0.7221455
0.014606588 -0.050561249 0.73207796
0.014624716 -0.051748991 0.73241466
0.014642889 -0.052939653 0.73275208
0.014661106 -0.054133326 0.73309052
0.014679371 -0.055329919 0.73342961
0.01469768 -0.056529552 0.73376966
0.012024384 0.079017401 0.66817391
0.012011682 0.078075975 0.66795492
0.012003942 0.077168226 0.66782153
0.012016999 0.076393783 0.66804665
0.012030042 0.075617433 0.66827154
0.012043485 0.074841678 0.6685034
0.012057167 0.074065477 0.66873932
0.012070921 0.073287755 0.66897649
0.012084665 0.072508007 0.66921353
0.01209844 0.071726501 0.669451
0.012112289 0.070943475 0.66968983
0.012126126 0.070158333 0.66992849
0.012140039 0.06937167 0.6701684
0.012153941 0.068582982 0.67040813
0.012167917 0.067792714 0.67064911
0.012182136 0.06700176 0.67089438
0.012196772 0.066211075 0.67114675
0.012211401 0.065418214 0.671399
0.012226106 0.064623743 0.67165256
0.012240806 0.063827097 0.67190605
0.012255582 0.063028723 0.6721608
0.012270352 0.062228233 0.67241555
0.0122852 0.061426044 0.67267162
0.012300084 0.060621858 0.67292827
0.012315005 0.059815764 0.67318559
0.012330178 0.059008747 0.67344719
0.012345738 0.058201373 0.67371559
0.012361336 0.057391912 0.67398453
0.012377019 0.056580663 0.67425495
0.012392697 0.055767179 0.67452532
0.012408458 0.054951757 0.67479712
0.012424259 0.054134309 0.67506957
0.012440146 0.053314954 0.67534357
0.012456073 0.052493483 0.67561817
0.012471996 0.051669717 0.67589271
0.012488272 0.050845146 0.67617345
0.012504903 0.050019622 0.67646021
0.012521578 0.049191922 0.6767478
0.012538298 0.048362017 0.67703605
0.012555107 0.047530085 0.67732596
0.012572006 0.046696037 0.67761737
0.012588905 0.045859575 0.67790884
0.012605897 0.045021087 0.67820179
0.012622888 0.044180155 0.67849481
0.012639971 0.043337107 0.67878938
0.012657557 0.042493254 0.67909265
0.01267533 0.041647553 0.67939919
0.012693199 0.040799558 0.67970729
0.012711165 0.039949387 0.68001711
0.012729181 0.039096802 0.68032777
0.01274725 0.038241774 0.68063939
0.012765368 0.037384331 0.68095183
0.012783539 0.036524415 0.68126512
0.012801762 0.035662055 0.68157941
0.01282027 0.034797877 0.68189853
0.012839303 0.033932447 0.68222672
0.012858441 0.033064604 0.68255675
0.012877635 0.032194078 0.68288773
0.01289627 0.031319529 0.68320912
0.012897884 0.030402154 0.68323696
0.012917244 0.029525161 0.6835708
0.012936614 0.028645366 0.68390483
0.01295609 0.027763098 0.6842407
0.012975578 0.026877999 0.68457675
0.01299493 0.02598986 0.68491042
0.013014052 0.025098562 0.68524015
0.013032114 0.024202496 0.68555164
0.013049982 0.023303539 0.6858598
0.013066827 0.02240032 0.68615025
0.013082983 0.021493495 0.68642884
0.0130982 0.020582885 0.68669128
0.01311345 0.019670159 0.68695426
0.013128098 0.018754423 0.68720686
0.013141249 0.017834544 0.6874336
0.013154427 0.016912848 0.68766087
0.013166344 0.015987754 0.68786633
0.013177043 0.015059501 0.68805087
0.01318776 0.014129728 0.68823564
0.013198842 0.013198853 0.68842679
0.013210043 0.012266457 0.68861997
0.013221263 0.011332512 0.68881339
0.013232501 0.010396987 0.68900722
0.013243759 0.0094598532 0.68920135
0.01325644 0.0085220039 0.68942004
0.013271008 0.0075834394 0.68967122
0.013285605 0.0066428483 0.68992299
0.013300237 0.0057001114 0.69017529
0.013314848 0.004755348 0.69042724
0.013329544 0.0038084686 0.69068068
0.013346305 0.0028599501 0.69096971
0.013364078 0.0019091666 0.69127613
0.013381897 0.00095590949 0.69158345
0.013399764 2.9802322e-08 0.69189161
0.01341768 -0.00095838308 0.69220054
0.013435592 -0.0019193292 0.69250941
0.0134566 -0.0028835237 0.69287169
0.013477882 -0.0038508177 0.69323868
0.013499233 -0.0048211217 0.69360685
0.013520703 -0.0057945549 0.69397706
0.013542188 -0.0067711174 0.69434756
0.013566 -0.0077519715 0.69475818
0.013591639 -0.0087374747 0.69520032
0.01361732 -0.0097266436 0.69564319
0.013643152 -0.010719627 0.69608867
0.013669082 -0.011716366 0.69653583
0.013700576 -0.012721956 0.69707888
0.013732537 -0.013732493 0.69763005
0.013764648 -0.014747798 0.69818377
0.013800388 -0.015771836 0.69880003
0.013843806 -0.016810358 0.69954884
0.013887499 -0.017855346 0.70030224
0.01396285 -0.018949568 0.70160162
0.014210123 -0.02030015 0.70586568
0.014250652 -0.021375984 0.70656455
0.014287449 -0.022451669 0.70719916
0.014323968 -0.023532212 0.70782888
0.014360675 -0.024618268 0.70846182
0.014397628 -0.025710016 0.70909917
0.014434952 -0.026807755 0.70974272
0.014472468 -0.027911156 0.71038967
0.014510182 -0.029020339 0.71104002
0.014549723 -0.030138701 0.71172196
0.014592033 -0.031268626 0.71245152
0.014634591 -0.032405168 0.71318543
0.014677949 -0.033549577 0.71393305
0.014722124 -0.034702152 0.71469486
0.014766566 -0.035861611 0.71546119
0.014815034 -0.037037551 0.71629703
0.014865399 -0.038225293 0.71716547
0.014916427 -0.039421976 0.71804547
0.014970492 -0.040634185 0.71897775
0.015025337 -0.041856259 0.71992362
0.015617805 -0.044622302 0.73014033
0.015637048 -0.045794189 0.73047209
0.015656412 -0.046969235 0.73080611
0.01567575 -0.048146904 0.73113954
0.015695138 -0.049327552 0.73147392
0.015714575 -0.050511092 0.73180902
0.012879199 0.078992486 0.66810846
0.012866439 0.078056425 0.66790313
0.012853834 0.077123046 0.66770023
0.01286838 0.076352388 0.66793436
0.012883003 0.075580299 0.66816974
0.012897614 0.074806184 0.66840488
0.012912303 0.074030548 0.66864127
0.012926982 0.073252946 0.66887754
0.012941739 0.072473735 0.66911507
0.012956483 0.071692556 0.66935235
0.01297171 0.070912033 0.66959739
0.012987197 0.070130914 0.66984665
0.013002678 0.06934762 0.67009586
0.01301824 0.068562776 0.67034632
0.013033794 0.067775756 0.6705966
0.01304943 0.066987097 0.67084825
0.013065058 0.066196322 0.6710999
0.01308077 0.065403849 0.67135274
0.013096521 0.064609498 0.67160624
0.013112308 0.063813269 0.67186034
0.013128455 0.063016623 0.67212021
0.013144963 0.06221953 0.67238593
0.013161467 0.061420202 0.67265153
0.013178061 0.060619116 0.67291856
0.013194648 0.059815764 0.67318559
0.013211277 0.059010416 0.67345321
0.013227995 0.058203191 0.67372227
0.013244804 0.057394147 0.67399281
0.013261653 0.056583107 0.67426401
0.0132785 0.055769682 0.67453516
0.013295813 0.054956079 0.67481375
0.013313406 0.054141194 0.67509699
0.013331047 0.053324223 0.67538089
0.013348735 0.052505046 0.67566556
0.01336647 0.051683724 0.675951
0.013384347 0.050860554 0.67623872
0.013402272 0.050035149 0.6765272
0.013420197 0.049207419 0.67681575
0.013438219 0.048377573 0.67710578
0.013456241 0.047545403 0.67739582
0.013474939 0.046713173 0.67769676
0.013493739 0.045878738 0.67799938
0.013512591 0.045042008 0.67830282
0.013531595 0.044203252 0.67860866
0.01355065 0.043362111 0.67891538
0.01356976 0.042518616 0.67922288
0.013588924 0.041672707 0.67953134
0.013608141 0.040824413 0.67984068
0.013627414 0.039973736 0.68015087
0.013647038 0.039121538 0.68046665
0.013667119 0.03826794 0.68078983
0.013687357 0.037412137 0.68111557
0.013707655 0.03655377 0.68144226
0.013728014 0.035692871 0.68176997
0.013748434 0.034829408 0.68209863
0.013768914 0.033963352 0.68242824
0.013789455 0.033094704 0.68275881
0.013810059 0.032223463 0.68309045
0.013830977 0.031350255 0.68342716
0.013831589 0.030429512 0.68343699
0.013852011 0.02955097 0.68376565
0.01387111 0.028666943 0.68407303
0.013890055 0.027780145 0.68437797
0.013907918 0.026888639 0.68466544
0.013925206 0.025993735 0.68494374
0.013941295 0.02509436 0.68520266
0.013957421 0.02419287 0.68546224
0.013973117 0.023288548 0.68571484
0.013987022 0.022379279 0.6859386
0.014001008 0.021468222 0.68616366
0.014014026 0.020553917 0.68637323
0.01402534 0.019635528 0.68655539
0.014036671 0.01871562 0.68673772
0.014048285 0.01779452 0.68692464
0.014060127 0.016872168 0.68711519
0.01407199 0.015948236 0.68730617
0.014083926 0.015022874 0.68749821
0.014095828 0.014095873 0.68768984
0.014108494 0.013167918 0.68789369
0.014123892 0.012240738 0.68814152
0.014139325 0.011311501 0.6883899
0.014154791 0.010380179 0.68863881
0.014170292 0.0094468594 0.68888837
0.014185826 0.0085115135 0.68913835
0.014202738 0.0075748265 0.68941051
0.014221523 0.0066366792 0.68971288
0.014240358 0.0056961775 0.69001603
0.014259242 0.004753083 0.6903199
0.014278175 0.0038075149 0.69062471
0.01429716 0.0028594434 0.69093025
0.014318381 0.001909107 0.69127172
0.014340869 0.0009560585 0.6916337
0.01436343 -0 0.69199681
0.014386061 -0.00095906854 0.69236106
0.014408763 -0.0019211471 0.69272643
0.014432701 -0.0028865337 0.69311172
0.014459729 -0.0038559139 0.69354671
0.014486915 -0.0048289597 0.69398427
0.014514145 -0.0058056414 0.69442248
0.014541535 -0.0067860186 0.69486338
0.014572761 -0.0077720881 0.69536597
0.014606453 -0.0087638199 0.69590819
0.01464036 -0.009760201 0.69645393
0.014674424 -0.010761201 0.69700217
0.014719722 -0.011775762 0.69773126
0.014765825 -0.012797028 0.69847333
0.014831067 -0.013842314 0.69952333
0.015108483 -0.015108496 0.70398831
0.015153078 -0.01616329 0.70470601
0.01519357 -0.017219394 0.70535773
0.015232114 -0.018278539 0.70597816
0.015270793 -0.019342989 0.70660067
0.015309792 -0.020413041 0.7072283
0.01534918 -0.021488816 0.70786226
0.015388771 -0.022570193 0.70849943
0.015428567 -0.023657113 0.70913994
0.015468569 -0.024749666 0.70978379
0.015512818 -0.025854647 0.71049595
0.015557709 -0.026966661 0.71121848
0.015603119 -0.028085619 0.71194935
0.015649708 -0.029212743 0.71269917
0.015696576 -0.030346692 0.71345353
0.015744586 -0.031489134 0.71422619
0.015797675 -0.032648504 0.71508062
0.015851125 -0.033815712 0.71594089
0.015907297 -0.034996003 0.71684492
0.015964685 -0.036186606 0.71776855
0.01602447 -0.037390411 0.71873087
0.016635079 -0.039924145 0.72855842
0.016655454 -0.041083425 0.72888643
0.016675882 -0.042245537 0.7292152
0.01669636 -0.04341051 0.72954476
0.016716963 -0.044578552 0.7298764
0.016737541 -0.045749277 0.73020756
0.013736871 0.078987032 0.66809428
0.013723213 0.078050792 0.66788822
0.013709582 0.07711643 0.66768253
0.013719827 0.076316565 0.66783708
0.013735409 0.075544745 0.66807222
0.013751595 0.074774295 0.66831648
0.013767912 0.074002564 0.66856265
0.013784222 0.073228687 0.66880876
0.013800617 0.07245326 0.66905612
0.013817005 0.071675718 0.66930342
0.013833479 0.070896626 0.66955197
0.013849944 0.070115358 0.6698004
0.013866497 0.06933254 0.67005014
0.013883088 0.068547755 0.67030048
0.01389972 0.067761153 0.67055154
0.013916875 0.066974998 0.67081034
0.013934218 0.066187561 0.67107201
0.013951655 0.065398395 0.6713351
0.013969084 0.064607024 0.67159808
0.013986607 0.063813925 0.67186254
0.014004125 0.06301862 0.67212683
0.014021686 0.062221259 0.67239183
0.014039392 0.061422348 0.67265898
0.01405714 0.06062144 0.67292678
0.014074885 0.059818268 0.67319453
0.01409327 0.059015602 0.67347187
0.014111753 0.058211029 0.67375082
0.014130333 0.057404518 0.6740312
0.014148965 0.056595862 0.67431223
0.014167643 0.05578509 0.6745941
0.014186422 0.05497241 0.67487746
0.014205301 0.054157734 0.67516232
0.01422418 0.053340703 0.67544723
0.01424316 0.052521676 0.67573357
0.014262242 0.051700652 0.67602152
0.014281935 0.050879419 0.67631865
0.014301733 0.0500561 0.67661738
0.014321587 0.049230486 0.67691696
0.014341547 0.048402756 0.67721814
0.014361615 0.047572881 0.67752093
0.014381687 0.046740502 0.67782378
0.014401867 0.045905977 0.6781283
0.014422105 0.045069098 0.67843366
0.014442398 0.044229865 0.67873979
0.014463219 0.043389678 0.67905402
0.014484311 0.042547673 0.67937219
0.014505514 0.041703373 0.67969227
0.014526888 0.040856898 0.68001467
0.014548324 0.040007889 0.68033814
0.014569823 0.039156377 0.68066251
0.014591386 0.038302422 0.68098789
0.014613012 0.037445843 0.68131423
0.014634703 0.036586761 0.68164146
0.014656834 0.03572607 0.68197548
0.014679355 0.034863472 0.68231529
0.014702 0.0339984 0.68265694
0.014724661 0.033130497 0.6829989
0.014747391 0.032259941 0.6833418
0.014770409 0.03138712 0.68368918
0.014756415 0.030435145 0.683478
0.014773353 0.029546738 0.68373358
0.014790329 0.028656304 0.6839897
0.014807125 0.027763367 0.6842432
0.014821764 0.026864469 0.68446404
0.014836431 0.025963753 0.68468541
0.014850633 0.025060475 0.68489963
0.014862543 0.024151653 0.68507934
0.014874417 0.023241311 0.68525857
0.014886588 0.022329897 0.68544215
0.014899109 0.021417469 0.68563116
0.014911599 0.020503461 0.68581957
0.014924106 0.019587904 0.68600827
0.014936638 0.018670827 0.6861974
0.0149493 0.01775226 0.68638843
0.014965453 0.016836137 0.68663216
0.014981696 0.015918106 0.68687725
0.014997975 0.014998019 0.68712288
