# .PCD v0.7 - Point Cloud Data file format
VERSION 0.7
FIELDS x y z
SIZE 4 4 4
TYPE F F F
COUNT 1 1 1
WIDTH 1331
HEIGHT 1
VIEWPOINT 0 0 0 1 0 0 0
POINTS 1331
DATA ascii
0.00091408077 -0.031992793 0.68149954
0.00091998331 -0.03311938 0.68292451
0.0009201931 -0.034047127 0.68297517
0.00092016603 -0.03496629 0.68296862
0.00092032511 -0.035892665 0.68300706
0.00092048419 -0.036819339 0.68304545
0.00092067732 -0.037747771 0.68309206
0.00092112139 -0.03868708 0.68319929
0.00092156592 -0.039627314 0.68330663
0.0009221026 -0.040572524 0.68343621
0.00092289853 -0.041530401 0.68362832
0.00092369592 -0.042490005 0.68382084
0.00092479534 -0.043465346 0.6840862
0.00092603796 -0.044449776 0.68438625
0.00092752109 -0.045448512 0.6847443
0.00092935067 -0.046467543 0.68518603
0.00093155849 -0.047509462 0.68571901
0.00093423005 -0.048579961 0.68636405
0.00093790056 -0.049708724 0.68725008
0.00094296283 -0.05091998 0.68847227
0.00095179508 -0.052348733 0.69060457
0.0023029353 0.059876323 0.73880982
0.0021838474 0.055688113 0.72443461
0.0021611343 0.054028362 0.72169286
0.002149926 0.052673221 0.72033989
0.0021414058 0.051393718 0.71931148
0.002133653 0.050140858 0.71837562
0.0021276018 0.048934877 0.71764517
0.0021216925 0.047738105 0.71693188
0.0021171588 0.046577513 0.71638453
0.0021126445 0.045421898 0.71583962
0.0021092424 0.044294119 0.71542901
0.0021060731 0.043174535 0.71504641
0.0021029839 0.04205969 0.71467352
0.0020996921 0.04094398 0.71427613
0.0020953133 0.039810956 0.71374762
0.0020904634 0.038673609 0.71316212
0.0020842114 0.037515819 0.71240747
0.0020772978 0.036352724 0.71157289
0.002070053 0.03519094 0.71069843
0.0020628499 0.034037024 0.70982897
0.0020559588 0.032895386 0.70899713
0.0020493318 0.031764656 0.70819718
0.0020427392 0.030641139 0.70740128
0.0020364372 0.02952835 0.7066406
0.002030347 0.028424889 0.7059055
0.0020242932 0.027327985 0.70517468
0.0020184382 0.026239723 0.70446795
0.0020128274 0.025160372 0.70379066
0.0020072558 0.024087101 0.70311815
0.002001747 0.023020118 0.70245314
0.0019965873 0.021962464 0.70183027
0.0019914457 0.020910174 0.70120966
0.0019863385 0.019863397 0.70059317
0.0019814537 0.018823802 0.70000356
0.001976718 0.017790467 0.69943184
0.0019719969 0.016761988 0.69886196
0.001967306 0.015738487 0.69829571
0.0019629376 0.014722049 0.69776845
0.0019585886 0.013710141 0.69724345
0.0019542589 0.012702703 0.69672084
0.0019500244 0.011700153 0.69620967
0.0019460201 0.010703087 0.69572634
0.0019420319 0.0097101927 0.69524491
0.0019380602 0.008721292 0.69476551
0.0019342243 0.0077368915 0.69430244
0.0019305601 0.0067569911 0.69386011
0.0019269096 0.0057807565 0.69341946
0.0019232804 0.0048082471 0.69298136
0.0019197901 0.0038396418 0.69256002
0.0019164516 0.0028747022 0.69215703
0.0019131249 0.0019131303 0.69175553
0.0019098024 0.00095492601 0.69135451
0.001906644 2.9802322e-08 0.69097316
0.0019036119 -0.00095176697 0.69060719
0.0019005967 -0.0019005835 0.69024318
0.0018975838 -0.00284639 0.68987954
0.001894724 -0.0037894249 0.68953431
0.0018919943 -0.0047299266 0.68920481
0.0018892724 -0.0056677759 0.68887621
0.0018865585 -0.0066029131 0.68854868
0.001883987 -0.0075359046 0.6882382
0.0018815569 -0.0084670186 0.68794495
0.0018791262 -0.0093955994 0.68765146
0.0018767087 -0.010321885 0.68735969
0.0018744379 -0.011246622 0.68708551
0.0018722984 -0.012169927 0.6868273
0.0018701641 -0.013091117 0.68656969
0.0018680417 -0.01401031 0.68631345
0.0018660701 -0.01492852 0.68607545
0.0018642346 -0.015845984 0.6858539
0.0018624027 -0.016761601 0.68563277
0.0018605744 -0.01767543 0.68541205
0.00185895 -0.018589497 0.68521601
0.0018574179 -0.019502848 0.68503106
0.0018558885 -0.02041474 0.68484646
0.0018543684 -0.021325201 0.68466294
0.001852693 -0.022232294 0.6844607
0.0018504936 -0.023131132 0.68419522
0.0018477123 -0.024020225 0.68385959
0.0018446402 -0.024902642 0.68348867
0.0018409684 -0.025773555 0.68304551
0.0018369202 -0.026635289 0.68255675
0.0018325807 -0.027488679 0.682033
0.0018283753 -0.028339803 0.68152535
0.0018241957 -0.029187143 0.68102086
0.0018200685 -0.030031115 0.68052262
0.0018168302 -0.030886114 0.68013173
0.0018185603 -0.031824768 0.68034053
0.0018377027 -0.033078611 0.68265116
0.0018485589 -0.034198314 0.68396169
0.00184929 -0.035136491 0.6840499
0.0018497822 -0.036070764 0.68410939
0.0018506852 -0.03701368 0.68421835
0.0018515824 -0.03795743 0.68432665
0.0018528028 -0.038908839 0.68447399
0.0018544097 -0.039869756 0.68466794
0.0018560262 -0.040832549 0.68486309
0.0018584252 -0.041814536 0.68515265
0.0018609341 -0.04280147 0.6854555
0.001864186 -0.043808341 0.685848
0.0018678812 -0.04482916 0.68629414
0.0018727049 -0.045881271 0.68687642
0.0018782304 -0.046955734 0.68754339
0.0018860891 -0.048095256 0.688492
0.0018973247 -0.049330413 0.6898483
0.0019231695 -0.050963968 0.69296801
0.0034922236 0.062860042 0.74185336
0.0034250349 0.060508966 0.73644638
0.0032609266 0.056522757 0.72324002
0.00324299 0.055130869 0.72179657
0.0032291068 0.053818464 0.72067934
0.0032169688 0.052543819 0.71970254
0.0032075923 0.051321507 0.71894801
0.0031984614 0.050109237 0.7182132
0.0031913484 0.048934013 0.71764076
0.0031845102 0.047767699 0.71709049
0.0031789935 0.046625257 0.71664655
0.0031741802 0.045496613 0.71625924
0.0031694886 0.044372857 0.71588165
0.003164571 0.04324916 0.71548593
0.0031582986 0.042110682 0.71498114
0.0031510191 0.040963262 0.71439534
0.0031419042 0.039797485 0.71366179
0.0031316264 0.038623422 0.71283472
0.0031206498 0.03744781 0.71195143
0.0031097368 0.036280274 0.71107322
0.0030992071 0.035124362 0.71022582
0.0030891553 0.033980697 0.70941687
0.0030791683 0.032844484 0.70861328
0.0030695472 0.031718671 0.70783901
0.0030603227 0.0306032 0.7070967
0.0030511536 0.029494494 0.70635879
0.0030422246 0.028394073 0.70564026
0.0030337274 0.027303576 0.70495641
0.0030252899 0.026219159 0.7042774
0.0030168989 0.025140852 0.70360219
0.0030090732 0.024072587 0.70297241
0.0030012999 0.023009986 0.70234686
0.0029935667 0.021952838 0.70172459
0.0029861229 0.020902842 0.7011255
0.0029789524 0.019859672 0.70054847
0.0029718159 0.018821508 0.69997418
0.0029647138 0.017788261 0.69940269
0.0029580654 0.016762406 0.69886762
0.0029514811 0.015741199 0.69833779
0.0029449265 0.014724642 0.69781029
0.0029384925 0.013712972 0.69729251
0.0029324307 0.012707204 0.69680476
0.0029263936 0.011705607 0.69631886
0.0029203815 0.010708094 0.69583505
0.0029145638 0.0097152293 0.69536686
0.002909017 0.0087270737 0.69492054
0.0029035027 0.0077426732 0.69447678
0.0028979983 0.0067620277 0.69403374
0.0028927149 0.0057854652 0.69360858
0.002887662 0.004812777 0.69320202
0.0028826157 0.0038435161 0.69279587
0.0028775984 0.0028776228 0.69239211
0.002872807 0.0019152164 0.69200653
0.0028682286 0.0009560883 0.69163811
0.0028636653 -0 0.69127095
0.0028591056 -0.00095304847 0.6909039
0.0028547877 -0.0019031763 0.69055653
0.0028506569 -0.0028506219 0.69022405
0.0028465376 -0.0037953556 0.68989253
0.0028424303 -0.0047373772 0.68956202
0.0028385494 -0.0056770742 0.68924969
0.0028348721 -0.0066146851 0.68895382
0.0028312041 -0.0075498819 0.68865865
0.0028275456 -0.008482635 0.68836421
0.0028241302 -0.0094137788 0.68808937
0.0028208927 -0.010343224 0.68782884
0.0028176627 -0.011270612 0.6875689
0.0028144401 -0.012195885 0.68730956
0.0028114987 -0.013120294 0.68707281
0.002808721 -0.014043599 0.68684936
0.002805949 -0.014965028 0.6866262
0.0028031822 -0.015884668 0.68640357
0.0028007657 -0.016804576 0.68620914
0.0027984476 -0.017723501 0.68602264
0.002796133 -0.018640846 0.68583632
0.0027938327 -0.019556791 0.68565118
0.0027911935 -0.020468742 0.68543887
0.0027877828 -0.021372974 0.68516433
0.0027834817 -0.022267818 0.68481821
0.0027787723 -0.023156434 0.68443924
0.0027731457 -0.024033904 0.68398643
0.0027668891 -0.024901986 0.683483
0.0027603458 -0.025763214 0.6829564
0.0027539849 -0.026621819 0.68244451
0.0027476633 -0.027476579 0.68193579
0.0027416414 -0.028330296 0.6814512
0.0027367426 -0.029191881 0.68105686
0.0027318618 -0.030050457 0.68066418
0.0027270573 -0.030906588 0.68027753
0.0027235739 -0.031775028 0.67999721
0.0027419918 -0.03290391 0.68147933
0.0027709957 -0.034175605 0.68381339
0.0027879174 -0.035313606 0.68517518
0.0027901663 -0.036272168 0.68535614
0.0027922215 -0.037229598 0.68552154
0.0027946546 -0.038193583 0.68571734
0.0027972274 -0.039161175 0.68592435
0.0028010167 -0.040147871 0.68622929
0.0028048165 -0.041137278 0.68653506
0.0028101301 -0.042151988 0.68696272
0.0028157495 -0.043174803 0.68741494
0.0028235777 -0.044236034 0.68804491
0.0028328176 -0.045325071 0.68878853
0.0028449083 -0.046466798 0.68976146
0.0028645068 -0.047741771 0.6913386
0.0046015717 0.063271612 0.73855031
0.0043756398 0.059071153 0.72491407
0.0043484122 0.057616502 0.72327077
0.0043283813 0.05626896 0.72206187
0.0043120249 0.054978311 0.72107464
0.0042985962 0.053732485 0.72026408
0.0042863153 0.05250743 0.71952295
0.0042761499 0.051313788 0.71890938
0.0042669424 0.050136596 0.71835369
0.0042590247 0.048978806 0.71787578
0.0042525455 0.047841161 0.71748471
0.0042461576 0.046707749 0.71709919
0.0042396458 0.045576185 0.71670616
0.0042317212 0.044433117 0.71622783
0.0042219376 0.043274909 0.71563739
0.0042101792 0.0421018 0.71492767
0.0041966191 0.040917099 0.7141093
0.0041818358 0.039727449 0.71321702
0.0041671558 0.038546234 0.712331
0.00415282 0.03737542 0.71146572
0.0041393009 0.036218882 0.71064985
0.0041258531 0.035069764 0.70983821
0.0041127796 0.03393048 0.70904911
0.00410036 0.03280291 0.70829952
0.0040880148 0.031682134 0.7075544
0.00407591 0.030569375 0.70682383
0.004064471 0.029467434 0.70613337
0.0040531121 0.028371811 0.70544785
0.0040418166 0.027282298 0.70476609
0.0040312172 0.026202947 0.70412636
0.0040207538 0.025129735 0.70349491
0.0040103449 0.024062097 0.70286661
0.0040002777 0.023001611 0.702259
0.0039906264 0.021948457 0.70167649
0.0039810059 0.020900249 0.70109588
0.0039714472 0.019857287 0.70051897
0.0039624684 0.018821746 0.69997704
0.0039536078 0.017791271 0.69944227
0.0039447867 0.016765356 0.69890988
0.0039360975 0.015744418 0.69838548
0.0039279405 0.014729828 0.69789308
0.0039198166 0.01371938 0.69740278
0.0039117262 0.012713134 0.69691449
0.0039038826 0.011711657 0.69644105
0.0038964346 0.010715216 0.69599152
0.0038889998 0.009722501 0.69554281
0.0038815932 0.0087336004 0.69509578
0.0038744847 0.0077490211 0.69466674
0.0038676711 0.006768465 0.69425547
0.0038608965 0.0057913959 0.69384664
0.0038541458 0.0048176944 0.69343919
0.0038476994 0.0038476884 0.69305009
0.0038415401 0.0028811991 0.69267839
0.0038353861 0.00191769 0.692307
0.0038292659 0.00095734 0.69193757
0.0038234724 2.9802322e-08 0.69158781
0.0038179145 -0.00095447898 0.69125247
0.0038123727 -0.0019061863 0.69091797
0.0038068329 -0.0028551221 0.69058359
0.0038016555 -0.0038016438 0.69027114
0.0037966939 -0.0047458112 0.68997163
0.0037917595 -0.0056876242 0.68967384
0.0037868381 -0.0066269338 0.68937683
0.0037822723 -0.0075645447 0.68910122
0.0037779314 -0.0085003376 0.68883926
0.0037735864 -0.009433955 0.688577
0.0037692511 -0.010365427 0.68831539
0.0037653367 -0.011296004 0.68807906
0.0037616005 -0.012225181 0.68785357
0.0037578712 -0.01315251 0.68762845
0.0037541497 -0.014078051 0.68740392
0.0037509552 -0.0150038 0.68721104
0.0037478367 -0.015928298 0.68702286
0.0037447233 -0.016851246 0.68683493
0.003741601 -0.017772585 0.68664646
0.0037379253 -0.018689632 0.68642467
0.0037332398 -0.019599497 0.68614185
0.0037273164 -0.020500243 0.6857844
0.0037208165 -0.02139467 0.68539208
0.0037132506 -0.022279501 0.68493545
0.0037046454 -0.02315402 0.68441606
0.0036958887 -0.024023235 0.68388754
0.0036873503 -0.024889588 0.6833722
0.0036788373 -0.025751829 0.68285835
0.003671037 -0.026614994 0.68238759
0.0036644503 -0.027483344 0.68199003
0.0036578868 -0.028348595 0.68159389
0.0036517333 -0.029213846 0.68122256
0.0036470487 -0.030088127 0.68093979
0.003642376 -0.030960202 0.68065774
0.0036380857 -0.031833231 0.68039882
0.00363679 -0.032731056 0.68032062
0.0036750548 -0.033994228 0.68263006
0.0037141466 -0.03528437 0.68498945
0.0037411256 -0.036475956 0.68661779
0.003747598 -0.037475944 0.68700844
0.0037526996 -0.038465172 0.68731636
0.0037579702 -0.039458632 0.68763441
0.0037654787 -0.040478855 0.68808758
0.0037734725 -0.041508168 0.68857008
0.0037843464 -0.042573869 0.68922639
0.0037979619 -0.043676525 0.69004816
0.0038162693 -0.044841141 0.69115317
0.0038473147 -0.046167731 0.6930269
0.0057990295 0.066108942 0.74082273
0.0055046664 0.061652303 0.72660971
0.0054663704 0.060130119 0.72476059
0.0054394151 0.058745652 0.72345912
0.0054187505 0.057438791 0.72246134
0.0054008057 0.056168407 0.72159487
0.0053852741 0.054929793 0.72084498
0.0053716991 0.053716987 0.72018951
0.0053600753 0.052528769 0.71962821
0.0053494624 0.051354885 0.71911579
0.0053413077 0.0502083 0.71872205
0.0053331777 0.049065262 0.71832955
0.0053250501 0.047925502 0.71793705
0.0053157043 0.046778232 0.71748579
0.0053033992 0.045609236 0.71689165
0.0052892268 0.044429541 0.71620739
0.005272395 0.043233663 0.71539462
0.0052537723 0.042030185 0.71449542
0.0052352361 0.040834874 0.71360046
0.0052169827 0.039649099 0.71271908
0.0051998934 0.038479209 0.71189398
0.0051829163 0.037317038 0.71107423
0.0051662838 0.036164016 0.71027112
0.0051506064 0.035024136 0.70951414
0.0051350235 0.033891201 0.70876175
0.005119639 0.032765746 0.70801896
0.0051052012 0.031652242 0.70732182
0.0050908653 0.030545175 0.70662963
0.0050766091 0.029444337 0.70594126
0.0050631501 0.028353631 0.70529145
0.0050499458 0.027269691 0.70465386
0.0050367899 0.026191354 0.70401859
0.0050240248 0.025120139 0.70340228
0.0050118468 0.024056852 0.70281428
0.0049997275 0.02299878 0.70222908
0.0049876664 0.021945745 0.70164675
0.0049762772 0.020900398 0.70109683
0.0049650976 0.019860387 0.70055705
0.0049539683 0.018825084 0.70001966
0.0049429666 0.017794698 0.6994884
0.0049326746 0.016771108 0.69899154
0.0049224454 0.015751839 0.69849759
0.004912239 0.014736712 0.69800484
0.0049023055 0.013726503 0.69752514
0.0048929094 0.012721598 0.69707149
0.0048835305 0.011720479 0.69661862
0.0048741871 0.010723263 0.69616747
0.0048652203 0.0097304583 0.6957345
0.0048566256 0.008741945 0.69531953
0.0048480798 0.0077569485 0.69490695
0.0048395456 0.0067753494 0.69449484
0.0048314333 0.005797714 0.69410312
0.0048236642 0.0048236847 0.69372797
0.0048159016 0.003852725 0.69335318
0.0048081824 0.0028848946 0.69298053
0.0048008747 0.0019203722 0.69262767
0.0047938647 0.00095880032 0.69228911
0.0047868756 -0 0.69195175
0.0047799065 -0.00095593929 0.69161522
0.0047733947 -0.0019093156 0.69130075
0.0047671548 -0.0028602779 0.69099951
0.0047609136 -0.0038087368 0.69069815
0.0047547063 -0.0047547221 0.69039845
0.0047490024 -0.0056988001 0.69012302
0.0047435095 -0.0066409111 0.68985784
0.00473803 -0.0075808167 0.6895932
0.0047325804 -0.0085186362 0.68933016
0.0047276975 -0.009455353 0.68909431
0.0047229845 -0.01039052 0.68886673
0.0047182818 -0.011323869 0.68863976
0.0047135879 -0.012255311 0.68841308
0.004709613 -0.013186872 0.6882211
0.0047056973 -0.014117062 0.68803203
0.0047017708 -0.015045643 0.68784249
0.0046977978 -0.015972495 0.68765056
0.0046930215 -0.016894877 0.68742007
0.0046869903 -0.017810553 0.68712878
0.0046793278 -0.018717289 0.68675882
0.0046709236 -0.019617856 0.68635303
0.0046614027 -0.020510137 0.68589336
0.004650312 -0.021391422 0.68535781
0.0046393257 -0.022268742 0.68482733
0.0046285451 -0.023142725 0.6843068
0.0046178317 -0.024012715 0.68378961
0.0046083559 -0.024885058 0.68333197
0.0046000518 -0.025760293 0.68293107
0.0045917779 -0.026632339 0.68253154
0.004584407 -0.027506411 0.68217564
0.0045785005 -0.028386682 0.68189049
0.0045726257 -0.029264778 0.68160677
0.0045677172 -0.030146956 0.68136984
0.0045645833 -0.031039149 0.6812185
0.0045614708 -0.031930298 0.68106818
0.0045609553 -0.032838881 0.68104327
0.0045695524 -0.033814698 0.68145835
0.0046178997 -0.03509602 0.68379289
0.0046996865 -0.036657512 0.68774182
0.0047109607 -0.037687659 0.68828624
0.0047303969 -0.038789272 0.68922472
0.0047414238 -0.039827943 0.68975711
0.0047551584 -0.040894359 0.69042027
0.0047738319 -0.042009711 0.69132185
0.0047995117 -0.043195605 0.69256186
0.0048439871 -0.044564664 0.6947093
0.0070162769 0.068993419 0.74313414
0.0066482844 0.064266771 0.72832727
0.0065971226 0.062672645 0.72626865
0.0065623973 0.061249048 0.7248714
0.0065373327 0.059925586 0.72386289
0.0065143532 0.058629155 0.72293824
0.0064955228 0.05737713 0.72218055
0.0064781983 0.056144416 0.72148347
0.0064641098 0.054944932 0.72091657
0.0064504989 0.053754151 0.72036892
0.0064405901 0.052598178 0.71997023
0.00643074 0.051445931 0.71957392
0.0064209471 0.050297469 0.71917987
0.0064101713 0.049144685 0.71874624
0.0063955327 0.04796651 0.71815729
0.0063791433 0.046780407 0.71749783
0.00635901 0.045572907 0.7166878
0.0063366224 0.044356376 0.71578693
0.0063141529 0.043146729 0.71488279
0.0062918155 0.041945487 0.71398401
0.0062711029 0.040762156 0.71315056
0.0062505519 0.039586842 0.71232367
0.0062302118 0.038419664 0.71150529
0.0062112124 0.037267298 0.7107408
0.0061923284 0.036121935 0.70998096
0.0061735846 0.034983665 0.70922673
0.0061560641 0.033858359 0.70852178
0.0061386931 0.032739729 0.7078228
0.0061213947 0.031627208 0.70712686
0.0061050132 0.030525088 0.70646769
0.0060889903 0.029430181 0.70582294
0.0060730758 0.028341025 0.70518261
0.0060575381 0.027258933 0.70455742
0.006042785 0.026185423 0.70396382
0.0060280794 0.02511701 0.70337212
0.0060134693 0.024053931 0.70278424
0.0059996252 0.022998571 0.70222712
0.0059860824 0.021949023 0.70168227
0.0059726019 0.020904124 0.70113987
0.0059592524 0.019864172 0.70060271
0.0059467871 0.018831551 0.70010114
0.0059343735 0.017803162 0.69960165
0.005922012 0.016779035 0.69910431
0.0059099579 0.015759885 0.69861925
0.0058985781 0.014746457 0.69816136
0.0058872197 0.013736874 0.69770432
0.0058759041 0.012731135 0.69724905
0.0058650216 0.011730075 0.69681114
0.0058546364 0.010733515 0.69639325
0.0058442648 0.009740442 0.69597596
0.0058339532 0.0087509453 0.69556105
0.0058241286 0.0077655315 0.69516575
0.0058147209 0.0067838728 0.6947872
0.005805321 0.0058053136 0.69440901
0.0057959738 0.004829973 0.69403291
0.0057871472 0.0038581192 0.69367772
0.0057786591 0.0028893352 0.69333619
0.0057701957 0.0019234121 0.69299567
0.0057617575 0.00096032023 0.6926561
0.0057538943 -0 0.69233972
0.0057463394 -0.00095772743 0.69203579
0.0057388041 -0.0019129217 0.69173259
0.0057312888 -0.0028656125 0.69143009
0.0057244259 -0.0038162768 0.691154
0.0057177753 -0.0047647953 0.69088638
0.0057111401 -0.0057111084 0.69061941
0.0057045203 -0.006655246 0.6903531
0.005698673 -0.0075982511 0.69011778
0.0056929886 -0.0085394681 0.68988907
0.0056872945 -0.0094788074 0.68965995
0.0056816544 -0.010416359 0.68943298
0.0056768842 -0.011353761 0.68924111
0.0056721433 -0.012289613 0.68905032
0.0056673894 -0.013223886 0.68885905
0.0056625362 -0.014156312 0.68866372
0.0056565828 -0.015084207 0.68842429
0.0056491108 -0.016005784 0.68812358
0.0056396239 -0.016918838 0.68774182
0.0056292182 -0.017825872 0.68732315
0.005617463 -0.018724859 0.68685019
0.0056039575 -0.019613832 0.68630672
0.0055907248 -0.020499289 0.68577427
0.0055776788 -0.02138108 0.68524939
0.0055647139 -0.022258818 0.68472767
0.0055536786 -0.023140281 0.68428373
0.0055436492 -0.02402243 0.68388009
0.0055336352 -0.02490133 0.68347722
0.0055252025 -0.025784254 0.68313789
0.0055180532 -0.026670575 0.68285024
0.0055109221 -0.027554631 0.6825633
0.005505586 -0.028445512 0.68234861
0.0055018123 -0.029342979 0.68219674
0.0054980242 -0.030239105 0.68204427
0.0054983464 -0.031157285 0.68205726
0.0054992526 -0.032078952 0.68209374
0.0055070203 -0.033042073 0.68240631
0.0055290493 -0.034095764 0.68329263
0.0056759398 -0.035947591 0.68920302
0.0056857434 -0.036957324 0.68959749
0.0056982408 -0.037988245 0.69010037
0.0057134875 -0.039042145 0.69071388
0.0057440968 -0.040208638 0.69194555
0.0057908981 -0.041501403 0.69382864
0.0082750823 0.072111458 0.74621832
0.0081276083 0.069665223 0.74113214
0.0077408352 0.065244168 0.72779274
0.007699756 0.06379801 0.726376
0.0076679639 0.062439144 0.72527945
0.0076394309 0.061115474 0.7242955
0.0076172682 0.059850007 0.72353101
0.0075957929 0.058596134 0.72279048
0.0075791916 0.057385355 0.72221786
0.0075626629 0.056179792 0.72164786
0.0075505986 0.055011541 0.7212317
0.0075389943 0.053849995 0.72083151
0.0075274906 0.052692443 0.72043478
0.0075152153 0.051532954 0.72001135
0.0074984822 0.050346971 0.71943432
0.0074801301 0.049155176 0.71880138
0.007456467 0.047934443 0.71798527
0.0074305553 0.046706349 0.71709156
0.0074040722 0.045482159 0.71617818
0.007377746 0.044266492 0.71527028
0.0073531186 0.04306826 0.71442091
0.0073288702 0.041879267 0.7135846
0.0073047811 0.040698081 0.71275377
0.0072823334 0.039532661 0.71197957
0.007260114 0.038374901 0.71121323
0.0072379988 0.037224025 0.71045053
0.0072172079 0.036086053 0.70973349
0.007196743 0.034955651 0.70902771
0.0071763652 0.033831477 0.70832491
0.0071569206 0.032717377 0.70765424
0.0071380758 0.031611502 0.70700431
0.0071193301 0.030511439 0.70635778
0.0071009127 0.029418081 0.70572263
0.0070835361 0.028334171 0.70512331
0.0070662438 0.027255505 0.7045269
0.0070490362 0.026182145 0.70393348
0.0070326463 0.025116593 0.70336819
0.0070166979 0.024057269 0.70281816
0.0070008212 0.023002684 0.70227063
0.0069850446 0.021952987 0.7017265
0.0069703655 0.020911127 0.70122015
0.0069557475 0.019873559 0.70071608
0.0069411905 0.018840402 0.70021403
0.0069269962 0.017812282 0.69972444
0.0069135688 0.016790122 0.69926131
0.0069001941 0.015771896 0.69880009
0.0068868711 0.014757603 0.69834059
0.0068740575 0.013748139 0.69789863
0.0068618022 0.012743384 0.69747603
0.0068496177 0.011742204 0.69705576
0.006837476 0.010744601 0.69663703
0.0068259099 0.0097513199 0.6962381
0.0068148337 0.0087619424 0.69585609
0.0068037659 0.0077757537 0.69547439
0.0067927619 0.0067927837 0.69509482
0.0067823962 0.0058134794 0.69473737
0.0067724031 0.0048374832 0.69439268
0.0067624394 0.0038642585 0.69404906
0.006752505 0.0028939545 0.69370645
0.0067433002 0.0019266605 0.69338906
0.0067343805 0.00096207857 0.69308138
0.0067255092 5.9604645e-08 0.69277537
0.0067166621 -0.00095951557 0.69247025
0.0067086341 -0.0019167364 0.69219339
0.006700831 -0.0028717816 0.69192433
0.0066930195 -0.0038245618 0.69165492
0.0066852272 -0.0047751665 0.69138616
0.0066784206 -0.0057243407 0.69115138
0.0066717034 -0.0066716671 0.69091976
0.0066649998 -0.0076171458 0.69068855
0.0066584619 -0.0085608661 0.69046307
0.0066528716 -0.0095041096 0.69027025
0.006647266 -0.010445684 0.69007689
0.0066416943 -0.011385769 0.68988478
0.0066359565 -0.012323916 0.68968689
0.0066286968 -0.013257354 0.6894365
0.0066196015 -0.014184862 0.6891228
0.0066083362 -0.015104771 0.68873429
0.0065957676 -0.016018301 0.68830079
0.0065816874 -0.016924322 0.68781519
0.0065657222 -0.017821193 0.6872645
0.0065502012 -0.018714845 0.68672931
0.0065348768 -0.019604623 0.68620068
0.006519598 -0.02049014 0.68567383
0.0065071466 -0.021380574 0.68524432
0.0064953207 -0.022269636 0.68483651
0.0064835376 -0.023155451 0.68443012
0.0064741895 -0.024046987 0.68410772
0.0064657754 -0.024939418 0.68381751
0.0064573837 -0.025829494 0.68352807
0.006451841 -0.026729017 0.68333691
0.0064473748 -0.027631611 0.6831829
0.0064432952 -0.028534561 0.68304217
0.0064443857 -0.029460043 0.68307984
0.006445453 -0.030385703 0.68311667
0.0064567882 -0.03136152 0.68350756
0.0066442899 -0.033221453 0.68997431
0.0066545657 -0.034223467 0.69032866
0.0066670808 -0.035240233 0.69076025
0.0066818092 -0.036272645 0.69126827
0.0067012152 -0.037335336 0.69193757
0.0067248121 -0.038427502 0.69275141
0.0067571686 -0.039577663 0.69386733
0.0068121031 -0.040872574 0.69576192
0.0093559548 0.072508663 0.7431618
0.0089028245 0.067884028 0.72948742
0.0088503072 0.066377342 0.72790253
0.0088108387 0.064979941 0.72671151
0.0087769534 0.063632905 0.72568893
0.0087506287 0.062348247 0.72489446
0.0087251458 0.061076075 0.72412544
0.0087054875 0.059850276 0.7235322
0.0086864065 0.058633298 0.72295642
0.0086714653 0.057448477 0.72250551
0.0086580366 0.056277275 0.72210026
0.0086448351 0.055110842 0.72170186
0.0086310422 0.053944021 0.72128564
0.0086124344 0.052751184 0.72072405
0.0085919145 0.051551521 0.72010481
0.0085650738 0.050319821 0.71929485
0.0085357409 0.049080551 0.71840966
0.0085051628 0.047841579 0.71748692
0.0084747672 0.04661122 0.71656966
0.0084460489 0.04539752 0.71570301
0.0084180562 0.044194788 0.71485823
0.0083902832 0.043000251 0.71402007
0.0083641261 0.041820645 0.71323073
0.0083384784 0.0406501 0.71245676
0.0083129536 0.039486557 0.71168643
0.0082887849 0.038335651 0.71095711
0.0082651665 0.037193269 0.71024442
0.0082416488 0.036057264 0.70953465
0.0082190735 0.034931093 0.70885342
0.0081973271 0.033814013 0.70819712
0.0081756962 0.032702804 0.70754439
0.0081543438 0.031598091 0.70690006
0.0081342943 0.030503631 0.70629495
0.0081143091 0.029414386 0.70569181
0.0080944542 0.028330624 0.70509267
0.0080754794 0.02725476 0.70452005
0.0080570793 0.026185513 0.70396477
0.008038762 0.025121152 0.703412
0.0080205295 0.02406159 0.70286179
0.0080035627 0.023010254 0.70234978
0.0079866992 0.021963447 0.70184088
0.0079699066 0.020920992 0.70133412
0.0079535004 0.019883752 0.70083904
0.0079380115 0.0188528 0.70037162
0.0079225842 0.017825842 0.69990599
0.0079072155 0.016802877 0.69944227
0.0078924354 0.015784889 0.69899625
0.0078782998 0.014771819 0.69856966
0.0078642461 0.013762414 0.69814557
0.0078502102 0.012756616 0.69772196
0.0078369007 0.011755377 0.69732028
0.007824095 0.010758162 0.69693387
0.0078113615 0.0097642243 0.69654953
0.0077986694 0.0087735057 0.69616652
0.0077867447 0.0077868104 0.69580668
0.0077752192 0.0068033338 0.69545889
0.007763728 0.0058228374 0.69511217
0.0077522709 0.0048452318 0.69476634
0.0077416855 0.0038708448 0.69444692
0.0077314284 0.0028992891 0.69413733
0.0077211675 0.0019303262 0.69382775
0.0077109644 0.00096389651 0.69351983
0.0077017951 2.9802322e-08 0.69324315
0.0076927668 -0.00096157193 0.69297069
0.0076837586 -0.0019209087 0.69269884
0.0076748016 -0.0028780103 0.69242853
0.00766704 -0.0038335025 0.69219434
0.0076592937 -0.004786998 0.69196057
0.0076515633 -0.0057386458 0.69172722
0.0076441406 -0.006688565 0.69150317
0.0076376935 -0.0076376796 0.69130874
0.0076312288 -0.0085851252 0.69111365
0.0076248036 -0.0095309615 0.69091976
0.0076181283 -0.01047489 0.69071829
0.0076095257 -0.01141423 0.69045866
0.0075985193 -0.012347609 0.69012648
0.0075855306 -0.01327467 0.68973458
0.0075706961 -0.014195055 0.68928683
0.0075540664 -0.015108138 0.68878502
0.0075356639 -0.016013294 0.68822968
0.0075178598 -0.016915172 0.6876924
0.0075001959 -0.017812937 0.6871593
0.0074826144 -0.01870653 0.68662882
0.007468848 -0.019605696 0.68621337
0.0074552158 -0.020501822 0.68580198
0.0074416329 -0.02139467 0.68539208
0.0074314922 -0.022294462 0.68508601
0.007421792 -0.023193121 0.68479335
0.0074121174 -0.024089366 0.68450135
0.0074065765 -0.024997175 0.6843341
0.0074014273 -0.025904953 0.68417871
0.00739798 -0.02681765 0.6840747
0.0073992107 -0.027747005 0.68411183
0.0074025225 -0.028684735 0.68421173
0.0074160723 -0.029664278 0.68462068
0.0076310253 -0.031477988 0.69110751
0.0076428852 -0.032482237 0.69146538
0.0076584439 -0.033505708 0.69193494
0.0076754494 -0.034539491 0.69244802
0.0076995436 -0.035610348 0.6931752
0.0077292188 -0.036713779 0.6940707
0.007771174 -0.037884444 0.69533682
0.0078439042 -0.039219469 0.69753164
0.010613014 0.075470328 0.7455107
0.010081103 0.070567727 0.73124242
0.010014119 0.068986148 0.72944558
0.0099661592 0.067548424 0.72815907
0.0099275783 0.066183865 0.72712415
0.0098958137 0.064872563 0.72627211
0.0098668896 0.063586652 0.72549623
0.009843166 0.062340051 0.72485983
0.0098214829 0.06111148 0.72427821
0.0098033091 0.059909135 0.72379065
0.009788096 0.058728635 0.72338259
0.0097731408 0.057552963 0.72298145
0.0097574703 0.056376547 0.72256106
0.0097375531 0.055179507 0.72202682
0.0097145718 0.05396986 0.72141033
0.0096850712 0.052729845 0.72061902
0.0096523957 0.051479459 0.71974248
0.0096175978 0.050225258 0.71880913
0.0095830914 0.048980266 0.71788341
0.0095501272 0.047750652 0.71699917
0.0095183142 0.046534002 0.71614587
0.0094867125 0.045325428 0.71529818
0.00945675 0.044131517 0.71449441
0.0094276071 0.042948008 0.71371263
0.0093986038 0.041771621 0.71293467
0.0093709491 0.040607512 0.71219283
0.0093441159 0.03945294 0.71147305
0.0093173971 0.038304895 0.7107563
0.0092915976 0.037166417 0.71006423
0.0092668934 0.036037982 0.70940161
0.0092422832 0.034915328 0.70874137
0.0092179161 0.033799022 0.7080878
0.0091951415 0.032693863 0.70747685
0.0091724787 0.031594157 0.70686895
0.0091498904 0.030499667 0.70626307
0.0091282642 0.029413313 0.70568287
0.0091073662 0.028334081 0.70512229
0.0090865642 0.027259707 0.70456433
0.0090658562 0.026190251 0.70400882
0.0090465145 0.025129229 0.70349002
0.0090273647 0.024072975 0.70297629
0.0090082949 0.023021251 0.7024647
0.0089896284 0.021974683 0.70196402
0.0089720394 0.020934761 0.70149219
0.0089545203 0.019898951 0.70102233
0.0089371046 0.018867284 0.70055515
0.0089202514 0.017840534 0.70010304
0.0089042364 0.016819149 0.69967341
0.0088882428 0.01580134 0.69924444
0.0088723423 0.014787257 0.69881785
0.0088572297 0.013777941 0.69841254
0.0088426899 0.012772828 0.69802243
0.0088282321 0.011770993 0.6976347
0.0088137873 0.010772407 0.69724721
0.0088002831 0.009778142 0.69688499
0.0087871989 0.0087872148 0.69653392
0.008774152 0.0077992678 0.69618398
0.0087611442 0.0068142116 0.69583505
0.0087491954 0.0058328211 0.69551456
0.0087375501 0.0048542321 0.69520211
0.0087259347 0.003878206 0.69489056
0.0087143509 0.0029047728 0.69457984
0.0087040095 0.0019342601 0.69430244
0.0086937593 0.00096598268 0.69402748
0.0086835334 2.9802322e-08 0.69375312
0.0086734649 -0.0009636879 0.69348305
0.0086646536 -0.0019254684 0.69324672
0.0086558601 -0.002885282 0.69301087
0.0086470833 -0.0038431287 0.69277537
0.0086387889 -0.0047993362 0.69255292
0.0086314706 -0.005754292 0.69235659
0.0086241309 -0.0067076683 0.69215977
0.0086168051 -0.0076593757 0.6919632
0.0086090956 -0.0086090863 0.69175637
0.0085991332 -0.009554565 0.69148916
0.0085860817 -0.010494113 0.6911391
0.0085713081 -0.011428416 0.69074285
0.0085541466 -0.012355983 0.69028246
0.0085348226 -0.013276368 0.68976408
0.008513974 -0.014189959 0.68920481
0.008493836 -0.015100092 0.68866462
0.0084737614 -0.016005963 0.68812615
0.0084544159 -0.016908824 0.68760723
0.0084388908 -0.017815441 0.68719071
0.0084234206 -0.01871869 0.68677574
0.0084082587 -0.019619286 0.68636906
0.0083972206 -0.020526499 0.68607295
0.0083862431 -0.021431506 0.6857785
0.0083757304 -0.022335291 0.68549645
0.008369877 -0.023249656 0.68533945
0.008364032 -0.02416274 0.68518269
0.0083615473 -0.025084585 0.68511599
0.008362975 -0.026018143 0.68515432
0.0083695967 -0.026968688 0.68533194
0.0083849626 -0.02794984 0.68574417
0.0086275684 -0.029717177 0.69225192
0.008641243 -0.030724376 0.69261873
0.0086599542 -0.031753123 0.6931206
0.0086811231 -0.03279534 0.69368851
0.0087085878 -0.033866733 0.69442528
0.0087451506 -0.034980565 0.69540608
0.0087980144 -0.036169618 0.69682407
0.011891222 0.078482062 0.74790037
0.011274878 0.073286712 0.73302054
0.011191505 0.07162571 0.73100775
0.011134078 0.070144713 0.72962129
0.01109079 0.068762898 0.72857618
0.01105306 0.067423671 0.72766536
0.011020536 0.066123217 0.72688019
0.010992354 0.06485495 0.72619975
0.010968017 0.063614517 0.72561228
0.010946373 0.062394351 0.72508973
0.010929302 0.061204076 0.72467762
0.010912378 0.060018063 0.72426903
0.010894985 0.058833003 0.72384912
0.010874007 0.057632238 0.72334266
0.01084831 0.056411237 0.72272223
0.010816556 0.055164486 0.72195566
0.010780619 0.053903103 0.72108811
0.010741553 0.052633613 0.72014493
0.010702815 0.051373512 0.71920967
0.010665446 0.050127625 0.71830755
0.010629737 0.048896819 0.71744549
0.010594311 0.047674417 0.71659017
0.010560369 0.046465635 0.71577078
0.010527662 0.045268953 0.71498114
0.010495113 0.044079512 0.71419537
0.010463859 0.042901844 0.71344084
0.010433747 0.041734993 0.7127139
0.010403766 0.0405747 0.71199
0.010374645 0.039423674 0.71128702
0.010346883 0.038283497 0.71061671
0.010319313 0.037149519 0.70995116
0.010291889 0.03602165 0.70928913
0.010266254 0.034905314 0.70867014
0.01024083 0.033794731 0.70805639
0.01021553 0.032689691 0.70744562
0.010191144 0.031592578 0.70685691
0.010167702 0.030503124 0.70629096
0.010144367 0.029418707 0.70572758
0.010121139 0.028339237 0.70516676
0.010099402 0.02726841 0.704642
0.010077922 0.026202619 0.7041235
0.010056531 0.025141358 0.70360702
0.010035514 0.024085283 0.70309961
0.010015788 0.023036301 0.70262343
0.0099961786 0.02199164 0.70214999
0.0099766059 0.020950854 0.70167744
0.0099577038 0.019915432 0.70122111
0.0099397032 0.018885434 0.70078659
0.0099218069 0.01785928 0.70035452
0.0099039748 0.016836792 0.69992399
0.0098870276 0.015819281 0.69951487
0.009870721 0.014806062 0.69912124
0.0098545076 0.013796329 0.69872981
0.0098383091 0.012789786 0.69833875
0.0098232049 0.011787832 0.69797409
0.009808532 0.010789394 0.6976198
0.0097939018 0.0097939372 0.6972667
0.0097793154 0.0088014305 0.69691443
0.0097659929 0.007812798 0.69659281
0.0097528966 0.0068270564 0.69627661
0.009739873 0.0058439672 0.69596225
0.0097268838 0.0048634708 0.69564861
0.0097153634 0.0038861632 0.69537055
0.0097039072 0.0029112101 0.69509393
0.0096924407 0.0019384921 0.69481719
0.0096812639 0.00096815825 0.6945473
0.0096713835 -0 0.69430882
0.0096615227 -0.00096613169 0.6940707
0.0096516823 -0.0019303262 0.69383317
0.0096425321 -0.0028927326 0.69361222
0.0096343253 -0.0038537085 0.69341409
0.0096260961 -0.0048130155 0.69321537
0.00961788 -0.0057707131 0.69301707
0.0096088676 -0.0067261755 0.69279945
0.0095974393 -0.0076779425 0.6925236
0.009582405 -0.0086241364 0.69216061
0.0095657706 -0.009565711 0.69175899
0.00954617 -0.010500759 0.69128585
0.0095240027 -0.011428803 0.69075066
0.0095007457 -0.012350917 0.69018912
0.0094781769 -0.013269454 0.68964434
0.0094556799 -0.014183491 0.68910122
0.0094347484 -0.015095592 0.68859589
0.0094173457 -0.01600948 0.68817574
0.0094000436 -0.01692009 0.68775803
0.0093838954 -0.017829388 0.68736815
0.0093715219 -0.018743008 0.68706942
0.0093591809 -0.019654244 0.68677151
0.0093484446 -0.020566553 0.68651235
0.009341917 -0.021486402 0.68635476
0.0093353633 -0.02240485 0.68619645
0.0093341451 -0.023335338 0.68616706
0.009335747 -0.024272919 0.68620574
0.0093463846 -0.025235206 0.68646258
0.0093758069 -0.02625224 0.68717289
0.0096340664 -0.027938783 0.69340783
0.0096502313 -0.028950691 0.69379812
0.0096718324 -0.029982626 0.69431955
0.0096977009 -0.031032592 0.69494408
0.0097288126 -0.032105088 0.69569528
0.0097727459 -0.033227295 0.69675589
0.0098380391 -0.034433067 0.69833213
0.013208922 0.081655174 0.75072235
0.012510789 0.076202095 0.73540014
0.01238261 0.07429567 0.73258698
0.012315724 0.072774768 0.73111892
0.012266756 0.071370214 0.73004425
0.012222463 0.070001364 0.72907215
0.012186308 0.068686515 0.72827864
0.012153319 0.067395717 0.72755456
0.012126274 0.066143364 0.72696102
0.012100734 0.064903945 0.72640049
0.012081768 0.063703865 0.72598428
0.012062863 0.0625076 0.72556925
0.012043752 0.061313629 0.72514987
0.012022022 0.060110152 0.72467303
0.011993415 0.058876753 0.72404516
0.011959796 0.057624519 0.72330725
0.01192058 0.05635184 0.72244662
0.01187721 0.055067033 0.72149479
0.011834153 0.053791612 0.72054976
0.011792216 0.052528977 0.71962935
0.011752583 0.051284015 0.71875948
0.011713166 0.050047159 0.71789438
0.011675151 0.048823386 0.71706009
0.011638808 0.047613323 0.71626246
0.011602644 0.04641059 0.7154687
0.011567675 0.045219123 0.71470124
0.011534222 0.044039786 0.71396708
0.011500913 0.042867064 0.71323603
0.011468321 0.041703045 0.71252072
0.011437532 0.040551275 0.71184492
0.011406906 0.039405674 0.7111727
0.011376444 0.038266242 0.71050417
0.011347828 0.037138373 0.70987618
0.011319588 0.036016911 0.70925641
0.011291442 0.034900844 0.70863867
0.011264267 0.033792824 0.70804226
0.01123823 0.032693058 0.70747077
0.011212314 0.031598359 0.70690203
0.011186518 0.030508697 0.70633584
0.011162288 0.029427886 0.70580411
0.011138434 0.02835238 0.70528054
0.011114682 0.027281493 0.70475924
0.011091298 0.026215851 0.70424598
0.011069393 0.02515772 0.70376527
0.011047619 0.02410391 0.70328736
0.011025886 0.023054153 0.70281041
0.011004898 0.02200982 0.70234978
0.010984911 0.020971209 0.70191109
0.01096504 0.019936472 0.70147496
0.010945197 0.018905342 0.70103949
0.010926425 0.017879605 0.70062745
0.010908321 0.016858339 0.70023018
0.01089032 0.015840501 0.69983506
0.010872335 0.01482594 0.6994403
0.01085561 0.013816267 0.69907326
0.010839319 0.012810111 0.69871569
0.010823077 0.011807024 0.69835925
0.010806884 0.010806918 0.69800383
0.010792135 0.0098110735 0.69768023
0.010777638 0.00881809 0.69736201
0.010763138 0.0078277886 0.69704378
0.010748802 0.0068401694 0.69672912
0.010736055 0.0058560669 0.69644934
0.010723295 0.0048742592 0.69616932
0.010710566 0.0038947761 0.69588995
0.010698324 0.0029177368 0.69562131
0.010687315 0.001943171 0.69537967
0.010676368 0.00097057223 0.69513947
0.010665487 -0 0.69490057
0.010655493 -0.00096869469 0.69468129
0.010646341 -0.001935631 0.69448036
0.010637247 -0.0029010475 0.6942808
0.010628127 -0.0038647354 0.69408059
0.010617753 -0.0048262477 0.6938529
0.0106047 -0.0057843626 0.69356644
0.010587647 -0.00673756 0.69319218
0.010569104 -0.007686615 0.6927852
0.010546907 -0.0086292922 0.69229805
0.010521784 -0.009565264 0.69174671
0.010496101 -0.01049608 0.69118297
0.010471021 -0.011422932 0.69063258
0.0104461 -0.012345344 0.69008553
0.010423705 -0.013266534 0.68959415
0.010404394 -0.014187813 0.68917024
0.010385156 -0.015105665 0.688748
0.010368175 -0.016023517 0.68837529
0.010354443 -0.016943634 0.68807399
0.010340747 -0.017861277 0.68777341
0.010330034 -0.018781841 0.68753827
0.01032275 -0.019707054 0.68737841
0.010315475 -0.020630926 0.68721867
0.010315939 -0.021569669 0.68722886
0.010317679 -0.022511303 0.68726707
0.010333098 -0.02348429 0.6876055
0.010379397 -0.024533123 0.6886217
0.010650668 -0.026142508 0.69457531
0.010670201 -0.027160496 0.69500399
0.010694209 -0.028193802 0.69553095
0.010725302 -0.029250801 0.69621336
0.01076259 -0.030330896 0.69703174
0.010815335 -0.031462759 0.69818932
0.010902962 -0.032708824 0.70011252
0.014278288 0.082100183 0.74807787
0.013589505 0.077007204 0.73422062
0.013513956 0.075452954 0.73270071
0.013455688 0.074006319 0.7315284
0.013404321 0.072606772 0.73049498
0.013364461 0.071277112 0.72969311
0.013326198 0.069962561 0.72892326
0.013296392 0.068698049 0.7283237
0.01326672 0.067439169 0.7277267
0.013245765 0.066228807 0.72730511
0.013224934 0.065022618 0.72688603
0.013203936 0.063819051 0.72646356
0.013181499 0.062612146 0.72601223
0.013150148 0.061367393 0.72538149
0.013114876 0.060109884 0.72467184
0.013072275 0.058825254 0.72381479
0.013024748 0.057526022 0.72285867
0.012977287 0.056234926 0.72190374
0.01293067 0.054955363 0.72096598
0.012886931 0.05369556 0.72008598
0.012843488 0.052444279 0.71921194
0.012801264 0.051205099 0.71836245
0.012761215 0.049981445 0.71755672
0.012721363 0.048765242 0.71675497
0.01268256 0.047559649 0.71597433
0.0126457 0.046367586 0.71523279
0.012608999 0.045182288 0.71449441
0.012572881 0.044005096 0.71376771
0.012538957 0.042841434 0.71308529
0.012505217 0.041684061 0.71240646
0.012471606 0.040532768 0.71173024
0.012439978 0.039393306 0.71109396
0.012408818 0.038260549 0.71046704
0.012377866 0.037133634 0.70984435
0.012347777 0.036014378 0.70923901
0.012319099 0.034904182 0.70866203
0.012290554 0.033799022 0.7080878
0.012262141 0.032699078 0.70751613
0.012235355 0.031608015 0.70697725
0.012209082 0.030522704 0.70644867
0.012182922 0.029442102 0.70592237
0.012157121 0.028366625 0.70540327
0.012133045 0.027299374 0.70491892
0.012109017 0.026236236 0.70443553
0.012085084 0.0251773 0.70395398
0.012061923 0.024123847 0.70348805
0.01203996 0.023076624 0.7030462
0.012018031 0.022033066 0.70260501
0.011996228 0.020993441 0.70216638
0.011975557 0.019959271 0.70175052
0.011955622 0.01892975 0.70134944
0.011935801 0.017903745 0.70095068
0.011915999 0.016880989 0.70055228
0.011897628 0.015863508 0.70018268
0.011879691 0.014849603 0.69982183
0.011861807 0.013838828 0.699462
0.011843977 0.012831002 0.69910336
0.011827786 0.011827797 0.69877756
0.011811824 0.010827541 0.69845647
0.011795905 0.0098299682 0.69813621
0.011780214 0.0088351965 0.69782048
0.011766179 0.0078441501 0.69753814
0.01175213 0.0068554282 0.69725549
0.011738116 0.0058690608 0.69697356
0.011724776 0.0048853755 0.69670516
0.011712654 0.0039042532 0.69646132
0.011700602 0.0029251277 0.69621885
0.011688575 0.0019480884 0.69597685
0.0116778 0.00097316504 0.69576007
0.011667725 2.9802322e-08 0.69555742
0.011657711 -0.0009714663 0.69535601
0.011647671 -0.0019412637 0.69515395
0.011635797 -0.0029089451 0.69491506
0.011621069 -0.0038736761 0.69461876
0.011601848 -0.0048340857 0.69423211
0.011580903 -0.0057904124 0.69381064
0.011556339 -0.0067411959 0.69331646
0.011528204 -0.0076854825 0.69275045
0.011500075 -0.0086250901 0.69218457
0.011472477 -0.0095603764 0.69162935
0.011445053 -0.010491282 0.69107753
0.011421367 -0.011421323 0.69060111
0.011400116 -0.012350082 0.69017351
0.011378944 -0.013275445 0.68974757
0.011361245 -0.014201552 0.68939149
0.011346131 -0.015128165 0.68908739
0.0113311 -0.016052336 0.68878496
0.011320545 -0.016980797 0.6885727
0.011312569 -0.017911553 0.68841219
0.011305029 -0.018841714 0.68826056
0.011306986 -0.019787222 0.68829989
0.011308905 -0.020732969 0.68833852
0.011329817 -0.021715462 0.68875921
0.011659116 -0.023318231 0.6953842
0.011677527 -0.024328172 0.69575459
0.011700785 -0.025351703 0.69622254
0.011727248 -0.026386291 0.69675493
0.011764104 -0.027449578 0.69749641
0.011809036 -0.028538465 0.69840038
0.011874334 -0.029685825 0.69971406
0.011985406 -0.030962259 0.70194864
0.015591014 0.085150927 0.75035965
0.014819838 0.079799145 0.73603827
0.014726229 0.078162313 0.73429984
0.014657804 0.07667163 0.73302913
0.014600095 0.075246692 0.73195744
0.014555078 0.073895037 0.73112142
0.014511759 0.07255882 0.73031694
0.014478554 0.071279079 0.72970033
0.014446077 0.07000795 0.72909713
0.014421415 0.068779081 0.72863919
0.014398559 0.067562491 0.72821474
0.01437571 0.066349477 0.72779036
0.014352048 0.065136254 0.72735095
0.014318748 0.063883662 0.72673255
0.014282091 0.062621444 0.72605181
0.014235456 0.061322004 0.72518575
0.01418436 0.060010761 0.72423685
0.014132402 0.05870384 0.72327197
0.014080883 0.057406723 0.72231513
0.014033067 0.056132257 0.72142726
0.013985516 0.054866284 0.7205441
0.013938883 0.05361113 0.71967816
0.013895052 0.052373677 0.71886414
0.013851439 0.051143795 0.71805429
0.013808684 0.049923718 0.71726024
0.013768348 0.04871881 0.71651119
0.01372819 0.047520697 0.71576536
0.013688439 0.046330124 0.71502721
0.013651322 0.045154363 0.71433783
0.013614349 0.04398486 0.7136513
0.013577633 0.042821765 0.71296942
0.013542805 0.041670203 0.71232259
0.013508773 0.04052636 0.7116906
0.013474857 0.039388061 0.71106076
0.013441831 0.038257569 0.71044743
0.013410461 0.037136674 0.70986485
0.013379236 0.036020994 0.70928502
0.013348156 0.034910589 0.70870781
0.013318748 0.033809125 0.70816171
0.013290012 0.03271389 0.70762801
0.0132614 0.031623363 0.7070967
0.013233125 0.030538023 0.70657158
0.013206794 0.029461324 0.70608258
0.013180515 0.028388828 0.70559454
0.013154339 0.027320594 0.70510846
0.01312901 0.026258022 0.70463812
0.013104994 0.025201917 0.7041921
0.01308101 0.024149567 0.70374668
0.013057169 0.023101151 0.70330393
0.013034562 0.022058517 0.70288408
0.013012761 0.021020651 0.70247924
0.012991034 0.019986242 0.70207572
0.012969432 0.01895535 0.70167458
0.012949397 0.017929912 0.70130253
0.012929782 0.016908169 0.70093828
0.012910177 0.015889466 0.70057416
0.012890681 0.014873892 0.70021212
0.012873129 0.013863415 0.69988608
0.012855625 0.012855619 0.69956106
0.012838218 0.011850685 0.69923782
0.012821163 0.010848701 0.69892108
0.012805816 0.009850651 0.69863605
0.012790506 0.0088549852 0.69835174
0.012775183 0.0078616738 0.69806719
0.012760697 0.006871134 0.69779819
0.012747493 0.0058834553 0.69755298
0.012734316 0.0048978031 0.6973083
0.012721167 0.0039142072 0.6970641
0.012709583 0.0029330254 0.69684893
0.012698567 0.0019536614 0.69664437
0.012687619 0.00097596645 0.69644105
0.012676542 -0 0.6962353
0.012663214 -0.0009740591 0.69598782
0.012646719 -0.0019456148 0.69568151
0.012625168 -0.002913475 0.69528127
0.012601736 -0.0038774014 0.69484609
0.012574354 -0.0048362613 0.69433767
0.012543414 -0.0057892799 0.69376302
0.012512818 -0.0067376494 0.69319487
0.012482706 -0.007681638 0.69263566
0.012452691 -0.0086210966 0.69207823
0.012427851 -0.0095598698 0.69161701
0.012404625 -0.010496199 0.69118565
0.012381485 -0.011429042 0.69075596
0.01236327 -0.012363255 0.69041765
0.01234675 -0.013296455 0.69011086
0.012330273 -0.014227211 0.68980485
0.012320184 -0.015163302 0.68961751
0.012311417 -0.016099513 0.68945467
0.012305361 -0.017038196 0.68934226
0.012307456 -0.017987788 0.68938112
0.012313747 -0.018944204 0.68949795
0.012336774 -0.019928604 0.68992561
0.012694651 -0.021483243 0.69657165
0.012715248 -0.022496194 0.69695419
0.012742098 -0.023523867 0.69745278
0.012773125 -0.0245637 0.69802904
0.012814293 -0.025628567 0.69879353
0.012867729 -0.026725262 0.69978589
0.012946974 -0.027885765 0.70125753
0.016066641 0.082628489 0.73788023
0.015952921 0.080904096 0.73591912
0.015873319 0.079366624 0.73454648
0.01581048 0.077923119 0.73346287
0.015758481 0.076541185 0.73256618
0.015711261 0.07518962 0.73175192
0.015672944 0.073886782 0.73109114
0.015637608 0.072603226 0.7304818
0.015608827 0.071354628 0.72998548
0.015584032 0.070128173 0.72955787
0.015559249 0.068905264 0.72913057
0.015533716 0.067682654 0.72869027
0.015499278 0.066425472 0.72809637
0.015461168 0.065157801 0.72743917
0.015410759 0.063844591 0.72656989
0.015356301 0.062522143 0.72563082
0.015299685 0.061198771 0.72465456
0.015243554 0.059885383 0.72368658
0.015191059 0.058594078 0.7227813
0.015139316 0.057313144 0.72188902
0.015088187 0.056041867 0.72100735
0.0150405 0.054790437 0.72018504
0.014993049 0.053546637 0.71936679
0.014946216 0.052311778 0.71855915
0.014902273 0.051093519 0.71780139
0.014858651 0.049882621 0.71704918
0.014815286 0.048678845 0.71630132
0.014774725 0.047490209 0.71560192
0.014734573 0.046308696 0.71490955
0.014694639 0.045133561 0.71422088
0.014656575 0.04396975 0.71356446
0.014619503 0.042814314 0.7129252
0.014582678 0.041664809 0.71229017
0.014546581 0.040522635 0.71166766
0.014512465 0.039391011 0.71107936
0.014478511 0.038264662 0.71049392
0.014444714 0.037143558 0.70991111
0.014412676 0.036031723 0.70935863
0.014381371 0.034926236 0.70881873
0.014350319 0.033825755 0.70828331
0.014319459 0.032730222 0.70775115
0.01429083 0.031644017 0.70725745
0.014262258 0.030562013 0.70676476
0.0142338 0.029484302 0.70627403
0.01420626 0.028412521 0.7057991
0.014180091 0.027347356 0.70534778
0.014154076 0.026286155 0.70489919
0.014128098 0.025228769 0.7044512
0.014103523 0.024177492 0.70402747
0.01407988 0.023131281 0.70361972
0.014056261 0.022088408 0.7032125
0.014032776 0.021049172 0.70280749
0.014010997 0.020015717 0.70243192
0.013989675 0.018985987 0.70206422
0.013968418 0.017959416 0.70169771
0.013947281 0.016936034 0.70133317
0.013928201 0.015917957 0.70100415
0.01390923 0.014902771 0.70067698
0.013890254 0.013890266 0.70034975
0.01387188 0.012881011 0.70003289
0.013855198 0.011875898 0.69974524
0.013838502 0.010873109 0.69945735
0.013821846 0.0098727345 0.69917005
0.013806317 0.0088754892 0.69890231
0.013791965 0.0078811646 0.69865483
0.013777642 0.0068888366 0.69840789
0.01376335 0.0058985949 0.69816136
0.013750975 0.0049110949 0.69794798
0.013739001 0.0039254427 0.69774151
0.013727047 0.0029415488 0.69753534
0.013714953 0.0019592941 0.69732678
0.013700039 0.00097861886 0.69706964
0.013681683 -0 0.69675308
0.013657728 -0.00097554922 0.69634002
