# .PCD v0.7 - Point Cloud Data file format
VERSION 0.7
FIELDS x y z
SIZE 4 4 4
TYPE F F F
COUNT 1 1 1
WIDTH 629
HEIGHT 1
VIEWPOINT 0 0 0 1 0 0 0
POINTS 629
DATA ascii
0.028713247 0.051218271 0.64817202
0.030470926 0.046487316 0.64944482
0.030470926 0.046487316 0.64944482
0.010164082 0.057465881 0.64957678
0.010164082 0.057465881 0.64957678
0.029042792 0.046311527 0.65032226
0.022538614 0.048222244 0.65063584
0.036153305 0.050300241 0.65056396
0.014400505 0.051318299 0.65045428
0.011811757 0.05275923 0.65092826
0.022488054 0.047343329 0.65131557
0.0094968136 0.053815275 0.65188205
0.019307043 0.046283286 0.65237296
0.015051477 0.048323154 0.65207082
0.03338448 0.052461356 0.65271914
0.0063670399 0.057303399 0.65296328
0.0063531282 0.058369115 0.65254349
0.031190736 0.040787905 0.65390068
0.004783086 0.06138292 0.6532774
0.027282134 0.040521607 0.65454119
0.020453162 0.043312624 0.6544615
0.013623137 0.045677602 0.65428656
0.011223548 0.047299266 0.65436405
0.0085675027 0.049532354 0.65473759
0.0024059403 0.063356459 0.65443605
0.0024059403 0.063356459 0.65443605
0.0064359978 0.052292496 0.65504432
-0.00080707879 0.063355371 0.65566695
0.0040304693 0.066099733 0.65542918
0.03001464 0.037315518 0.65666348
0.025688788 0.038668983 0.65667093
0.016206 0.041325331 0.65644467
0.016206 0.041325331 0.65644467
0.020217359 0.041243464 0.656057
0.014574826 0.042105108 0.65630281
0.0089246025 0.045434356 0.65669262
-0.00080925936 0.06231299 0.65619338
0.039118275 0.048897862 0.6575706
0.041610882 0.051401675 0.6577965
0.024523135 0.037602156 0.6581679
0.011456799 0.040507495 0.65838635
0.025502479 0.033729106 0.65942878
0.026298417 0.033694863 0.65922713
0.02958028 0.034510344 0.65919065
0.017320411 0.036290377 0.65994078
0.013138419 0.038594157 0.65906435
0.04274293 0.051784724 0.65926433
-0.0032844539 0.061583549 0.65905523
0.028134488 0.032271922 0.66059345
0.017367477 0.035561949 0.66048181
0.020683702 0.035575986 0.66056043
0.011576327 0.03720963 0.66044754
0.0066252919 0.040579915 0.66075683
0.039729923 0.047179312 0.66064698
0.0016547182 0.050468922 0.66056305
0.00082779326 0.05339241 0.6606679
0.026595635 0.030751199 0.66146946
0.026677256 0.030011952 0.66208524
0.030052973 0.032557428 0.66236061
0.033438276 0.039289981 0.66263878
0.036752384 0.04259938 0.66247571
0.038445409 0.044295818 0.66259354
0.0016747117 0.072849959 0.6629765
0.024380835 0.027743727 0.66378826
0.0092182262 0.034358889 0.66313696
0.0041953167 0.038596928 0.66338873
0.040198598 0.04606092 0.66300422
-0.0042008655 0.052510411 0.66365659
0.027797984 0.02864033 0.6641854
0.013510837 0.030399412 0.6646837
0.013474497 0.031159818 0.6641354
0.013474497 0.031159818 0.6641354
0.02020379 0.03114751 0.66405535
0.0016871577 0.040491849 0.66447878
0.0016871577 0.040491849 0.66447878
0.019527616 0.028866947 0.66579407
0.0084713502 0.031344026 0.66533744
-0.0053689345 0.050577633 0.66546679
0.021253655 0.026354551 0.66606432
0.0093515767 0.029755026 0.66606367
0.0042544901 0.033185065 0.66624582
0.00085365033 0.036706984 0.66691029
0.036675181 0.039233953 0.66673189
0.04174298 0.046002477 0.66648722
-0.0042541716 0.048497587 0.6662305
0.015408188 0.026536345 0.66748011
0 0.036431327 0.66777128
-0.0017088985 0.042722493 0.66710317
-0.0034212365 0.046613872 0.66731077
0.0025731642 0.076337218 0.66789317
0.0068942714 0.026715338 0.66887391
0.034442171 0.035303265 0.66869777
0.035320487 0.036181986 0.6687994
0.04039184 0.042970031 0.6682986
-0.005160287 0.045582563 0.66845483
0.015595324 0.023393005 0.66999
0.032188818 0.031318903 0.6708498
0.032188818 0.031318903 0.6708498
-0.0026033318 0.036446661 0.67032087
-0.0043508541 0.040898055 0.67089874
0.019168893 0.019168913 0.67117453
0.011364079 0.020979851 0.67186177
0.0183054 0.020484313 0.67126441
0.012199365 0.021784604 0.67119139
0.0017462454 0.026193708 0.67161137
0.0017424931 0.027008682 0.67115843
-0.0026236349 0.03235817 0.67195469
-0.0078446344 0.042709678 0.67125005
0.020158717 0.016652852 0.67241853
-0.0026320906 0.030707747 0.6726352
-0.0052665449 0.038621336 0.67273033
-0.0096287457 0.045517713 0.6721468
0.0052607125 0.078910708 0.6724956
-0.0026461496 0.028225601 0.67376655
-0.0087913321 0.040440172 0.67306244
-0.0096800234 0.04136011 0.67327219
0.019455308 0.014149308 0.67431754
0.0017696276 0.021235526 0.67443383
0.0044457517 0.017783016 0.67548078
0.02844836 0.024003297 0.67544723
-0.0035593843 0.025805563 0.67564875
0.03384256 0.02938959 0.67582917
-0.0053297873 0.031090468 0.67527497
-0.0062246718 0.033791095 0.67550206
-0.0071029784 0.036402822 0.67517221
-0.0097762402 0.037327468 0.67538399
0.048903961 0.064908922 0.67548382
0.010743996 0.014325351 0.6769734
0.010743996 0.014325351 0.6769734
0.0084845629 0.015183091 0.6764394
0.0035751131 0.016534358 0.67659807
-0.00089262729 0.020530462 0.6763202
0.030368073 0.025009006 0.67645335
-0.0098452456 0.03490594 0.67689836
0.016128866 0.011648655 0.67714608
-0.0044889227 0.023342431 0.67756528
0.029632738 0.02334702 0.67760807
-0.0062827328 0.027823597 0.6775046
0.04310026 0.062405244 0.67759848
0.042621195 0.063708633 0.67744923
0.042171963 0.066398412 0.67744243
0.010810541 0.012612313 0.67831218
0.03610469 0.030689001 0.67873204
0.04153733 0.065014958 0.67882085
0.0027233863 0.011801362 0.67998207
0.0027233863 0.011801362 0.67998207
0.003627128 0.01178816 0.67973739
0.0081340028 0.011749119 0.67901224
0.0018086603 0.013564974 0.67914557
-0.0027204838 0.016322911 0.67974854
0.012765229 0.0091180503 0.68094939
-0.0054652551 0.018217504 0.68072581
0.012767277 0.082075387 0.68098474
0.0054775402 0.0091292262 0.68122011
0.0054775402 0.0091292262 0.68122011
-0.0027448901 0.012809515 0.68171257
0.031110005 0.02196002 0.68172145
0.031110005 0.02196002 0.68172145
-0.013730627 0.030207396 0.68181199
0.014645412 0.078719109 0.68180311
0.014645412 0.078719109 0.68180311
0.0027605284 0.0073614419 0.68297112
0.026610918 0.016517133 0.68235344
0.02845607 0.018358767 0.68243062
-0.0082760453 0.019310802 0.68282247
-0.0091706952 0.023843825 0.68222106
0.040373854 0.063313574 0.68234617
0.013771779 0.078498766 0.68247437
0.025834773 0.014762729 0.68357325
-0.014780826 0.027714074 0.68384629
0.03782684 0.073808491 0.68355769
0.041446954 0.0736835 0.68318045
0.038668163 0.074574351 0.68309045
0.017637877 0.0018566251 0.68493462
0.010199064 0.0046359301 0.68466377
0.0036988941 0.005548358 0.68406892
-0.0027841632 0.007424444 0.6848731
-0.0074073984 0.013888896 0.68435895
0.040797014 0.068613172 0.684668
0.014838908 0.075121969 0.68472278
-0.002797978 0.0055959821 0.68598479
0.012108591 0.074514419 0.68568802
-0.0018718502 0.0037437379 0.68677318
-0.0065419069 0.0084110498 0.68644321
-0.0065419069 0.0084110498 0.68644321
-0.0093613174 0.012169719 0.68682307
-0.01123989 0.016859859 0.68695003
-0.013110505 0.021538705 0.68690348
0.04021319 0.063592941 0.68659586
0.020579189 0.084187597 0.68665075
0.012215651 -0.0028189719 0.68767619
0.024392636 0.010319978 0.68731719
-0.010321278 0.013136208 0.68734604
0.034797553 0.067714185 0.68787146
0.025392044 0.078997493 0.68786466
0.021564921 0.079696476 0.68717885
0.014140552 -0.0037707984 0.68840969
-0.0066157505 0.0037804544 0.68899
0.013281122 -0.0056918859 0.68984568
0.0047377786 -0.0018950999 0.6895811
0.0075612292 -0.00094515085 0.6890012
-0.0018919798 2.9802322e-08 0.68920308
0.024675047 0.0085413754 0.6899395
0.027428834 0.012295693 0.68916249
-0.0028572334 -0.0019048154 0.69075334
-0.012348155 0.011398315 0.69013691
-0.013292261 0.015191197 0.69003773
-0.013292261 0.015191197 0.69003773
0.027604578 0.076150566 0.69062555
0.0095663192 -0.0076530278 0.69177228
0.00095742638 -0.0047871172 0.69196415
0.00095742638 -0.0047871172 0.69196415
-0.0095703444 0.0019141138 0.69186944
0.02385796 0.0066802502 0.69121373
0.02385796 0.0066802502 0.69121373
-0.016227746 0.016227722 0.6912753
-0.010560911 0.0019201934 0.69260544
0.022025444 0.073737383 0.69201273
0.012515466 -0.0096272826 0.69324404
0.0019264275 -0.0067424476 0.69336122
-0.0096576819 -0.0019315183 0.69397795
-0.012518983 0.0038520098 0.69330937
-0.0038684935 -0.0067698359 0.69430512
-0.018425776 0.01163736 0.69494593
-0.017441055 0.011627376 0.69474554
-0.0048552305 -0.0077683628 0.69525218
-0.0097260522 -0.004862994 0.69562852
-0.01261738 2.9802322e-08 0.69513667
-0.015568462 0.0058381855 0.69573087
-0.015568462 0.0058381855 0.69573087
-0.0097738523 -0.0068416893 0.69678259
-0.012669382 -0.0019491315 0.69610238
0.020505864 -0.00097641349 0.69656157
0.020505864 -0.00097641349 0.69656157
-0.014659301 0.00048823655 0.69675887
0.0068730321 -0.015709758 0.69786334
0.0048950729 -0.011748135 0.69717586
-0.019579142 0.0088106394 0.69716203
-0.0059008971 -0.011801779 0.6982547
-0.013807243 -0.0059173703 0.69891834
-0.014785548 -0.0039427876 0.69879073
-0.021640366 0.0088528991 0.69829577
0.0069340449 -0.018820971 0.6999675
0.0004947267 -0.014840066 0.69966877
-0.013867431 -0.0079242289 0.69995624
-0.012927726 -0.010938823 0.70090008
-0.018872615 0.0029798746 0.70062363
-0.021838974 0.0049634278 0.70047522
0.0049929419 -0.020970315 0.70190144
-0.010968711 -0.013960183 0.70155561
-0.0050021666 -0.018007785 0.70234686
-0.023998788 0.0049997568 0.7022301
0.0040235184 -0.023135185 0.70366174
0.0040132562 -0.022072881 0.70304233
-0.010034025 -0.017057806 0.70306373
-0.019133175 -0.0060420632 0.70393443
-0.022146359 2.9802322e-08 0.70384836
-0.0050512101 -0.021215051 0.70471489
-0.01716157 -0.012114048 0.70453674
0.021223908 -0.0060639381 0.7048164
-0.012151511 -0.019239873 0.70529044
-0.018279724 -0.013201982 0.70599401
0.0030571939 -0.027514726 0.70684487
0.0010195714 -0.025489241 0.70696718
-0.0081759961 -0.024527967 0.70755339
-0.022513235 -0.0061399639 0.7078743
-0.022513235 -0.0061399639 0.7078743
-0.025497181 -0.0030596554 0.70704347
-0.0030835457 -0.026724041 0.70896548
-0.0082019297 -0.025631011 0.708336
-0.014351377 -0.022552162 0.7083016
-0.01643781 -0.021574587 0.7088483
0.015363507 -0.015363455 0.70809281
0.013396596 -0.018549114 0.70960742
-0.025767352 -0.0072148442 0.70965248
-0.015535682 -0.025892794 0.71086389
-0.0031176293 -0.030137062 0.71170837
-0.012470881 -0.02909866 0.71171564
-0.010435968 -0.031307906 0.71276748
-0.020816447 -0.021857232 0.71209764
0.014729925 -0.021042705 0.71482933
-0.026238885 -0.013644189 0.71420598
-0.015848782 -0.033810705 0.71590322
-0.019029871 -0.031716436 0.71605521
-0.02019264 -0.032945871 0.71739644
0.0095688365 -0.028706491 0.71750104
-0.02449231 -0.027686924 0.71790636
-0.015992988 -0.037316948 0.71822417
-0.021369154 -0.034190625 0.71876943
-0.024545174 -0.028813899 0.71846133
-0.028839614 -0.019226372 0.71869123
-0.012881679 -0.040791959 0.7199803
-0.0032268856 -0.045176387 0.72050065
-0.024705254 -0.032224208 0.72014159
0.01612597 -0.022576362 0.72036445
-0.017244384 -0.040955395 0.72101855
-0.017244384 -0.040955395 0.72101855
-0.033446729 -0.01834175 0.72129691
-0.0054277088 -0.047763795 0.72289389
-0.0065039936 -0.045527905 0.72252142
-0.014109348 -0.044498712 0.72284383
-0.031426847 -0.023840994 0.72244543
-0.025057701 -0.039220721 0.72384107
-0.028421152 -0.03497988 0.7247237
-0.028421152 -0.03497988 0.7247237
0.013117569 -0.029514492 0.72472596
-0.020869059 -0.046131581 0.72599125
0.0065884357 -0.038432539 0.72591913
-0.014284035 -0.048345983 0.72608793
-0.02418945 -0.043980807 0.72626865
-0.030795233 -0.031895012 0.72634327
-0.031918216 -0.029716969 0.7265361
0.0055265543 -0.040896475 0.72766656
-0.017734258 -0.050985962 0.72841018
-0.036628671 -0.029968917 0.72878891
-0.006684314 -0.051246375 0.72977692
-0.0055561587 -0.050005406 0.72909594
-0.031114489 -0.037781864 0.72909594
0.0078107826 -0.040169716 0.73020518
-0.01567575 -0.054865152 0.7311396
-0.026903059 -0.050443232 0.73144478
-0.030282358 -0.045984298 0.73159158
-0.019124199 -0.056247592 0.73240852
-0.022495616 -0.055114239 0.73236704
-0.0090016471 -0.055135041 0.73246956
-0.015796432 -0.057544142 0.7332207
-0.0056379978 -0.054124773 0.73304749
-0.015859591 -0.058907032 0.73430973
-0.023811273 -0.057827383 0.73456132
-0.0056965114 -0.056965113 0.73587281
-0.031905115 -0.05241552 0.73591286
-0.015988456 -0.061669767 0.73653197
-0.0022808688 -0.054740816 0.73614615
-0.019482503 -0.063031614 0.73749697
-0.027540034 -0.06081754 0.73785222
-0.01029752 -0.060640931 0.73704767
-0.035562102 -0.048180878 0.73777092
-0.03671718 -0.042454243 0.73783064
-0.029895918 -0.059791803 0.73841757
-0.0057584513 -0.059887886 0.73886353
-0.035627611 -0.049418926 0.73828113
-0.017334485 -0.06587103 0.73981524
-0.01158313 -0.0648655 0.74046242
-0.037132721 -0.052217871 0.74096566
-0.037012894 -0.049736023 0.74006158
-0.038269687 -0.045227826 0.7407943
-0.024391316 -0.067366451 0.74122965
-0.017558502 -0.070234001 0.74342072
-0.028080728 -0.069031745 0.74329114
-0.031589344 -0.066688567 0.74327797
-0.0023405314 -0.060853839 0.74334806
-0.037414897 -0.057291538 0.7430945
-0.038614433 -0.053826153 0.74331629
-0.0082265697 -0.066987783 0.74454516
-0.035428815 -0.067314744 0.74593008
-0.023660982 -0.074532062 0.74643421
-0.020128397 -0.074593455 0.74666941
-0.028372653 -0.073295981 0.74622774
-0.033146378 -0.071027935 0.74661535
-0.02375602 -0.076019257 0.74758136
-0.038001154 -0.066502005 0.74751747
-0.040320337 -0.059294611 0.74712068
-0.041507807 -0.046251535 0.74713147
-0.026249895 -0.077556491 0.74887931
-0.010734549 -0.07275638 0.74877083
-0.027459966 -0.077604204 0.74905664
-0.032406345 -0.078015268 0.75058329
-0.014401715 -0.076809108 0.75056106
-0.012016822 -0.075705945 0.75093263
-0.039560311 -0.069530219 0.75023615
-0.043195821 -0.052794874 0.75049853
-0.042073019 -0.064912647 0.75103021
-0.018143667 -0.081041723 0.75283879
-0.015939368 -0.083375126 0.7568289
0.033393349 0.048926309 0.64830625
0.022933681 0.053639963 0.64849949
0.011174791 0.057047244 0.64905655
0.017186243 0.056509029 0.64942431
0.027694235 0.045497403 0.65184891
0.012820367 0.052851826 0.65031981
0.010708456 0.054724213 0.65057588
0.010708456 0.054724213 0.65057588
0.011061975 0.049091768 0.65343148
0.011061975 0.049091768 0.65343148
0.037172742 0.051241528 0.65312183
0.037172742 0.051241528 0.65312183
0.028970199 0.04018439 0.65420425
0.028970199 0.04018439 0.65420425
0.013320636 0.043595701 0.65572691
0.0056426888 0.053000167 0.65543026
0.0040304693 0.066099733 0.65542918
0.035888117 0.045675784 0.65773356
0.0024262557 0.060656428 0.65607089
0.02455095 0.037030168 0.65839171
0.019216813 0.038433641 0.65824008
0.036579907 0.045073327 0.6592747
0.0042972788 0.048909649 0.65844291
0.041424543 0.050447688 0.65885478
0.0024542431 0.054402173 0.65832317
-0.0012347751 0.057202972 0.6595279
0.024816871 0.032538302 0.66053641
0.011369035 0.035493206 0.66165447
0.025053963 0.026601493 0.66470432
0.007265348 0.033031825 0.66478205
0.0067367726 0.034525961 0.66412103
0.042409744 0.047498941 0.66559327
0.016810577 0.028088346 0.66630948
0.016810577 0.028088346 0.66630948
-0.0052524651 0.048828647 0.66643029
-0.0030232058 0.041014239 0.66927928
0.023079239 0.018831782 0.671076
0.023079239 0.018831782 0.671076
0.012586779 0.022857612 0.67038172
-0.0017340148 0.034680307 0.67013502
-0.0043659275 0.038856521 0.67162657
0.028153334 0.025513947 0.67322141
-0.0013210757 0.026848279 0.67334044
-0.0013210757 0.026848279 0.67334044
-0.0013210757 0.026848279 0.67334044
0.033428438 0.030789405 0.67319822
-0.0061744358 0.03792873 0.67376959
0.017031437 0.014814565 0.67499012
0.0050392961 0.017488778 0.67551208
0.0053163851 0.080631852 0.67473567
0.017517531 0.0098818243 0.67770028
-0.0014895061 0.020848751 0.6765368
-0.0062873266 0.027394488 0.67766309
0.03757951 0.034000516 0.67683274
0.016698221 0.0086865984 0.67873043
-0.0035998709 0.020699292 0.6780923
-0.011708046 0.034223527 0.67824954
0.0050299633 0.0086877123 0.68161643
0.0050299633 0.0086877123 0.68161643
0.045184635 0.070747644 0.68120295
0.008776661 0.0055431277 0.68385828
0.014659679 0.0045811534 0.6820184
-0.0046124477 0.011530653 0.68352962
-0.0033146718 0.010954293 0.68308318
0.024466489 0.013387293 0.68371755
-0.010597331 0.025339253 0.68327689
0.04117538 0.071135856 0.68337631
0.009215842 0.076951474 0.68331099
0.015576595 0.082464337 0.68202811
-0.015773706 0.029227763 0.68482739
-0.015773706 0.029227763 0.68482739
0.040603738 0.067260578 0.68531322
0.015428065 0.075093463 0.6851961
0.015428065 0.075093463 0.6851961
-0.0014050473 0.0032770336 0.68690467
-0.0052977232 0.0068553491 0.68651408
-0.011232346 0.017316237 0.68679827
0.035469484 0.026135415 0.68616539
0.023015201 0.07937824 0.68761081
0.021503111 0.080402941 0.68653005
0.022895744 0.080835201 0.68643349
0.010849595 -0.0033027157 0.68859971
0.0052034259 -0.0014198869 0.68922335
-0.009423811 0.0089521855 0.68833184
0.03727524 0.067000553 0.68864834
0.02498417 0.078252509 0.68843317
0.0085575394 -0.0033284575 0.69037342
-0.0052526686 -0.0014330149 0.69136602
-0.014648488 0.014966508 0.69145429
-0.019131321 0.020566195 0.69175637
0.018635765 0.073585123 0.69153535
0.023367871 0.074872144 0.69108671
0.023280285 0.076017365 0.69022357
0.0012040654 -0.0067438781 0.69341004
0.0071955901 -0.0057567954 0.69245714
-0.0111958 0.0031986337 0.6924879
-0.014477023 0.0077210963 0.69382507
-0.014477023 0.0077210963 0.69382507
0.025494058 0.0072156191 0.69307435
0.025494058 0.0072156191 0.69307435
-0.015338546 0.014379919 0.6922617
-0.0072642155 -0.0053273439 0.69463724
0.017593073 -0.0039095581 0.69678444
-0.0014840727 -0.014840335 0.69967246
0.0049184971 -0.013771743 0.69830692
0.0049184971 -0.013771743 0.69830692
-0.021640366 0.0088528991 0.69829577
0.0012458139 -0.016940437 0.70139664
-0.0093114134 -0.015297672 0.70167398
-0.015879285 -0.0054589808 0.70042074
0.023862399 -0 0.70085812
0.009018722 -0.021043658 0.70274442
0.000667863 -0.018709918 0.70279193
0.016995879 -0.0089978278 0.70218378
-0.02010054 -0.0010050237 0.70345587
-0.02010054 -0.0010050237 0.70345587
-0.018990083 -0.00099942088 0.70211625
-0.018990083 -0.00099942088 0.70211625
-0.0065621771 -0.0206962 0.70454383
-0.012654228 -0.018728167 0.70521104
-0.01467383 -0.016697638 0.70512509
-0.015145251 -0.015145242 0.70458007
-0.01854657 -0.010452986 0.70503986
-0.024358826 -0.0020298958 0.70585179
-0.0086909635 -0.024538562 0.70765984
-0.0010244939 -0.025612295 0.70815563
0.018498005 -0.012331992 0.70892161
0.01958335 -0.011337698 0.70965457
0.016636133 -0.016636103 0.71184075
-0.023850081 -0.010888547 0.71116519
-0.025355581 -0.0087975189 0.71067083
-0.019794485 -0.023961723 0.71233726
0.011477027 -0.022954047 0.71271175
0.00052846904 -0.039085045 0.71584725
-0.0028054956 -0.035411231 0.71475208
-0.013267182 -0.036617622 0.71705484
0.0074495198 -0.030862302 0.71774566
-0.026598822 -0.020747438 0.71768188
-0.029206272 -0.016992569 0.717219
-0.029206272 -0.016992569 0.717219
-0.0053400761 -0.039516538 0.71866262
-0.023197321 -0.032832526 0.71929169
-0.022940677 -0.031475976 0.7184158
0.012878196 -0.026829571 0.71991026
-0.017189806 -0.039751381 0.72019506
-0.023309855 -0.035143584 0.72054648
0.0010827088 -0.044391036 0.72220993
-0.0093146078 -0.047122091 0.72538555
-0.026599756 -0.038623415 0.72472167
-0.028507063 -0.036730796 0.72552145
-0.02901727 -0.034490228 0.72516686
-0.031308822 -0.026940525 0.72449225
-0.017235562 -0.052262247 0.72927248
-0.022550665 -0.049168061 0.7285676
-0.026722604 -0.04732196 0.72962952
-0.029927716 -0.039349943 0.7284205
-0.027888937 -0.046853393 0.73014027
-0.031255916 -0.040744811 0.73031539
-0.028833479 -0.052578226 0.73380053
-0.0067474106 -0.053979278 0.73231578
-0.031168561 -0.046939384 0.73279303
-0.0056965114 -0.056965113 0.73587281
0 -0.052380949 0.73573136
-0.031720586 -0.049280837 0.73432183
0.0034191837 -0.04900831 0.73597556
-0.012956537 -0.061352801 0.73681438
-0.029020641 -0.058804672 0.7373783
-0.013222415 -0.063239619 0.73841006
-0.03109448 -0.0593106 0.73885316
-0.016190968 -0.065920383 0.74002421
-0.032853037 -0.066879392 0.74408603
-0.038960475 -0.060211599 0.74584794
-0.0011797855 -0.061348826 0.7456463
0.0011741433 -0.057533026 0.74428415
-0.026652399 -0.074625939 0.74679399
-0.024851553 -0.074554652 0.74652076
-0.0083246455 -0.070164859 0.74792761
-0.03782323 -0.06382665 0.74617511
-0.039037298 -0.061513305 0.74640989
-0.029242735 -0.076986045 0.74897313
-0.020988166 -0.079156488 0.75036734
-0.039560311 -0.069530219 0.75023615
-0.039560311 -0.069530219 0.75023615
-0.039560311 -0.069530219 0.75023615
-0.0036180804 -0.068743497 0.7519815
-0.043377768 -0.060849681 0.75171864
-0.043195821 -0.052794874 0.75049853
-0.015224373 -0.081608355 0.75488067
-0.011000657 -0.079449177 0.75590909
-0.011000657 -0.079449177 0.75590909
-0.044988859 -0.060795724 0.75436878
0.018208439 0.053787895 0.64755291
0.021932259 0.045478303 0.65278387
0.0069410955 0.051097721 0.65519607
0.031237062 0.053718634 0.65294921
0.02918952 0.034921996 0.65863776
0.02918952 0.034921996 0.65863776
0.025440395 0.027752943 0.66385567
0.001957777 0.045863055 0.66199321
0.0015826224 0.038080689 0.66569793
0.04167752 0.046140097 0.66616178
0.04167752 0.046140097 0.66616178
-0.0057499688 0.049922302 0.66620219
0.018232822 0.01436805 0.67463315
0.0027174153 0.018727999 0.67556256
0.013896746 0.017990582 0.67417455
-0.0044501009 0.027590662 0.67569077
0.0053187795 0.080632702 0.67473793
0.022357609 0.013264949 0.67672193
0.04463068 0.062928915 0.67631692
0.017747335 0.0034569129 0.68338418
0.017747335 0.0034569129 0.68338418
0.014027867 0.081822008 0.68170726
0.014027867 0.081822008 0.68170726
0.014027867 0.081822008 0.68170726
0.026249433 0.013448573 0.68580687
0.026249433 0.013448573 0.68580687
0.025901031 0.079346865 0.68752098
0.028138634 0.079256639 0.68726313
-0.0094966777 0.0029170101 0.69135082
-0.0099757388 0.0061718402 0.69012344
0.03734868 0.065836564 0.68911242
0.03734868 0.065836564 0.68911242
0.03734868 0.065836564 0.68911242
0.022008052 0.074296542 0.69152397
-0.012867272 -0.0089081228 0.69977742
0.0053706709 -0.011231273 0.69658911
0.017658107 -0.0058135292 0.69912481
0.009023021 -0.021054458 0.70286602
-0.0024827984 -0.015887417 0.70054376
-0.013916157 -0.017969018 0.70542425
-0.013765968 -0.028310835 0.71164048
0.0013366538 -0.03038059 0.70943934
0.01015078 -0.025483316 0.71431065
-0.025884017 -0.011291688 0.71245265
-0.0053587602 -0.041606806 0.71948612
0.0008889552 -0.041418944 0.71830738
-0.025675243 -0.026118122 0.71846747
-0.032009505 -0.013870642 0.71841353
0.01906532 -0.015887767 0.71653068
-0.014034538 -0.046662863 0.72484958
-0.025616243 -0.042100489 0.72615492
-0.027257524 -0.035979897 0.72404289
-0.017910156 -0.0602687 0.7353521
-0.030235309 -0.049997978 0.7334978
-0.022132076 -0.06220096 0.73719209
-0.0024481313 -0.057319894 0.73896945
-0.036713768 -0.042260319 0.73780489
0.0091651706 -0.042388916 0.73740441
-0.036150135 -0.077120304 0.75173473
-0.0072227209 -0.07222721 0.75144076
-0.0036180804 -0.068743497 0.7519815
-0.016887305 -0.07961157 0.75203204
-0.041892573 -0.073052675 0.75395405
-0.008488344 -0.075182468 0.75357342
