# .PCD v0.7 - Point Cloud Data file format
VERSION 0.7
FIELDS x y z
SIZE 4 4 4
TYPE F F F
COUNT 1 1 1
WIDTH 1320
HEIGHT 1
VIEWPOINT 0 0 0 1 0 0 0
POINTS 1320
DATA ascii
-0.018496335 0.088371426 0.70889926
-0.018486766 0.087298661 0.70877093
-0.018477209 0.08622697 0.70864272
-0.018467737 0.085156828 0.7085157
-0.018458201 0.084087372 0.70838779
-0.018448822 0.083019704 0.70826197
-0.018439531 0.081953496 0.70813739
-0.018430701 0.080890328 0.70801896
-0.018422106 0.079829127 0.70790362
-0.018413518 0.078768969 0.70778847
-0.018404864 0.077709466 0.70767242
-0.018396292 0.076651245 0.70755744
-0.018387729 0.075594038 0.70744264
-0.0183791 0.074537486 0.70732689
-0.018370776 0.073483109 0.70721525
-0.018362386 0.072429419 0.70710272
-0.018354004 0.071376711 0.70699024
-0.018345706 0.070325226 0.7068789
-0.01833801 0.069276929 0.70677578
-0.018330397 0.068229824 0.70667362
-0.018322714 0.067183286 0.70657057
-0.018315114 0.06613791 0.70646864
-0.018307518 0.065093428 0.70636678
-0.018300153 0.064050525 0.70626801
-0.018292794 0.063008517 0.70616931
-0.01828544 0.061967343 0.70607066
-0.018278092 0.060926974 0.70597214
-0.018270751 0.059887469 0.70587361
-0.018263564 0.058849305 0.70577723
-0.018256899 0.057813525 0.70568788
-0.01825024 0.05677855 0.70559859
-0.018243734 0.055744737 0.70551133
-0.018237378 0.054712176 0.7054261
-0.018230956 0.053680062 0.70533991
-0.01822461 0.052648872 0.70525485
-0.018218197 0.051618218 0.70516878
-0.01821186 0.050588518 0.70508379
-0.018205527 0.049559534 0.70499885
-0.018199127 0.048531026 0.70491302
-0.018193245 0.047504604 0.7048341
-0.018187882 0.046480179 0.70476216
-0.01818252 0.04545632 0.70469028
-0.018177235 0.044433296 0.70461941
-0.01816587 0.043396264 0.70446694
-0.018139673 0.042325914 0.70411557
-0.018134341 0.041306049 0.70404404
-0.018129012 0.04028669 0.70397258
-0.018123759 0.039268166 0.70390218
-0.018118436 0.038250059 0.70383072
-0.018113116 0.037232548 0.70375943
-0.01810758 0.036215186 0.70368516
-0.01810183 0.035198003 0.70360804
-0.018095285 0.034180015 0.70352024
-0.018088015 0.033161372 0.70342273
-0.018080534 0.032143176 0.70332241
-0.018071756 0.031123608 0.70320469
-0.018062839 0.030104786 0.70308506
-0.01805234 0.029084355 0.70294428
-0.01804178 0.028064996 0.70280266
-0.018031232 0.027046889 0.70266116
-0.018020555 0.026029706 0.70251793
-0.018008159 0.025011331 0.70235175
-0.017995493 0.023993999 0.70218182
-0.017982919 0.022978216 0.70201319
-0.017969498 0.021962732 0.70183319
-0.017955098 0.020947605 0.70164001
-0.017940363 0.01993376 0.70144236
-0.017925652 0.018921554 0.70124507
-0.017911179 0.017911226 0.70105094
-0.017896941 0.016902685 0.70086002
-0.017882656 0.015895724 0.70066845
-0.017868465 0.014890373 0.70047808
-0.017854296 0.01388672 0.700288
-0.017840149 0.012884587 0.70009828
-0.017826024 0.011884034 0.69990885
-0.017811922 0.01088509 0.69971967
-0.01779904 0.0098884106 0.69954693
-0.017787792 0.0088939369 0.69939601
-0.017776556 0.0079007149 0.69924533
-0.017765405 0.0069087744 0.69909579
-0.017754199 0.0059180856 0.69894552
-0.017743006 0.0049286485 0.69879538
-0.017731829 0.0039404035 0.69864547
-0.017720733 0.0029534698 0.69849664
-0.017710209 0.0019678473 0.69835544
-0.017701995 0.00098347664 0.69824529
-0.017693719 2.9802322e-08 0.6981343
-0.017685449 -0.00098252296 0.69802344
-0.017677257 -0.0019641221 0.69791359
-0.017669003 -0.0029448271 0.69780284
-0.017660758 -0.0039246082 0.69769228
-0.01765259 -0.0049034655 0.69758272
-0.017645601 -0.005881846 0.69748896
-0.017640764 -0.0068603158 0.69742405
-0.017635997 -0.0078381896 0.6973601
-0.017631164 -0.0088155568 0.69729525
-0.017626401 -0.0097924471 0.69723147
-0.017621573 -0.010768712 0.69716668
-0.017616816 -0.011744529 0.6971029
-0.017613783 -0.012721062 0.69706225
-0.017613783 -0.013699591 0.69706225
-0.017613783 -0.01467818 0.69706225
-0.017613783 -0.01565668 0.69706225
-0.017613783 -0.016635239 0.69706225
-0.017613783 -0.017613769 0.69706225
-0.017620884 -0.018599838 0.69715744
-0.017629853 -0.019588709 0.69727772
-0.01763876 -0.020578533 0.69739717
-0.017648783 -0.021570742 0.69753164
-0.017686838 -0.022599846 0.69804204
-0.018143035 -0.024190694 0.70416069
-0.018153714 -0.02521348 0.70430398
-0.018164404 -0.026237428 0.70444727
-0.018176135 -0.027264148 0.70460463
-0.018192364 -0.028299212 0.7048223
-0.018208694 -0.029336214 0.70504129
-0.018224979 -0.030374944 0.70525974
-0.018241368 -0.031415671 0.70547956
-0.018260896 -0.032463789 0.70574152
-0.018286034 -0.033524364 0.70607859
-0.018311316 -0.034588009 0.70641768
-0.018336592 -0.035654485 0.70675671
-0.018371375 -0.036742747 0.7072233
-0.018412691 -0.037848294 0.70777738
-0.01845419 -0.038958818 0.70833397
-0.018530585 -0.04014957 0.70935857
-0.018682262 -0.041516125 0.711393
-0.017549854 0.092911035 0.71005088
-0.017482331 0.091525167 0.70909202
-0.017472493 0.090445876 0.70895225
-0.017462663 0.089367777 0.70881265
-0.017452918 0.088291228 0.70867425
-0.017443111 0.087215573 0.70853496
-0.017433459 0.086141795 0.70839792
-0.017424244 0.085071355 0.70826709
-0.017415326 0.084003359 0.70814043
-0.017406346 0.082936138 0.70801288
-0.017397445 0.081870347 0.70788652
-0.017388484 0.080805331 0.7077592
-0.017379601 0.079741746 0.70763302
-0.017370656 0.078678876 0.70750606
-0.017361794 0.077617496 0.70738018
-0.01735308 0.076557696 0.70725644
-0.017344376 0.075499088 0.70713282
-0.01733561 0.074441165 0.70700836
-0.017327487 0.073387027 0.70689297
-0.017319443 0.072334141 0.70677876
-0.017311336 0.071282029 0.70666361
-0.017303307 0.07023111 0.70654958
-0.017295286 0.069181174 0.70643568
-0.017287342 0.06813249 0.70632291
-0.017279476 0.067085028 0.70621115
-0.017271616 0.066038549 0.70609951
-0.017263833 0.064993292 0.705989
-0.017255988 0.063948691 0.70587766
-0.017248221 0.062905282 0.70576727
-0.017241089 0.061865091 0.70566607
-0.017233893 0.060825527 0.70556384
-0.017226772 0.059787035 0.70546269
-0.01721973 0.058749676 0.70536268
-0.017212829 0.057713658 0.70526469
-0.017205935 0.056678414 0.70516682
-0.017199047 0.055644006 0.70506901
-0.017192164 0.054610461 0.70497119
-0.017185288 0.053577721 0.70487356
-0.017178414 0.052545756 0.70477599
-0.017171687 0.051515073 0.70468044
-0.017165449 0.050486624 0.70459187
-0.017159423 0.049459547 0.70450628
-0.017153403 0.048433155 0.7044208
-0.017147455 0.047407717 0.70433629
-0.017141512 0.046382934 0.70425189
-0.017135503 0.045358717 0.70416653
-0.017129568 0.044335365 0.70408231
-0.017099198 0.043250889 0.70365095
-0.017093219 0.042230338 0.70356607
-0.017087312 0.041210622 0.70348221
-0.017081341 0.040191472 0.70339739
-0.01707606 0.039174497 0.70332241
-0.017071057 0.038158864 0.70325136
-0.017066125 0.037143946 0.70318127
-0.017061127 0.036129475 0.70311034
-0.017056134 0.0351156 0.70303941
-0.017051142 0.034102291 0.70296854
-0.017046152 0.033089608 0.70289767
-0.017041165 0.032077521 0.70282686
-0.017036183 0.031065971 0.70275611
-0.017031204 0.030055106 0.70268536
-0.017025953 0.029044271 0.70261085
-0.01702057 0.028033912 0.70253444
-0.017013965 0.027022213 0.70244062
-0.017007163 0.02601099 0.70234394
-0.016999889 0.024999887 0.70224065
-0.016991738 0.023988336 0.70212495
-0.016982919 0.022976905 0.70199966
-0.016973022 0.021965086 0.70185918
-0.016963137 0.02095449 0.70171881
-0.016953265 0.019945055 0.70157856
-0.016943136 0.018936455 0.70143473
-0.016931333 0.017927289 0.70126712
-0.016919544 0.016919613 0.70109969
-0.016907774 0.015913218 0.7009325
-0.016894743 0.014907151 0.70074749
-0.016881198 0.013902187 0.70055515
-0.016867474 0.012898684 0.70036024
-0.016853703 0.011896759 0.70016468
-0.016840158 0.010896564 0.69997227
-0.016826833 0.0098981559 0.69978303
-0.016813528 0.008901298 0.69959414
-0.016800243 0.0079060495 0.69940543
-0.016786981 0.006912291 0.6992172
-0.01677374 0.0059202015 0.69902903
-0.016760521 0.0049296021 0.69884127
-0.01674732 0.0039405525 0.69865394
-0.016735591 0.0029533803 0.69848728
-0.016725125 0.0019676685 0.69833869
-0.016714608 0.00098323822 0.69818938
-0.016704105 -0 0.69804019
-0.016693681 -0.00098195672 0.69789219
-0.016683202 -0.0019626915 0.69774336
-0.01667274 -0.0029422343 0.6975947
-0.016662352 -0.0039205253 0.6974473
-0.016652828 -0.0048978925 0.69731194
-0.016645072 -0.0058747232 0.69720185
-0.016637389 -0.0068506598 0.69709271
-0.016629647 -0.0078257024 0.69698274
-0.016621912 -0.0087998211 0.69687295
-0.016614251 -0.0097730756 0.69676417
-0.016606532 -0.010745376 0.69665456
-0.016598819 -0.011716783 0.696545
-0.016592538 -0.012688369 0.69645572
-0.016588071 -0.013660759 0.69639236
-0.016583543 -0.014632553 0.69632804
-0.016579084 -0.015603811 0.69626474
-0.016574562 -0.016574502 0.69620049
-0.016570106 -0.017544776 0.69613725
-0.016565653 -0.018514544 0.69607401
-0.016563008 -0.019485861 0.69603646
-0.016563008 -0.020460188 0.6960364
-0.016563008 -0.021434456 0.6960364
-0.016563008 -0.022408724 0.6960364
-0.016563008 -0.023383051 0.69603646
-0.016563008 -0.024357349 0.6960364
-0.016569911 -0.025342196 0.69613445
-0.016578244 -0.026330143 0.69625276
-0.016586585 -0.027319044 0.69637126
-0.016596228 -0.028311193 0.69650817
-0.016631924 -0.02935043 0.69701517
-0.017060718 -0.031110704 0.70310456
-0.017070714 -0.032133102 0.70324647
-0.017080655 -0.033156544 0.70338768
-0.017091639 -0.034183264 0.70354366
-0.017106831 -0.035219938 0.70375943
-0.017122051 -0.036258429 0.70397556
-0.017137367 -0.037298977 0.70419306
-0.017152712 -0.038341343 0.70441091
-0.017170647 -0.039391488 0.70466572
-0.017194249 -0.04045704 0.70500088
-0.017217847 -0.041525364 0.70533597
-0.017241579 -0.042596817 0.70567298
-0.017273368 -0.043691456 0.70612442
-0.017312041 -0.044807613 0.70667362
-0.017350886 -0.045928806 0.70722526
-0.01742032 -0.04713735 0.70821136
-0.017549202 -0.048518389 0.71004158
-0.016492669 0.092771292 0.70967603
-0.016443212 0.091465384 0.70892978
-0.016433289 0.090383112 0.70878011
-0.016423849 0.089304686 0.70863765
-0.016414689 0.088228971 0.70849943
-0.016405473 0.08715409 0.70836043
-0.016396267 0.086080432 0.70822144
-0.016387139 0.085008323 0.70808375
-0.016377952 0.083937019 0.70794511
-0.016368844 0.082867295 0.70780772
-0.016359679 0.081798404 0.70766938
-0.01635059 0.080731064 0.70753229
-0.016341578 0.079665184 0.70739627
-0.016332578 0.078600556 0.70726049
-0.016324185 0.077539891 0.70713383
-0.016315868 0.076480657 0.70700836
-0.016307492 0.075422198 0.70688194
-0.016299192 0.074365079 0.70675671
-0.016290834 0.073308796 0.70663065
-0.016282551 0.072253823 0.7065056
-0.016274342 0.071200281 0.70638174
-0.016266208 0.070148051 0.70625901
-0.016258014 0.069096565 0.70613539
-0.016249897 0.068046451 0.7060129
-0.016241787 0.066997379 0.70589054
-0.016234279 0.065951794 0.70577723
-0.016226709 0.064906865 0.70566303
-0.016219214 0.063863218 0.70554996
-0.016211726 0.062820464 0.70543694
-0.016204376 0.061779201 0.70532602
-0.016197031 0.060738891 0.70521522
-0.016189761 0.059699774 0.70510548
-0.01618243 0.058661342 0.70499492
-0.016175171 0.057624072 0.70488536
-0.016167853 0.056587517 0.70477498
-0.016160609 0.055552155 0.70466566
-0.016153958 0.054519624 0.70456529
-0.01614731 0.053487986 0.70446503
-0.016140863 0.052457839 0.70436776
-0.016134359 0.051428288 0.70426959
-0.016127922 0.05039978 0.70417249
-0.016121492 0.049372077 0.70407546
-0.016115066 0.048345208 0.70397842
-0.016108647 0.047319144 0.70388162
-0.01610223 0.046293944 0.70378476
-0.016095821 0.045269549 0.70368809
-0.016089546 0.044246256 0.70359337
-0.01606101 0.043163985 0.70316285
-0.01605547 0.04214561 0.70307922
-0.016049869 0.041127831 0.7029947
-0.016044274 0.040110707 0.70291024
-0.01603868 0.039094269 0.7028259
-0.016033156 0.038078815 0.70274252
-0.01602757 0.037063777 0.7026583
-0.016021989 0.036049485 0.70257401
-0.016016413 0.035035908 0.70248991
-0.016010903 0.034023166 0.70240676
-0.016005397 0.033011168 0.70232368
-0.016000727 0.032001466 0.70225322
-0.015996058 0.030992389 0.70218277
-0.015991393 0.029983878 0.70211244
-0.015986731 0.028975964 0.70204204
-0.015982071 0.027968675 0.70197171
-0.015977414 0.026961893 0.7019015
-0.015972761 0.025955737 0.70183122
-0.01596811 0.024950176 0.70176113
-0.015963459 0.023945212 0.70169091
-0.015958814 0.022940844 0.70162082
-0.015953854 0.021936536 0.70154595
-0.01594845 0.020932347 0.70146447
-0.015942227 0.01992777 0.70137054
-0.015935879 0.018923849 0.70127475
-0.015928904 0.017920047 0.70116949
-0.015921237 0.016916335 0.70105386
-0.015912566 0.015912563 0.70092303
-0.015903398 0.014909476 0.70078468
-0.01589418 0.013907433 0.70064551
-0.015884845 0.012906432 0.70050472
-0.015875205 0.011906415 0.70035928
-0.015864195 0.010906637 0.70019317
-0.0158532 0.0099082887 0.70002723
-0.015841907 0.0089110732 0.69985688
-0.015829565 0.0079148412 0.69967055
-0.015816992 0.00691998 0.69948089
-0.015804129 0.0059265494 0.69928676
-0.015791347 0.0049348176 0.69909394
-0.015778774 0.0039447248 0.69890416
-0.015766343 0.0029562116 0.6987167
-0.015753932 0.0019692779 0.69852936
-0.015741542 0.00098386407 0.69834244
-0.015729172 -0 0.69815582
-0.015716821 -0.00098228455 0.69796944
-0.015704487 -0.0019630492 0.69778335
-0.015692113 -0.0029422641 0.69759661
-0.0156816 -0.0039203763 0.697438
-0.015671838 -0.0048974454 0.69729066
-0.015662026 -0.0058732629 0.69714266
-0.015652228 -0.0068478584 0.69699484
-0.015642503 -0.0078212619 0.69684803
-0.015632728 -0.0087934136 0.69670057
-0.015622967 -0.0097643435 0.69655329
-0.015613277 -0.010734111 0.69640708
-0.015604634 -0.011703461 0.69627666
-0.015597459 -0.012672931 0.69616842
-0.015590231 -0.013641417 0.69605935
-0.015583069 -0.014609098 0.69595128
-0.015575852 -0.015575856 0.69584239
-0.015568644 -0.01654166 0.69573361
-0.015561501 -0.017506689 0.69562584
-0.015554306 -0.018470705 0.69551724
-0.015548687 -0.019435823 0.69543248
-0.01554446 -0.020402104 0.69536877
-0.015540296 -0.021367908 0.69530588
-0.015536075 -0.022333086 0.69524223
-0.015531915 -0.023297817 0.6951794
-0.015527697 -0.024262011 0.69511575
-0.015523543 -0.025225729 0.6950531
-0.015521315 -0.026192218 0.69501948
-0.015521315 -0.027162254 0.69501948
-0.015521315 -0.028132349 0.69501942
-0.015521315 -0.029102474 0.69501948
-0.015521315 -0.03007254 0.69501948
-0.015521315 -0.031042606 0.69501948
-0.015527938 -0.03202635 0.69511938
-0.015535773 -0.033013493 0.69523764
-0.015543555 -0.034001529 0.69535506
-0.015552735 -0.034993619 0.69549358
-0.015586042 -0.03604272 0.69599617
-0.015987752 -0.037970901 0.70205748
-0.015997017 -0.038992703 0.70219719
-0.016006356 -0.040015876 0.70233816
-0.016016476 -0.041042209 0.70249093
-0.016030716 -0.042080611 0.70270568
-0.016044917 -0.043120682 0.70291996
-0.016059207 -0.04416281 0.70313561
-0.016073458 -0.045206606 0.70335066
-0.016089998 -0.046258688 0.70360023
-0.016112018 -0.047329038 0.70393246
-0.016134033 -0.048402071 0.70426464
-0.016156174 -0.049478263 0.70459872
-0.016185177 -0.050578684 0.7050364
-0.016221253 -0.051705241 0.70558071
-0.016257487 -0.052836835 0.70612741
-0.016320191 -0.054060638 0.70707363
-0.016428366 -0.055445701 0.70870578
-0.015443426 0.092660576 0.70937908
-0.015409182 0.091427803 0.70882791
-0.015399823 0.090345651 0.70867729
-0.015390539 0.089265138 0.70852786
-0.015381202 0.088185579 0.70837766
-0.015371878 0.087107331 0.70822757
-0.015362564 0.086030394 0.70807761
-0.015353325 0.084955066 0.7079289
-0.015344096 0.08388108 0.70778042
-0.015335005 0.082809061 0.70763409
-0.015326425 0.081740975 0.70749599
-0.015317854 0.080674052 0.70735806
-0.015309355 0.079608649 0.70722127
-0.015300804 0.07854414 0.70708358
-0.015292261 0.077480823 0.70694607
-0.01528379 0.076418966 0.70680988
-0.015275268 0.075358033 0.70667261
-0.015266879 0.074298829 0.7065376
-0.015258561 0.073241115 0.70640373
-0.015250189 0.072184205 0.70626897
-0.015241951 0.071129143 0.70613641
-0.015234156 0.070077181 0.70601094
-0.015226429 0.0690265 0.70588654
-0.015218648 0.067976624 0.70576137
-0.015210938 0.066928148 0.70563722
-0.015203235 0.065880686 0.70551324
-0.015195663 0.064834833 0.70539141
-0.015188036 0.063789785 0.70526868
-0.015180479 0.062745988 0.70514703
-0.01517293 0.061703265 0.70502549
-0.015165327 0.060661316 0.70490313
-0.015157915 0.059621155 0.70478386
-0.015150877 0.058583409 0.70467061
-0.015143907 0.057546884 0.70455837
-0.015137005 0.056511492 0.70444727
-0.015130169 0.055477321 0.7043373
-0.0151234 0.054444253 0.70422834
-0.015116578 0.053411901 0.70411861
-0.015109821 0.05238077 0.70400983
-0.01510301 0.051350206 0.70390022
-0.015096206 0.050320715 0.70379066
-0.015089467 0.049292266 0.70368224
-0.015082797 0.04826498 0.7035749
-0.015076676 0.047240257 0.70347631
-0.015070682 0.046216756 0.70337987
-0.015064693 0.045194119 0.70328349
-0.015056835 0.044166744 0.70315701
-0.015031866 0.043091387 0.70275515
-0.015025907 0.042072564 0.70265925
-0.015019894 0.041054428 0.70256239
-0.015013944 0.040037185 0.70246667
-0.01500794 0.039020658 0.70237005
-0.015001941 0.038004965 0.70227349
-0.014996004 0.036990166 0.70217794
-0.014990554 0.035977393 0.7020902
-0.014985406 0.034965992 0.70200735
-0.014980201 0.033955127 0.70192361
-0.014975001 0.032945037 0.70183992
-0.014969803 0.031935573 0.7017563
-0.01496467 0.030927002 0.70167363
-0.01495948 0.029918969 0.70159012
-0.014954293 0.02891168 0.70150661
-0.014949111 0.027905047 0.70142317
-0.014943991 0.026899219 0.70134079
-0.014939114 0.025894493 0.7012623
-0.014934773 0.024891317 0.7011925
-0.014930435 0.023888737 0.70112258
-0.014926101 0.022886723 0.70105284
-0.014921768 0.021885246 0.70098317
-0.014917437 0.020884424 0.70091343
-0.014913109 0.019884169 0.70084375
-0.014908845 0.01888454 0.70077515
-0.014904521 0.017885476 0.70070553
-0.014900201 0.01688689 0.70063603
-0.014895766 0.01588884 0.70056462
-0.014891096 0.014891088 0.70048946
-0.014885722 0.013893396 0.70040298
-0.014879937 0.012895942 0.70030987
-0.014874039 0.011899233 0.70021498
-0.014867322 0.010902733 0.70010686
-0.014860257 0.0099068284 0.69999313
-0.014851787 0.0089110732 0.69985688
-0.014843212 0.0079163909 0.69971877
-0.014834644 0.0069228709 0.69958091
-0.01482597 0.0059304237 0.69944131
-0.01481678 0.0049389303 0.69929338
-0.014806549 0.0039484501 0.69912875
-0.014796274 0.0029592812 0.69896334
-0.014785431 0.0019714236 0.69878888
-0.014773965 0.00098496675 0.69860423
-0.014762282 5.9604645e-08 0.69841629
-0.014750329 -0.00098332763 0.69822383
-0.014738454 -0.0019651353 0.69803274
-0.014726828 -0.0029453039 0.69784564
-0.014715278 -0.0039240718 0.69765973
-0.014703747 -0.0049012303 0.69747412
-0.014692234 -0.005876869 0.69728881
-0.014680738 -0.0068509877 0.69710386
-0.014669261 -0.0078236163 0.69691908
-0.014657744 -0.0087946653 0.69673377
-0.014646302 -0.0097641945 0.69654959
-0.014636877 -0.010733664 0.69639784
-0.014627806 -0.01170224 0.69625187
-0.014618687 -0.012669533 0.69610512
-0.014609582 -0.013635606 0.69595861
-0.014600487 -0.014600456 0.69581223
-0.01459146 -0.015564203 0.69566691
-0.014582389 -0.016526699 0.69552088
-0.014573327 -0.017487973 0.69537508
-0.014565635 -0.018449783 0.69525129
-0.01455891 -0.019411862 0.69514298
-0.01455225 -0.020373106 0.69503582
-0.014545537 -0.021333456 0.69492781
-0.014538886 -0.022292942 0.69482076
-0.014532186 -0.023251504 0.69471294
-0.014525493 -0.024209112 0.69460517
-0.014518863 -0.025166005 0.69449848
-0.014513807 -0.026124835 0.69441712
-0.014509936 -0.027085185 0.69435477
-0.014506009 -0.028044939 0.69429159
-0.014502142 -0.029004276 0.69422936
-0.01449822 -0.029962957 0.69416618
-0.014494357 -0.030921251 0.69410402
-0.014490494 -0.031879067 0.69404185
-0.014488648 -0.032840937 0.69401217
-0.014488592 -0.033806711 0.69401133
-0.014488592 -0.034772605 0.69401127
-0.014488592 -0.035738498 0.69401121
-0.014488592 -0.036704421 0.69401127
-0.014488592 -0.037670314 0.69401121
-0.014494915 -0.038653105 0.69411308
-0.014502198 -0.039639324 0.69423026
-0.01450943 -0.040626377 0.69434667
-0.014518244 -0.041618943 0.69448853
-0.014549145 -0.042677492 0.69498587
-0.014924022 -0.044772029 0.70101941
-0.014932633 -0.045793384 0.70115805
-0.014941314 -0.046816111 0.70129776
-0.014950659 -0.047842115 0.7014482
-0.014963894 -0.048882037 0.70166111
-0.014977092 -0.049923629 0.70187354
-0.014990374 -0.050967246 0.70208734
-0.01500362 -0.052012533 0.70230049
-0.015018751 -0.053066194 0.70254403
-0.015039215 -0.054141134 0.70287341
-0.015059675 -0.055218786 0.70320272
-0.015080191 -0.056299359 0.70353287
-0.015106537 -0.057404786 0.7039569
-0.015140058 -0.058541536 0.70449644
-0.015173728 -0.059683323 0.70503837
-0.015230197 -0.060920775 0.70594728
-0.015319417 -0.062298924 0.70738316
-0.014468404 0.094044626 0.71031958
-0.014401181 0.092579037 0.70916033
-0.01437836 0.091405302 0.70876688
-0.014369041 0.090319723 0.70860612
-0.014359673 0.089235097 0.70844465
-0.014350378 0.088152319 0.70828426
-0.014341212 0.087071657 0.70812625
-0.014332526 0.085995138 0.70797646
-0.014323851 0.084919989 0.70782685
-0.014315245 0.08384645 0.70767844
-0.014306591 0.082773864 0.70752925
-0.014297947 0.08170256 0.70738018
-0.014289373 0.080632925 0.7072323
-0.01428075 0.079564214 0.70708358
-0.014272195 0.078497082 0.70693612
-0.014263711 0.077431619 0.70678973
-0.014255235 0.076367348 0.70664358
-0.014246942 0.075305283 0.70650059
-0.014239065 0.074246585 0.70636481
-0.014231139 0.073188722 0.70622808
-0.014223221 0.072132081 0.70609158
-0.014215371 0.07107687 0.70595616
-0.014207471 0.070022553 0.70581996
-0.014199696 0.068969965 0.70568585
-0.014191928 0.067918509 0.70555198
-0.014184169 0.066868246 0.70541817
-0.014176418 0.065819085 0.70528448
-0.014168734 0.064771384 0.70515198
-0.014161228 0.063725561 0.70502257
-0.014154019 0.062682092 0.70489824
-0.014146872 0.061639965 0.70477498
-0.014139677 0.060598642 0.70465088
-0.014132601 0.059558868 0.70452893
-0.014125591 0.058520287 0.70440799
-0.014118589 0.057482868 0.70428723
-0.014111591 0.056446403 0.70416659
-0.014104544 0.055410743 0.70404506
-0.014097561 0.054376334 0.70392466
-0.014090586 0.053342938 0.70380437
-0.01408373 0.052311063 0.70368612
-0.014077277 0.051281512 0.7035749
-0.014070943 0.050253391 0.70346558
-0.014064671 0.049226344 0.70335752
-0.014058349 0.048200071 0.7032485
-0.014052032 0.047174662 0.70313954
-0.014045777 0.046150446 0.70303166
-0.014039471 0.045126885 0.70292288
-0.014014248 0.044044822 0.70248795
-0.014008027 0.043024689 0.70238072
-0.014001755 0.042005271 0.70227253
-0.013995488 0.040986806 0.70216447
-0.013989731 0.039970726 0.70206517
-0.013984146 0.038955867 0.70196885
-0.01397862 0.037941992 0.70187354
-0.013973043 0.036928773 0.7017774
-0.013967526 0.035916507 0.70168227
-0.01396196 0.034904897 0.70158625
-0.013956452 0.033894271 0.7014913
-0.013950893 0.03288427 0.70139539
-0.013945337 0.031875044 0.70129967
-0.013939844 0.030866802 0.7012049
-0.013934352 0.029859364 0.70111018
-0.013929586 0.028854191 0.70102805
-0.013924769 0.027849555 0.70094496
-0.013919953 0.026845634 0.70086193
-0.013915143 0.025842398 0.70077896
-0.01391039 0.024839997 0.700697
-0.013905585 0.023838162 0.70061415
-0.013900784 0.022837043 0.70053136
-0.013895985 0.021836549 0.70044863
-0.013891245 0.02083689 0.7003668
-0.013886454 0.019837797 0.70028424
-0.013882161 0.018840104 0.70021021
-0.013878145 0.017843366 0.70014095
-0.013874188 0.016847253 0.70007265
-0.013870177 0.015851617 0.7000035
-0.013866168 0.014856607 0.69993442
-0.013862162 0.013862193 0.69986534
-0.013858158 0.012868315 0.69979632
-0.013854157 0.011875004 0.6997273
-0.013850158 0.010882258 0.69965833
-0.01384616 0.0098901093 0.69958937
-0.013842002 0.0088984668 0.69951767
-0.013837627 0.0079072118 0.69944221
-0.013832325 0.0069161952 0.69935077
-0.013826975 0.005925864 0.69925857
-0.013821519 0.0049363077 0.69916445
-0.013815139 0.0039471984 0.69905448
-0.013808277 0.0029589236 0.6989361
-0.013800388 0.0019714832 0.69880009
-0.013792454 0.00098517537 0.69866329
-0.013784475 2.9802322e-08 0.69852567
-0.013776396 -0.00098404288 0.69838631
-0.013767731 -0.0019668043 0.69823694
-0.013758213 -0.0029481649 0.69807279
-0.013748762 -0.0039281845 0.69790983
-0.013738301 -0.0049065351 0.69772941
-0.013727746 -0.0058833063 0.69754738
-0.01371694 -0.0068584383 0.69736105
-0.013705882 -0.0078319013 0.69717038
-0.013694897 -0.0088038445 0.69698095
-0.013684195 -0.0097743869 0.69679642
-0.01367351 -0.010743469 0.69661224
-0.013662843 -0.011711001 0.69642818
-0.013652192 -0.012677044 0.69624454
-0.013641506 -0.013641477 0.69606018
-0.013630887 -0.014604479 0.69587713
-0.013620284 -0.015566021 0.69569433
-0.013609753 -0.016526103 0.69551271
-0.013601298 -0.017487407 0.69536686
-0.013592851 -0.018447399 0.69522125
-0.013584469 -0.019406378 0.6950767
-0.013576045 -0.020364016 0.69493139
-0.01356763 -0.021320552 0.69478631
-0.013559279 -0.022275925 0.69464231
-0.013550885 -0.023230076 0.69449753
-0.013542502 -0.024183035 0.69435298
-0.013535647 -0.025137603 0.69423473
-0.013529424 -0.02609244 0.69412744
-0.013523208 -0.027046382 0.69402027
-0.013517049 -0.02799958 0.69391412
-0.013510846 -0.028951824 0.69380707
-0.013504698 -0.029903233 0.69370109
-0.013498505 -0.030853689 0.69359428
-0.013492317 -0.03180328 0.69348752
-0.013487901 -0.032756299 0.69341141
-0.013484265 -0.033710659 0.69334877
-0.013480684 -0.034664601 0.69328701
-0.013477053 -0.035617888 0.69322431
-0.013473475 -0.036570847 0.69316262
-0.0134699 -0.03752327 0.69310099
-0.013466275 -0.038475037 0.69303852
-0.013464774 -0.039432555 0.69301265
-0.013464722 -0.040394157 0.69301176
-0.013464722 -0.041355908 0.69301176
-0.013464722 -0.042317688 0.69301176
-0.013464722 -0.043279439 0.69301176
-0.01346467 -0.044241041 0.69301081
-0.013470781 -0.045223325 0.69311619
-0.013477468 -0.046208441 0.69323146
-0.013484214 -0.047194719 0.69334787
-0.013492525 -0.048187554 0.69349116
-0.013521172 -0.049255699 0.69398522
-0.013869354 -0.051514715 0.69998932
-0.013877376 -0.052535743 0.70012766
-0.013885353 -0.053557783 0.70026529
-0.013894002 -0.054583549 0.70041442
-0.013906192 -0.055624753 0.70062459
-0.01391846 -0.056667984 0.70083618
-0.013930694 -0.057712853 0.70104718
-0.013943005 -0.058759779 0.70125943
-0.013956785 -0.059814781 0.70149702
-0.013975664 -0.060893953 0.70182258
-0.01399465 -0.061976254 0.70214999
-0.01401363 -0.063061297 0.70247734
-0.014037388 -0.064170927 0.70288706
-0.014068456 -0.065317839 0.70342278
-0.014099604 -0.06646955 0.70395988
-0.014150074 -0.067718178 0.70483017
-0.014222239 -0.069079429 0.70607466
-0.01342646 0.09398526 0.71016204
-0.013363075 0.092513621 0.70898485
-0.013349582 0.091393292 0.70873427
-0.013340929 0.090307832 0.70857364
-0.013332288 0.089223802 0.70841312
-0.013323604 0.088140756 0.70825183
-0.013314985 0.087059557 0.70809186
-0.013306324 0.085979372 0.70793098
-0.013297727 0.084900886 0.7077713
-0.013289088 0.083823502 0.70761091
-0.013280515 0.082747877 0.70745164
-0.013272007 0.08167389 0.70729363
-0.013263455 0.080601037 0.70713478
-0.013255238 0.079531461 0.70698225
-0.013247301 0.078464836 0.70683485
-0.013239319 0.077399135 0.70668668
-0.013231348 0.076334715 0.70653856
-0.013223441 0.075271934 0.70639181
-0.013215489 0.074210048 0.70624411
-0.013207599 0.0731498 0.70609754
-0.01319972 0.072090805 0.70595121
-0.013191902 0.071033359 0.70580602
-0.013184095 0.069977134 0.70566106
-0.013176296 0.068922162 0.70551628
-0.013168881 0.067870408 0.70537853
-0.01316158 0.066820323 0.70524293
-0.013154339 0.065771759 0.70510852
-0.013147054 0.064723969 0.70497322
-0.013139831 0.063677639 0.70483905
-0.013132668 0.062632769 0.70470607
-0.013125514 0.061589003 0.70457315
-0.013118419 0.060546547 0.70444143
-0.013111279 0.059505045 0.70430881
-0.013104148 0.058464706 0.70417637
-0.013097025 0.057425439 0.7040441
-0.013090276 0.056388944 0.70391881
-0.013083641 0.05535391 0.70379555
-0.013077066 0.054320127 0.70367342
-0.013070601 0.053287864 0.70355338
-0.013064143 0.052256614 0.70343339
-0.013057693 0.051226348 0.70331371
-0.013051195 0.050196916 0.70319301
-0.013044757 0.049168706 0.70307338
-0.013038323 0.048141539 0.70295399
-0.013031846 0.047115147 0.70283365
-0.013025425 0.046090007 0.70271444
-0.013019273 0.045066714 0.70260018
-0.012995862 0.043986052 0.70216537
-0.012990049 0.042967111 0.70205748
-0.01298424 0.041949123 0.7019496
-0.012978437 0.040932 0.70184183
-0.012972692 0.039915979 0.70173514
-0.012966898 0.038900763 0.70162755
-0.01296111 0.037886351 0.70152009
-0.012955328 0.036872864 0.70141268
-0.012949551 0.0358603 0.70130539
-0.01294383 0.034848809 0.70119911
-0.012938115 0.033838123 0.70109302
-0.01293297 0.032829911 0.70099747
-0.012927881 0.031822503 0.70090294
-0.012922744 0.03081578 0.70080757
-0.012917663 0.029810011 0.70071316
-0.012912534 0.028804898 0.70061797
-0.012907461 0.027800709 0.70052373
-0.012902341 0.026797175 0.70042866
-0.012897275 0.025794536 0.70033455
-0.012892162 0.024792641 0.7002396
-0.012887055 0.023791492 0.70014471
-0.012882256 0.022791713 0.70005566
-0.012877869 0.021793365 0.69997418
-0.012873434 0.020795554 0.69989181
-0.012869003 0.019798487 0.69980955
-0.012864574 0.018802077 0.69972724
-0.012860199 0.017806441 0.69964606
-0.012855778 0.01681143 0.69956392
-0.012851357 0.015817106 0.69948184
-0.012846941 0.014823437 0.69939983
-0.012842578 0.013830513 0.69931883
-0.012838167 0.012838215 0.69923687
-0.01283447 0.011847198 0.69916821
-0.012830773 0.010856807 0.6990996
-0.012827079 0.0098670125 0.69903094
-0.012823387 0.0088777542 0.69896239
-0.012819698 0.007889092 0.69889385
-0.01281601 0.0069009364 0.69882536
-0.012812324 0.0059134066 0.69875693
-0.01280864 0.0049264133 0.69868857
-0.012804959 0.003940016 0.69862014
-0.01280128 0.0029541552 0.69855183
-0.012797402 0.0019688606 0.69847989
-0.012793072 0.00098413229 0.69839942
-0.012788143 -0 0.69830793
-0.012783217 -0.00098329782 0.69821638
-0.012778195 -0.0019658506 0.6981231
-0.012772173 -0.0029474199 0.69801128
-0.012765505 -0.0039277971 0.69788748
-0.012758194 -0.0049069822 0.6977517
-0.012750891 -0.005885005 0.6976161
-0.012743497 -0.0068618655 0.69747877
-0.012736061 -0.0078375638 0.69734073
-0.012727887 -0.0088116229 0.69718891
-0.012719177 -0.0097839534 0.69702709
-0.012710229 -0.010754764 0.69686091
-0.0127005 -0.011723518 0.69668025
-0.012690739 -0.012690723 0.69649899
-0.012680793 -0.013656199 0.69631428
-0.012670665 -0.014619976 0.69612622
-0.012660602 -0.015582234 0.69593936
-0.012650753 -0.016543269 0.69575644
-0.012640919 -0.017502815 0.69557381
-0.012631101 -0.01846081 0.69539148
-0.012621247 -0.019417256 0.69520849
-0.01261146 -0.020372301 0.6950267
-0.012601687 -0.021325916 0.6948452
-0.012591928 -0.022278011 0.694664
-0.012582527 -0.023229271 0.69448942
-0.012574743 -0.024182171 0.69434482
-0.012566969 -0.025133938 0.69420052
-0.012559253 -0.026084572 0.69405723
-0.012551499 -0.027033985 0.69391316
-0.012543752 -0.027982205 0.69376934
-0.012536065 -0.028929383 0.69362658
-0.012528338 -0.029875249 0.69348311
-0.012520621 -0.030819982 0.69333977
-0.012514503 -0.031767547 0.69322622
-0.012508823 -0.03271538 0.69312072
-0.012503101 -0.03366217 0.69301438
-0.012497383 -0.034608096 0.69290817
-0.012491719 -0.035553336 0.69280303
-0.012486012 -0.036497563 0.69269705
-0.012480358 -0.037441045 0.69259202
-0.012474663 -0.038383573 0.69248629
-0.01247074 -0.039330751 0.69241345
-0.01246744 -0.040279388 0.69235218
-0.012464144 -0.04122752 0.69229096
-0.012460802 -0.042175025 0.69222885
-0.012457509 -0.043122113 0.6921677
-0.012454169 -0.044068575 0.69210571
-0.012450879 -0.045014679 0.69204456
-0.01244964 -0.045967877 0.69202161
-0.012449591 -0.046925366 0.69202071
-0.012449591 -0.047883034 0.69202071
-0.012449591 -0.048840702 0.69202071
-0.012449591 -0.04979834 0.69202071
-0.012449545 -0.050755829 0.69201982
-0.012455314 -0.051737428 0.69212699
-0.01246147 -0.05272156 0.69224131
-0.01246768 -0.053706914 0.69235659
-0.012475523 -0.054700345 0.69250226
-0.012501899 -0.055777699 0.69299209
-0.012823741 -0.058200002 0.69896895
-0.012831128 -0.059220582 0.69910622
-0.012838472 -0.060242057 0.69924253
-0.012846383 -0.061267346 0.69938946
-0.012857607 -0.062309891 0.69959784
-0.012868902 -0.063354582 0.69980764
-0.012880164 -0.064400792 0.7000168
-0.012891497 -0.065449148 0.70022732
-0.012903978 -0.066505104 0.70045912
-0.012921358 -0.067588598 0.70078182
-0.012938836 -0.068675339 0.70110637
-0.012956309 -0.069764733 0.70143092
-0.012977661 -0.070877969 0.70182741
-0.013006205 -0.072034329 0.70235747
-0.013034876 -0.073195845 0.70288992
-0.013079801 -0.074454218 0.70372421
-0.013136648 -0.075788319 0.70477992
-0.012389411 0.093953043 0.71007657
-0.012333169 0.092498749 0.7089451
-0.012324561 0.09140718 0.70877194
-0.012316017 0.090317458 0.70860004
-0.012307433 0.089228898 0.70842737
-0.012298913 0.088142246 0.70825589
-0.012290404 0.087057054 0.70808476
-0.012281856 0.085973024 0.70791274
-0.012273421 0.0848912 0.70774305
-0.012265297 0.083812863 0.70757961
-0.012257384 0.082737386 0.70742041
-0.012249433 0.081662923 0.70726043
-0.01224154 0.080590129 0.7071017
-0.012233609 0.079518497 0.70694208
-0.012225739 0.078448504 0.70678377
-0.012217877 0.077379912 0.70662558
-0.012210026 0.076312721 0.70646763
-0.012202185 0.075246841 0.70630991
-0.012194403 0.07418263 0.70615333
-0.012186632 0.073119819 0.70599699
-0.012179315 0.072060972 0.70584977
-0.012172006 0.071003377 0.70570272
-0.012164756 0.069947392 0.70555693
-0.012157465 0.06889233 0.70541024
-0.012150183 0.06783852 0.70526373
-0.012143008 0.066786587 0.70511937
-0.012135842 0.065735817 0.70497513
-0.012128683 0.064686328 0.70483118
-0.012121533 0.063638061 0.7046873
-0.012114392 0.062591016 0.70454365
-0.012107259 0.061545253 0.70440018
-0.012100574 0.060502917 0.70426565
-0.012093944 0.059461921 0.70413226
-0.012087273 0.05842182 0.70399809
-0.012080706 0.057383358 0.70386595
-0.012074197 0.056346267 0.70373499
-0.012067644 0.055310071 0.70360315
-0.0120611 0.054274976 0.70347142
-0.012054562 0.053241014 0.70333993
-0.01204803 0.052208155 0.70320857
-0.012041555 0.051176637 0.70307827
-0.012035037 0.050146043 0.70294714
-0.012028962 0.04911831 0.70282489
-0.012022989 0.048091948 0.70270479
-0.012017069 0.047066867 0.70258564
-0.012011155 0.04604277 0.70246673
-0.0120052 0.045019537 0.70234686
-0.011983349 0.043938935 0.70190728
-0.011977419 0.042919099 0.70178795
-0.011971545 0.041900456 0.70166975
-0.011965629 0.040882587 0.70155078
-0.011959717 0.039865732 0.70143187
-0.011953812 0.03884995 0.70131308
-0.011948152 0.037835836 0.70119917
-0.011942828 0.03682372 0.70109206
-0.011937557 0.035812676 0.70098603
-0.011932244 0.034802377 0.7008791
-0.011926934 0.033793002 0.70077229
-0.011921628 0.032784522 0.70066559
-0.011916377 0.031776994 0.70055985
-0.01191108 0.030770302 0.70045334
-0.01190579 0.029764473 0.70034695
-0.011900504 0.028759569 0.70024061
-0.011895224 0.027755499 0.70013434
-0.011890277 0.026753128 0.70003474
-0.01188557 0.025752097 0.69994009
-0.011880865 0.024751842 0.69984543
-0.011876213 0.023752421 0.69975185
-0.011871517 0.022753745 0.69965738
-0.011866871 0.021755964 0.69956392
-0.011862182 0.020758837 0.69946957
-0.011857544 0.019762605 0.69937629
-0.011852861 0.018767029 0.69928205
-0.011848231 0.017772347 0.69918895
-0.011843557 0.016778409 0.69909483
-0.011839353 0.015785843 0.69901025
-0.011835339 0.014794201 0.69892955
-0.011831282 0.013803214 0.69884789
-0.011827227 0.012812853 0.69876635
-0.011823221 0.011823237 0.69868577
-0.011819171 0.010834247 0.69860429
-0.011815124 0.0098460019 0.69852287
-0.011811079 0.0088583231 0.69844151
-0.011807086 0.0078714192 0.6983611
-0.011803047 0.0068851113 0.69827986
-0.011799196 0.0058996379 0.69820243
-0.011795812 0.0049149394 0.69813436
-0.011792431 0.0039308369 0.69806623
-0.011789049 0.0029472709 0.69799829
-0.011785671 0.0019643009 0.69793028
-0.011782342 0.00098186731 0.69786328
-0.011778966 2.9802322e-08 0.69779539
-0.011775592 -0.00098127127 0.6977275
-0.011772223 -0.0019620061 0.69765973
-0.011768853 -0.0029421747 0.69759196
-0.011765441 -0.0039218068 0.69752336
-0.011761845 -0.0049007535 0.69745094
-0.011757562 -0.0058787763 0.69736475
-0.011753097 -0.0068559349 0.69727498
-0.011748543 -0.0078323483 0.69718331
-0.01174381 -0.008807838 0.69708812
-0.011738254 -0.0097818673 0.6969763
-0.011731877 -0.010754228 0.69684809
-0.011725187 -0.011725157 0.69671345
-0.01171846 -0.012694955 0.69657815
-0.011711648 -0.01366356 0.69644111
-0.011704844 -0.014631003 0.6963042
-0.011697228 -0.0155963 0.69615096
-0.011689258 -0.01655978 0.69599062
-0.011680754 -0.017521083 0.6958195
-0.011671853 -0.01848042 0.69564044
-0.01166292 -0.019438177 0.69546074
-0.01165382 -0.020394146 0.69527763
-0.011644553 -0.021348357 0.69509125
-0.011635392 -0.022301167 0.69490695
-0.01162638 -0.023252755 0.69472557
-0.011617337 -0.024202764 0.6945436
-0.011608353 -0.025151432 0.69436294
-0.011599382 -0.026098579 0.69418246
-0.011590427 -0.027044296 0.69400227
-0.011581484 -0.027988583 0.69382238
-0.011572555 -0.028931379 0.69364274
-0.011564218 -0.029874235 0.69347501
-0.011557096 -0.03081888 0.69333172
-0.011549981 -0.031762421 0.69318861
-0.01154292 -0.032704949 0.69304657
-0.011535824 -0.033646137 0.69290376
-0.011528737 -0.034586191 0.69276118
-0.011521702 -0.035525203 0.69261962
-0.011514631 -0.036462992 0.69247735
-0.011507569 -0.03739959 0.69233537
-0.01150219 -0.038340598 0.69222707
-0.011496949 -0.039281249 0.69212168
-0.011491756 -0.040221095 0.69201714
-0.011486523 -0.041159987 0.69191194
-0.011481295 -0.042098045 0.69180673
-0.011476116 -0.043035448 0.6917026
-0.011470899 -0.043971777 0.69159752
-0.011465729 -0.044907421 0.69149357
-0.011462315 -0.045849234 0.69142485
-0.011459296 -0.04679209 0.69136411
-0.011456234 -0.04773429 0.69130254
-0.01145322 -0.048676163 0.69124186
-0.011450161 -0.04961735 0.69118035
-0.011447148 -0.050558239 0.69111979
-0.011444095 -0.051498383 0.69105828
-0.011443134 -0.052447677 0.69103897
-0.011443092 -0.053401053 0.69103807
-0.011443092 -0.054354697 0.69103813
-0.011443092 -0.055308253 0.69103813
-0.011443092 -0.056261837 0.69103813
-0.011443092 -0.057215422 0.69103813
-0.011448459 -0.058196306 0.69114608
-0.011454137 -0.059179693 0.69126034
-0.011459777 -0.060163826 0.69137383
-0.011467175 -0.06115824 0.69152266
-0.011491272 -0.062244385 0.69200748
-0.011787013 -0.064828575 0.69795728
-0.011793727 -0.065848291 0.6980924
-0.011800496 -0.066869438 0.69822854
-0.011807689 -0.067894191 0.69837326
-0.011817961 -0.068938076 0.69857991
-0.011828298 -0.069984078 0.69878787
-0.011838606 -0.07103163 0.69899523
-0.011848932 -0.072081 0.69920301
-0.011860214 -0.073137969 0.69942999
-0.011876119 -0.074225724 0.69974995
-0.011892113 -0.075316697 0.70007175
-0.011908105 -0.076410323 0.70039344
-0.011927123 -0.077526301 0.7007761
-0.011953242 -0.078692138 0.70130152
-0.011979522 -0.079863489 0.70183027
-0.012019137 -0.081129164 0.7026273
-0.012069536 -0.082475126 0.70364118
-0.011356865 0.093952298 0.71007454
-0.011308935 0.092527658 0.70902258
-0.01130053 0.091431588 0.70883811
-0.011292138 0.090337127 0.70865393
-0.011283803 0.089244634 0.708471
-0.011275805 0.088156313 0.70829546
-0.011267956 0.087070614 0.70812321
-0.011260165 0.085986704 0.7079522
-0.011252384 0.084904373 0.70778143
-0.011244568 0.083823174 0.70760989
-0.011236808 0.082743764 0.70743954
-0.011229059 0.081665874 0.70726955
-0.011221276 0.080589175 0.70709872
-0.011213548 0.079514265 0.70692909
-0.011205877 0.078441143 0.70676076
-0.011198262 0.077369869 0.70659363
-0.011191067 0.076302797 0.70643568
-0.011183836 0.075236738 0.70627695
-0.01117666 0.074172378 0.70611948
-0.011169447 0.07310912 0.70596117
-0.011162288 0.072047502 0.70580411
-0.01115514 0.070987284 0.70564717
-0.011148045 0.069928676 0.70549142
-0.011140915 0.06887114 0.70533496
-0.011133838 0.067815185 0.70517969
-0.011126771 0.066760629 0.70502454
-0.011119846 0.06570819 0.70487261
-0.011113245 0.06465891 0.70472765
-0.011106608 0.063610613 0.70458198
-0.011099977 0.062563509 0.70443648
-0.011093444 0.061518222 0.70429313
-0.011086919 0.060474128 0.7041499
-0.011080357 0.059431046 0.7040059
-0.011073847 0.058389395 0.70386302
-0.011067346 0.057348967 0.70372033
-0.011060851 0.056309789 0.70357782
-0.011054364 0.055271834 0.70343542
-0.011048063 0.054235965 0.70329714
-0.01104199 0.053202331 0.7031638
-0.011036011 0.052170277 0.70303261
-0.01103004 0.051139325 0.70290154
-0.011024075 0.050109446 0.70277065
-0.011018116 0.049080729 0.70263988
-0.011012164 0.048053086 0.70250922
-0.011006263 0.047026813 0.7023797
-0.011000324 0.046001375 0.70224935
-0.01099338 0.044972926 0.702097
-0.010974091 0.043896377 0.70167363
-0.010968143 0.042875499 0.70154309
-0.010962682 0.041857541 0.70142323
-0.010957269 0.040840775 0.70130444
-0.010951906 0.039825141 0.70118672
-0.010946504 0.038810343 0.70106816
-0.010941107 0.037796557 0.70094967
-0.010935716 0.036783785 0.70083141
-0.010930373 0.035772175 0.70071411
-0.010924992 0.034761339 0.70059609
-0.010919617 0.033751577 0.70047802
-0.01091429 0.032742888 0.70036113
-0.010908926 0.031735063 0.70024341
-0.010903998 0.030729473 0.70013529
-0.010899162 0.029724985 0.70002913
-0.010894328 0.028721422 0.69992304
-0.0108895 0.027718782 0.69981706
-0.01088472 0.026717097 0.69971216
-0.0108799 0.025716126 0.69960642
-0.010875084 0.024716109 0.69950074
-0.010870274 0.023716986 0.69939512
-0.01086551 0.022718817 0.69929057
-0.010860708 0.021721452 0.69918513
-0.010855909 0.020724922 0.69907981
-0.010851585 0.01973021 0.69898492
-0.010847308 0.018736243 0.69889104
-0.010843077 0.01774326 0.69879818
-0.010838807 0.016750872 0.69870448
-0.010834581 0.015759379 0.6986118
-0.010830318 0.01476863 0.69851816
-0.0108261 0.013778687 0.69842559
-0.010821842 0.012789458 0.69833213
-0.010817631 0.011801064 0.69823974
-0.010813381 0.010813415 0.69814646
-0.010809219 0.0098266006 0.69805503
-0.010805526 0.0088408887 0.69797403
-0.010801878 0.0078559518 0.69789404
-0.010798191 0.0068716109 0.69781303
-0.010794505 0.0058879554 0.69773221
-0.010790865 0.0049049556 0.69765228
-0.010787185 0.0039226413 0.69757152
-0.010783508 0.0029409826 0.69749075
-0.010779833 0.0019599795 0.69741017
-0.010776203 0.00097966194 0.69733047
-0.010772533 -0 0.69724995
-0.010769203 -0.00097900629 0.69717687
-0.010766169 -0.0019574761 0.6971103
-0.010763096 -0.0029353797 0.69704282
-0.010760023 -0.0039127171 0.69697541
-0.010756954 -0.0048894882 0.696908
-0.010753884 -0.0058657527 0.6968407
-0.010750818 -0.0068414211 0.69677335
-0.010747753 -0.0078165531 0.69670612
-0.01074469 -0.0087910593 0.69663888
-0.010741628 -0.0097650886 0.69657171
-0.010738485 -0.010738462 0.69650269
-0.010735092 -0.011711001 0.69642818
-0.01073103 -0.01268208 0.69633913
-0.010726973 -0.013652474 0.69625002
-0.010722836 -0.014622062 0.69615924
-0.010718409 -0.0155904 0.69606203
-0.010713317 -0.016556948 0.69595033
-0.010707232 -0.017520905 0.69581681
-0.010701195 -0.018483877 0.69568431
-0.010694998 -0.019445449 0.69554824
-0.010688809 -0.020405889 0.6954124
-0.010682669 -0.021365285 0.69527769
-0.010675582 -0.022321671 0.69512212
-0.010668339 -0.023276359 0.69496322
-0.010660322 -0.024227977 0.69478714
-0.010652193 -0.025177926 0.69460881
-0.010644117 -0.026126474 0.69443154
-0.010635849 -0.027073056 0.69425011
-0.01062743 -0.02801773 0.69406533
-0.010619105 -0.028961182 0.69388258
-0.010610916 -0.029903442 0.69370282
-0.010602739 -0.030844301 0.69352341
-0.010594576 -0.0317837 0.6933443
-0.010586425 -0.032721639 0.6931653
-0.010578286 -0.033658206 0.69298673
-0.01057016 -0.034593254 0.69280839
-0.010562046 -0.035526872 0.69263029
-0.010554714 -0.036461711 0.69246942
-0.010548241 -0.037398309 0.69232732
-0.010541776 -0.038333714 0.69218546
-0.010535359 -0.039268166 0.69204462
-0.01052891 -0.040201277 0.69190305
-0.010522469 -0.041133285 0.69176167
-0.010516035 -0.042064101 0.69162047
-0.010509649 -0.042993993 0.69148034
-0.010503273 -0.043922752 0.69134033
-0.010498544 -0.044857413 0.69123662
-0.01049378 -0.04579103 0.69113207
-0.01048902 -0.046723783 0.69102758
-0.010484305 -0.04765591 0.69092405
-0.010479554 -0.048587024 0.69081986
-0.010474808 -0.049517274 0.69071567
-0.010470104 -0.050446838 0.69061244
-0.010465367 -0.051375419 0.69050843
-0.010462462 -0.052312315 0.69044465
-0.010459678 -0.05324924 0.69038355
-0.010456936 -0.054185897 0.69032341
-0.010454156 -0.055121899 0.69026244
-0.010451416 -0.056057572 0.69020224
-0.010448638 -0.05699259 0.69014132
-0.010445901 -0.057927281 0.69008124
-0.010445148 -0.05887264 0.69006467
-0.010445109 -0.059821963 0.69006383
-0.010445109 -0.060771555 0.69006389
-0.010445109 -0.061721087 0.69006383
-0.010445109 -0.062670618 0.69006383
-0.010445109 -0.06362018 0.69006383
-0.010450145 -0.064600885 0.69017446
-0.010455268 -0.06558302 0.69028676
-0.010460434 -0.066566348 0.69040018
-0.010467277 -0.067561507 0.69055039
-0.01048922 -0.068656713 0.69103193
-0.010759056 -0.07140097 0.69695413
-0.010765159 -0.07242012 0.69708812
-0.010771311 -0.073440731 0.69722313
-0.010777807 -0.074464828 0.69736576
-0.010787143 -0.075509995 0.69757062
-0.010796496 -0.076556951 0.6977759
-0.010805907 -0.077606022 0.69798243
-0.010815293 -0.078656644 0.69818842
-0.010825376 -0.079714149 0.69840974
-0.010839831 -0.080805987 0.69872695
-0.010854324 -0.081900805 0.69904506
-0.0108689 -0.082998842 0.69936502
-0.010885753 -0.084117174 0.69973487
-0.010909488 -0.085292339 0.70025575
-0.010933327 -0.08647266 0.7007789
-0.010968012 -0.087744087 0.70154023
-0.010326213 0.09396854 0.7101177
-0.010285542 0.092569917 0.70913589
-0.010277894 0.091473311 0.70895118
-0.010270257 0.090378255 0.70876682
-0.010262632 0.089284867 0.70858276
-0.01025506 0.088193506 0.70839995
-0.010247457 0.087103397 0.70821643
-0.010239865 0.086014897 0.70803308
-0.010232285 0.084928006 0.7078501
-0.010224715 0.083842665 0.70766735
-0.010217199 0.082759351 0.70748591
-0.010209819 0.08167854 0.70730776
-0.010202782 0.08060196 0.70713782
-0.010195713 0.079526544 0.70696723
-0.010188696 0.078453004 0.70679778
-0.010181689 0.077380836 0.70662862
-0.010174649 0.07630989 0.70645869
-0.010167661 0.075240701 0.70628995
-0.010160682 0.074173033 0.70612144
-0.010153713 0.073106766 0.70595318
-0.010146753 0.072041988 0.70578516
-0.010139844 0.07097894 0.70561838
-0.010133232 0.069919318 0.70545876
-0.01012671 0.068861634 0.70530128
-0.010120238 0.067805618 0.70514506
-0.010113733 0.066750675 0.704988
-0.010107277 0.065697312 0.7048322
-0.010100869 0.064645559 0.70467746
-0.01009443 0.063594967 0.70452201
-0.01008804 0.062545866 0.70436776
-0.010081657 0.061498106 0.70421362
-0.010075242 0.060451448 0.70405883
-0.010068877 0.0594064 0.70390511
-0.010062842 0.05836454 0.70375937
-0.010056855 0.057324111 0.70361483
-0.010050915 0.056285143 0.70347148
-0.010045024 0.055247635 0.70332921
-0.010039139 0.054211378 0.70318717
-0.01003326 0.053176284 0.70304525
-0.010027389 0.052142441 0.70290351
-0.010021525 0.051109791 0.70276195
-0.010015667 0.050078362 0.70262051
-0.010009817 0.049048126 0.70247924
-0.010003973 0.048019111 0.70233816
-0.0099984156 0.04699254 0.70220405
-0.0099930242 0.045967937 0.70207381
-0.009975492 0.044889718 0.70165056
-0.0099691721 0.043864399 0.70149797
-0.0099638114 0.042844415 0.70136857
-0.0099584572 0.041825503 0.70123935
-0.0099531086 0.040807754 0.70111018
-0.0099477656 0.039791077 0.70098126
-0.0099424291 0.038775474 0.70085239
-0.0099370982 0.037761003 0.70072365
-0.0099317329 0.036747456 0.70059413
-0.0099265706 0.035735637 0.70046949
-0.0099216886 0.034725934 0.70035166
-0.0099168513 0.033717304 0.70023489
-0.0099119795 0.032709569 0.70011723
-0.0099071125 0.031702757 0.69999975
-0.0099022891 0.030697107 0.69988334
-0.0098974314 0.029692322 0.69976604
-0.0098925782 0.02868849 0.69964886
-0.0098877307 0.027685672 0.69953179
-0.009882926 0.026683927 0.69941586
-0.0098780878 0.025683075 0.69929898
-0.0098733697 0.024683446 0.69918513
-0.0098690474 0.023685724 0.69908082
-0.0098646889 0.022688806 0.69897556
-0.009860334 0.021692783 0.69887042
-0.0098559828 0.020697594 0.6987654
-0.0098516364 0.019703299 0.69866043
-0.0098473318 0.018709958 0.69855654
-0.0098429928 0.017717421 0.69845176
-0.0098386575 0.016725719 0.69834715
-0.0098343259 0.015734911 0.69824255
-0.0098300371 0.014745086 0.69813895
