# .PCD v0.7 - Point Cloud Data file format
VERSION 0.7
FIELDS x y z
SIZE 4 4 4
TYPE F F F
COUNT 1 1 1
WIDTH 510
HEIGHT 1
VIEWPOINT 0 0 0 1 0 0 0
POINTS 510
DATA ascii
-0.0013817747 -0.0055270791 0.62761587
0.00046022935 -0.0025289557 0.62737596
0.0044915145 -0.0024186298 0.62763941
0.0076094274 -0.0013835132 0.62782806
0.010342645 0.0024133474 0.62728322
0.015569458 0.0027678907 0.62787747
-0.0066101025 -0.01252459 0.62880486
-0.006585639 -0.0093579292 0.62817395
0.0090046618 -0.0013853312 0.62804532
0.012508686 -0.0013898611 0.62859112
0.0096953688 0.0020776093 0.62801152
-0.0094140498 -0.015341565 0.62917495
0.020298636 -0.0013998747 0.62980449
0.018473744 -0 0.62912011
-0.0084374892 -0.019687444 0.63057005
-0.0084374892 -0.019687444 0.63057005
-0.013368976 -0.018997997 0.6306923
-0.0049098358 -0.0056112111 0.63015509
0.025360981 -0.0024658442 0.63089538
0.0014047361 -0.00070235133 0.63038754
0.009824492 0.0035087764 0.63023818
-0.0035417096 -0.0035416782 0.63182974
-0.0014115364 -0.0021172762 0.63120842
-0.012766348 -0.024114221 0.63204694
-0.0099669332 -0.024205416 0.63269448
-0.0099669332 -0.024205416 0.63269448
-0.0092199836 -0.023404539 0.63204408
-0.009315636 -0.031529814 0.63382041
-0.007172016 -0.0064547956 0.63396871
0.013599035 -0 0.63361549
0.032387253 -0.011515439 0.6345759
0.032387253 -0.011515439 0.6345759
-0.007216204 -0.034637779 0.63503546
-0.0036158513 -0.033988982 0.63540965
0.03479011 -0.01449585 0.63580161
-0.012351376 -0.015984118 0.63622594
0.037086762 -0.015271008 0.63638043
0.0087289354 0.0050919056 0.63643348
-0.0014667471 -0.041435808 0.63787293
0.035520785 -0.02050674 0.63763422
0.036587488 -0.019391567 0.63748097
0.0087882429 0.0058588684 0.63762671
-0.002202793 -0.04258734 0.63808805
-0.004415656 -0.037533045 0.63849318
0.0037058876 -0.045211822 0.63975698
0.03559297 -0.028177738 0.63983977
0.035501845 -0.026626378 0.63938141
0.03331795 -0.019990712 0.63956904
0.031750795 -0.007383883 0.63908416
-0.00073953433 0.0014790893 0.63936031
-0.0074478076 -0.031280756 0.64062685
0.010482446 -0.04791978 0.64158428
0.016479764 -0.044944793 0.64166486
0.01343509 -0.041798055 0.64101636
0.026253967 -0.040506124 0.64191431
0.023516517 -0.038820878 0.64105529
0.031394966 -0.035506442 0.64128315
0.031399317 -0.032146901 0.64130819
0.033589732 -0.031350404 0.64102709
0.037520178 -0.024012893 0.64198434
0.037520178 -0.024012893 0.64198434
0.032947298 -0.019468814 0.64159775
0.0044968105 0.0044968128 0.64175856
0.010500737 0.0090006292 0.64189965
0.021419242 -0.044341296 0.64226055
0.0037566603 -0.042825907 0.64220852
0.0045239837 -0.04297781 0.64285189
0.02747317 -0.039141119 0.64254218
0.02854256 -0.038307071 0.64215732
-0.0033847634 -0.0368516 0.64238763
0.012875072 -0.047713488 0.64366311
0.029503345 -0.036311775 0.64345527
-0.012871331 -0.012114167 0.64360994
0.029525042 -0.0075705349 0.6435895
0.0083912853 -0.041956425 0.64498776
0.027453599 -0.038129985 0.64492887
0.033453241 -0.01748693 0.64437377
-0.01444282 -0.014442801 0.644337
-0.01444282 -0.014442801 0.644337
0 0.0038059652 0.64458823
0.013019282 -0.046716213 0.64571106
0.029442349 -0.030589834 0.64544702
0.032904435 -0.01760003 0.64556116
0.022917189 0.0030556321 0.64524424
0.0030785049 -0.041559786 0.6466251
0.026966697 -0.037753373 0.64683056
0.0046204291 0.0061605871 0.64673263
0.012434205 -0.039634019 0.64843857
0.0093308417 0.010886014 0.64854294
0.0093308417 0.010886014 0.64854294
0.0093621509 -0.03978911 0.64917284
-0.0023399831 -0.035879701 0.6491282
0.0035361461 -0.040854022 0.65049481
0.0035361461 -0.040854022 0.65049481
-0.018060938 -0.014919907 0.65039897
0.033059806 -0.014168471 0.65085286
0.028331362 -0.0055088997 0.65081525
0.03080705 -0.030017108 0.6515255
-0.014208678 -0.010261804 0.65139192
0.019852728 -0.039705426 0.6525358
0.0087312916 -0.038893908 0.65245003
-0.0063460846 -0.02855739 0.65233094
0.019921336 -0.036655277 0.65319836
0.024470408 -0.036503643 0.65451097
0.027333304 -0.03376466 0.65490454
0.031295687 -0.0152466 0.65455031
0.031371251 -0.027349263 0.65501809
-0.018547868 -0.012902856 0.65551007
-0.0040287687 0.0056402981 0.65534705
0.0064739496 -0.038843691 0.65618968
0.0064739496 -0.038843691 0.65618968
0.024360679 -0.035728991 0.65686053
0.027517401 -0.027517378 0.65621173
0.030814653 -0.027571023 0.65659237
0.016997362 0.0080939829 0.65622687
0.00081337441 -0.038228571 0.65718681
-0.018733984 -0.01221779 0.65746367
0.0073138541 0.013002455 0.6570121
0.019631337 -0.034354836 0.65829694
0.017395481 -0.038104355 0.66080379
0.023947321 -0.034682304 0.66017938
0.023947321 -0.034682304 0.66017938
-0.011572121 0.00082659721 0.66037494
-0.00082674384 0.0090942085 0.66041452
0.029155806 -0.016660422 0.66193044
0.030771544 -0.012474895 0.6616022
0.0016669009 -0.037505239 0.66203362
0.005003653 -0.037527382 0.66215235
0.02918175 -0.015007764 0.66210938
-0.015881376 -0.0066868663 0.66261578
-0.0066836798 0.0066837072 0.66251874
0.011746297 -0.036077887 0.66337848
0.03106869 -0.021412 0.66354108
0.022791075 -0.033764541 0.66460806
0.022791075 -0.033764541 0.66460806
0.022791075 -0.033764541 0.66460806
0.026121171 -0.025278538 0.66424698
0.0076426934 -0.034816712 0.66583306
0.02632805 -0.024629474 0.66585809
0.016177021 -0.03661114 0.66637242
0.01785926 -0.033167154 0.66613549
0.0034051205 0.012769192 0.66633809
0.0042700442 0.014518172 0.66699684
0.0051170834 0.015351266 0.66671646
-0.00085750973 -0.035157889 0.66784203
0.028243897 -0.014549851 0.66744757
0.028243897 -0.014549851 0.66744757
-0.0068502869 0.0085628629 0.66754657
0.018017214 0.0102956 0.66795141
0 -0.035323411 0.66881669
-0.018955851 -0.0077546537 0.66883665
0.0077779987 -0.033704638 0.66946262
0.02261862 -0.031318069 0.67084467
-0.0017341169 0.012138844 0.67014736
-0.0017341169 0.012138844 0.67014736
0.027951632 -0.011355311 0.67169964
0.028733727 -0.010448605 0.67103106
0.023647351 -0.029778153 0.6722644
0.028039446 -0.023658246 0.67236221
0.0052484437 0.017494828 0.67200196
0.016732458 -0.030822963 0.67343003
-0.011430337 0.0070340931 0.67309231
-0.0026597655 -0.032803744 0.67486233
-0.018560937 -0.0053031147 0.67420214
0.0061926455 0.018577993 0.67439759
0.026851246 -0.010740489 0.67690307
-0.0017870781 0.014296621 0.67654032
0.016218906 -0.028833598 0.67835373
0.016218906 -0.028833598 0.67835373
0.023462633 -0.027072251 0.67868167
0.027086433 -0.02166912 0.67879564
-0.0072167204 0.0126293 0.67860466
0.014504043 -0.032634079 0.67967004
0.0063407859 -0.030798078 0.67950678
0.013634247 -0.032722175 0.68026078
0.023649018 -0.024558574 0.68041241
0.027414611 -0.019190192 0.6814366
0.027414611 -0.019190192 0.6814366
-0.020098468 -0.0036542714 0.68137544
-0.014626254 0.0073131323 0.68151402
0.0018255803 0.0182558 0.68118793
0.0036523463 0.020087898 0.68125951
0.0036523463 0.020087898 0.68125951
0.026658438 -0.0073540509 0.68274909
0.026658438 -0.0073540509 0.68274909
-0.012903729 0.01013869 0.68333775
0.0046230713 -0.029587656 0.68404251
-0.015779734 0.0074257553 0.68491298
-0.007419344 0.014838725 0.68471944
-0.021421617 -0.0027941167 0.68567461
0.012177777 -0.030912817 0.68697292
0.018784771 -0.027237892 0.68757319
0.026268108 -0.0056288242 0.6873095
-0.00094469322 -0.030230194 0.6888901
0 0.021047235 0.69178641
0.024995344 -0.01730445 0.69291359
0.024943391 -0.0047967732 0.69243121
0.012517441 0.018294752 0.6932807
0 0.022201031 0.69385564
0.0038564182 0.024102658 0.69357634
-0.0038674618 -0.028039098 0.69424289
-0.0029133533 -0.02816245 0.69526947
0.025270151 -0.0029157698 0.69546533
-0.0097062038 0.017471194 0.69514942
0.025406657 -0.013680518 0.69673276
-0.011695269 0.016568333 0.69611156
0.019608991 -0.022550344 0.6975224
0.018746605 -0.022693247 0.69902253
-0.015903842 0.014909863 0.70079136
0.011951862 -0.025895655 0.7012738
0.012945273 -0.021907359 0.70122588
0.012945273 -0.021907359 0.70122588
-0.0040074703 -0.026048511 0.70269316
0.012026939 -0.025056094 0.70278418
0.01799801 -0.021997571 0.70221561
-0.0060352045 0.022129118 0.70365882
0.0070765233 -0.026284188 0.70488143
-0.021223737 0.0090959072 0.70481437
0.018252976 -0.020281076 0.70563525
0.023293978 -0.01316613 0.70532799
0.016311547 -0.021408916 0.70694315
-0.0050949706 0.023436904 0.70682782
-0.025525799 0.0030631423 0.7073198
-0.025525799 0.0030631423 0.7073198
-0.0030741489 -0.024593174 0.7082094
0.023733146 -0.0072231293 0.70993781
0.023733146 -0.0072231293 0.70993781
-0.0062564653 -0.022940367 0.71256167
-0.011451953 0.022903949 0.71216148
-0.0041895388 -0.02304244 0.713682
0.022019694 -0.01048556 0.71396494
-0.02406265 0.0073234439 0.71339643
-0.02406265 0.0073234439 0.71339643
0.0021143854 -0.020086646 0.71604979
0.021296211 -0.0095832646 0.71788889
0.0085412776 -0.021353215 0.71857679
0.013900992 -0.018178254 0.71897453
-0.0032143374 -0.02035743 0.71949077
-0.0032143374 -0.02035743 0.71949077
-0.021435156 0.017148167 0.71956611
0.015126566 -0.01620701 0.72166926
-0.01087207 0.027180165 0.72329593
-0.0043703462 0.031684995 0.72459465
0.0066377306 -0.018806875 0.72790253
0.0066377306 -0.018806875 0.72790253
0.015580844 -0.012242079 0.72950292
-0.0089239031 0.030118167 0.73012346
0.015722826 -0.0056152642 0.73195136
0.016919255 -0.0056397319 0.73313218
-0.024854802 0.019205987 0.73357004
0.012522745 -0.012522727 0.73566246
-0.0056918971 0.035289824 0.73565
0.0058172052 -0.013961285 0.74170053
0.011656093 -0.010490447 0.74222386
0.012928075 -0.0082269609 0.74455857
-0.023578474 0.027115285 0.74543822
0.011848982 -0.0082942545 0.74688059
-0.016612493 0.033225 0.74729311
-0.014271772 0.034490168 0.74794674
-0.030975182 0.015487611 0.74843901
-0.030975182 0.015487611 0.74843901
0.011943562 -0.0071660876 0.74916399
-0.018411338 0.035595268 0.75714689
-0.0297809 0.024817467 0.76039362
-0.020224791 0.037921548 0.76598942
-0.021731056 0.038348943 0.76942921
-0.018088965 0.041346222 0.77275395
-0.02260037 0.042541891 0.78177452
-0.014626721 0.045209885 0.78183931
-0.0082350494 0.048037857 0.79217368
-0.037632078 0.022300541 0.79730928
-0.014359679 -0.020663872 0.62992871
-0.010720889 -0.017130157 0.62961358
-0.0073082647 -0.01308569 0.62885714
-0.0034642522 -0.0083141625 0.62808979
-0.0089713167 -0.024317097 0.63181084
-0.0028210885 -0.0032898586 0.63099921
0.015527038 0.00035387278 0.63120997
-0.010037887 -0.03226459 0.63391811
-0.0053590545 -0.0046444982 0.63332331
0.0046220385 0.0014224052 0.63251781
0.015157613 0.0021654069 0.6350767
-0.0087389974 -0.018206209 0.63663596
0.035331856 -0.016936844 0.63706082
-0.012399181 -0.015679896 0.63690484
-0.01069307 -0.010935645 0.63681948
0.0094983801 0.0065758228 0.63721412
-0.0033050822 -0.038189694 0.63812506
-0.0033050822 -0.038189694 0.63812506
0.034389168 -0.014789253 0.63937038
0.0069941357 -0.044716783 0.64045173
0.0069941357 -0.044716783 0.64045173
0.024713978 -0.039317265 0.64162338
0.03076507 -0.038268745 0.64197564
0.034942143 -0.029205645 0.64069813
0.034942143 -0.029205645 0.64069813
-0.017209202 -0.019078672 0.64145869
0.034402519 -0.015332326 0.6413753
0.02916814 -0.0089759333 0.64138556
-0.0014888258 0.0014888644 0.64053804
0.019035969 -0.045523241 0.64222795
0.0098362034 -0.041614681 0.64348781
0.030353606 -0.031295352 0.64288735
0.033984058 -0.025676817 0.64314258
0.036821574 -0.024046719 0.64223957
-0.012831303 -0.012452707 0.64304149
0.0071814433 0.006425485 0.64333355
0.012869056 -0.046998389 0.64494306
0.00076361944 -0.040705424 0.64508116
0.021347051 -0.03888049 0.64487928
0.02208302 -0.038074166 0.64465928
0.038161986 -0.022133917 0.64508331
0.022917189 0.0030556321 0.64524424
0.0011455828 0.0045862496 0.64535725
0.006541695 -0.042330563 0.64663005
0.003116451 -0.041039042 0.64894485
0.02026174 -0.040912062 0.64895999
0.033217128 -0.015311917 0.64878094
-0.016314877 -0.013984174 0.64838088
0.027363792 -0.0074274242 0.64956951
0.027363792 -0.0074274242 0.64956951
-0.0089909127 -0.0011730641 0.64956009
0.022513846 0.0038817227 0.64824587
0.0070270044 0.0093693435 0.6493175
-0.00078818976 -0.038621306 0.65110677
0.0079088826 -0.039544374 0.65175819
-0.016940221 -0.013393417 0.65102476
0.0048769126 -0.039283395 0.65704483
0.020915797 -0.034316286 0.6569128
0.020915797 -0.034316286 0.6569128
0.026727868 -0.028347701 0.65635657
0.016997362 0.0080939829 0.65622687
0.0028752573 -0.038602218 0.65910614
0.013980081 -0.039473176 0.65935564
0.02707836 -0.031591117 0.65892076
-0.018526342 -0.011115655 0.65960896
-0.0082267411 0.0041134059 0.65943199
0.030665284 -0.025069013 0.66090882
0.025535356 -0.026793092 0.6629594
0.029343378 -0.026407883 0.66322434
0.015908856 0.010047704 0.662965
0.0071189692 0.015077442 0.6630438
-0.002955622 -0.034640297 0.66479427
0.018858895 -0.032369316 0.6646862
0.018858895 -0.032369316 0.6646862
0.023129931 -0.033284329 0.66511893
0.030402673 -0.01139985 0.66470575
-0.020592373 -0.0094381571 0.66796422
-0.015425711 -0.0017139316 0.66771513
-0.012825061 0.0025649965 0.66723716
-0.007679421 0.0076794326 0.66681826
0.015069091 -0.036166996 0.66871345
0.015069091 -0.036166996 0.66871345
-0.012955946 0.0034549534 0.66934371
-0.012955946 0.0034549534 0.66934371
-0.011176512 0.0051583946 0.66837847
0.029736191 -0.018803716 0.67196655
0.029736191 -0.018803716 0.67196655
-0.00087631552 -0.03417629 0.67238218
0.0092447419 -0.032574013 0.67336333
0.024580084 -0.028529301 0.67275506
-0.0066031404 0.011008441 0.67341137
0.0062244725 -0.032011569 0.67549527
-0.015134165 0.0035610199 0.67574507
0.0066359406 0.018580496 0.67442667
0.012546112 -0.034053743 0.67717087
0.013412907 -0.033979326 0.67669833
-0.016141471 0.0026902556 0.67731512
0.018000066 -0.02790007 0.67810094
0.015524519 -0.028765708 0.68128854
0.023116037 -0.020984661 0.68110597
-0.01911962 -0.002731353 0.68062496
-0.010947255 0.010949562 0.68108559
-0.0018425684 -0.031323642 0.68323863
0.0045809653 -0.030234337 0.68200946
0.0045809653 -0.030234337 0.68200946
0.022065967 -0.026663035 0.68278736
0.025826849 -0.010608226 0.68350494
-0.015608549 0.0064270794 0.68248188
-0.006445026 0.014731497 0.68310189
-0.0036669208 0.015584439 0.68213916
0.024041303 -0.019417971 0.68405497
-0.015779734 0.0074257553 0.68491298
0.014070248 -0.030016541 0.68727815
-0.0051476606 -0.029022709 0.68684375
-0.0051476606 -0.029022709 0.68684375
0.022544013 -0.023013845 0.68759614
0.025250379 -0.0088843852 0.68659794
-0.016802901 0.006534487 0.68618643
-0.010327281 0.01408267 0.68747789
-0.0014046457 0.017778561 0.68672204
0.0052308654 -0.027582213 0.69043952
-0.021019381 2.9802322e-08 0.69148117
-0.021019381 2.9802322e-08 0.69148117
0.02591229 -0.015355408 0.69251651
-0.010617507 0.016408861 0.69384754
0.013563899 -0.024221212 0.694722
0.013563899 -0.024221212 0.694722
0.010684037 0.019425571 0.69530773
0.0019392094 0.024240166 0.69490421
0.02355165 -0.016682416 0.69773221
-0.020607853 0.0058879852 0.69773406
-0.013749355 0.015713602 0.69792008
0.0054287924 -0.025175184 0.69918114
-0.0078806579 0.01970166 0.69864076
-0.0074617611 -0.024878368 0.70106781
0.01340778 -0.021851763 0.70061564
0.01340778 -0.021851763 0.70061564
-0.0090921046 -0.023235351 0.70471293
0.018252976 -0.020281076 0.70563525
0.023186782 -0.014113694 0.70420289
0.023186782 -0.014113694 0.70420289
-0.018188102 0.014146328 0.70476514
0.00252946 0.027306885 0.7049861
0.015310417 -0.021434546 0.70723832
-0.026492659 0.0020379126 0.70681679
-0.026492659 0.0020379126 0.70681679
-0.0050949706 0.023436904 0.70682782
-0.0025891708 -0.023309052 0.71093231
-0.011451953 0.022903949 0.71216148
0.0094131427 0.024055839 0.71332461
-0.0010418496 0.029171824 0.71234566
0.017324835 -0.017324865 0.71431124
-0.010497931 0.024145275 0.71426338
-0.0026584778 -0.020740792 0.71761286
0.01698838 -0.011147276 0.71715575
0.0021398764 -0.019258887 0.71912682
0.013900992 -0.018178254 0.71897453
-0.025645943 0.0074800551 0.71879917
-0.022403933 0.01493597 0.71838224
-0.022403933 0.01493597 0.71838224
0.0093237814 -0.014806911 0.72562414
0.013457077 -0.01345706 0.7315563
-0.026856488 0.012309223 0.73097634
-0.024560334 0.017862111 0.73033857
0.00228369 -0.017127693 0.73648667
0.0079886122 -0.011412293 0.73633826
-0.026301209 0.01829651 0.73689365
-0.031014685 0.011486948 0.73813969
0.011656093 -0.010490447 0.74222386
-0.029737098 0.016652763 0.74798775
0.012039258 -0.0060196221 0.75147432
-0.020580135 0.032686114 0.75308472
-0.020224791 0.037921548 0.76598942
-0.027900862 0.031705558 0.7669965
-0.032742053 0.028813034 0.77700615
-0.028792208 0.035335928 0.77677786
-0.034161363 0.024964124 0.77802402
-0.028403353 0.04057622 0.78735304
0.014666676 0.0054933084 0.63009369
-0.0099780653 -0.017477244 0.63299447
0.0087440321 0.0033916831 0.63316834
-0.005521772 -0.038000535 0.6366933
0.013979864 0.00168522 0.63754314
0.017643219 -0.045384612 0.64207345
-0.0049053039 2.9802322e-08 0.64295173
-0.0049053039 2.9802322e-08 0.64295173
-0.002003521 0.0017548891 0.64213419
0.031816471 -0.021316711 0.64518237
0.028147439 -0.0087482929 0.64448017
0.0056282687 0.0063957036 0.64569908
0.017968079 -0.041562308 0.64993823
0.025942251 -0.037226696 0.65004349
0.03303726 -0.026044201 0.64980429
-0.012737572 -0.0070545748 0.65004098
-0.0018332339 0.0049714297 0.65029919
0.01880862 0.0060109496 0.65003985
0.012417134 -0.038054898 0.65424299
0.027143402 -0.029537432 0.65356851
-0.011036771 -0.001991441 0.65344101
0.0061435862 -0.038179737 0.65823781
-0.005416912 -0.031253971 0.6620456
-0.0041817687 0.0083635449 0.66273457
-0.0041817687 0.0083635449 0.66273457
0.0221866 -0.031566992 0.66679251
0.029431002 -0.021966197 0.66981781
0.024580084 -0.028529301 0.67275506
0.026085902 -0.022882622 0.6740036
0.029236075 -0.0075299144 0.67470616
-0.0031638218 -0.03165029 0.67913681
0.0036165365 -0.031644672 0.67909813
-0.0023630725 0.014627002 0.67810875
-0.0023630725 0.014627002 0.67810875
0.00044763929 0.015261054 0.67754662
0.013249964 -0.032439083 0.68143916
-0.011467868 0.01100794 0.68227154
-0.020543009 0.0014333576 0.69149661
-0.0062955893 0.017338112 0.69016469
-0.020424232 0.0048629045 0.6956231
0.010006914 -0.028316505 0.69655222
-0.025592588 -0.00098434091 0.69845927
0.023618445 -0.0039363801 0.69840407
-0.010435443 0.018043686 0.69788218
-0.001862733 -0.024718191 0.7060703
0.0040460164 -0.023264557 0.70501959
-0.002033595 0.025380552 0.70594513
0.0062945224 -0.023438996 0.71422327
0.017836001 -0.014174536 0.71411455
-0.021661034 0.013626039 0.71385044
-0.025322665 0.013765126 0.72662234
-0.022724286 0.018694878 0.7262789
0.014386414 -0.010979196 0.73504114
0.0064954101 -0.014335936 0.73765945
-0.02736257 0.01482141 0.73606706
-0.030066894 0.01804018 0.75117248
-0.023046734 0.034261182 0.76158929
-0.028336391 0.033488512 0.77177596
-0.018819254 0.04152596 0.77411002
-0.031385053 0.031385064 0.77653015
-0.034498721 0.026537508 0.7811566
