# .PCD v0.7 - Point Cloud Data file format
VERSION 0.7
FIELDS x y z
SIZE 4 4 4
TYPE F F F
COUNT 1 1 1
WIDTH 704
HEIGHT 1
VIEWPOINT 0 0 0 1 0 0 0
POINTS 704
DATA ascii
0.0031297645 -0.059465498 0.64971888
0.0023500209 -0.057967186 0.64993596
-0.0015774181 -0.055209637 0.65123212
-0.0063520055 -0.061138049 0.65250969
0.0055603166 -0.060369149 0.65258938
0.0095803365 -0.061473817 0.65356237
-0.0084370002 -0.058655143 0.65480179
0.0064206365 -0.05778572 0.65458071
0.012126692 -0.059825003 0.65599704
0.0080813793 -0.056569636 0.65592265
0.010511192 -0.058215827 0.65602297
0.0032426598 -0.048639864 0.65653276
-0.008942931 -0.055283546 0.65709496
-0.008942931 -0.055283546 0.65709496
0.004068512 -0.049635828 0.65726602
-0.013114529 -0.056556404 0.65870386
-0.0073608132 -0.052343547 0.65827179
0.0081893094 -0.052411586 0.65852833
-0.0082082255 -0.051711828 0.65898502
-0.0016341975 -0.044123322 0.658086
0.0016376689 -0.043398231 0.65850508
-0.018076362 -0.063267231 0.65918547
-0.018076362 -0.063267231 0.65918547
-0.0049472372 -0.04782328 0.65988237
0.019882919 -0.066276371 0.66082764
0.011575447 -0.052089483 0.6604324
-0.0041278675 -0.045406491 0.66013193
-0.014116405 -0.053558812 0.6612916
0.013292165 -0.052337885 0.66138422
0.012459046 -0.0514974 0.66134626
-0.0074769421 -0.047353953 0.66138685
-0.0074769421 -0.047353953 0.66138685
0.0016640348 -0.038272798 0.66168767
0.0083378376 -0.046691835 0.66211408
-0.0033339018 -0.040006787 0.66203964
-0.0016718075 -0.036779732 0.66262591
0.016774628 -0.06793721 0.66330862
-0.020941745 -0.063662887 0.66305232
0.018495452 -0.062631875 0.66378438
-0.019266149 -0.059473753 0.66304964
0.0075627044 -0.043695629 0.66368741
0.0075627044 -0.043695629 0.66368741
-0.010132819 -0.043908864 0.6646775
-0.0075881248 -0.042577326 0.66436929
-0.0054785069 -0.041295633 0.66428328
0.0054907957 -0.040543556 0.66473937
-0.0042207465 -0.038408279 0.66461653
0.003379808 -0.03548798 0.66481036
-0.017799119 -0.05254975 0.66544408
-0.010577437 -0.04357928 0.6651119
0.0076324339 -0.040706307 0.66555786
0.003395773 -0.03395772 0.66577393
0.001695223 -0.032209188 0.66545242
0.021268686 -0.059552312 0.66620958
-0.019600786 -0.05454129 0.66656208
0.011515938 -0.041796744 0.66675216
0.0068067205 -0.039138615 0.66623187
0.018813305 -0.056439877 0.66727245
-0.015440838 -0.044606835 0.66791803
-0.011983654 -0.041086793 0.66747165
-0.012011847 -0.040325493 0.66795778
-0.012011847 -0.040325493 0.66795778
-0.0017111894 -0.029090166 0.66737974
-0.00085448136 -0.029052377 0.66711098
-0.0017152253 -0.028301209 0.66786695
0.025069363 -0.070452981 0.66952026
0.017295673 -0.055346102 0.66959816
0.020738751 -0.05271095 0.66943657
0.0094900513 -0.036234736 0.66910279
-0.021705896 -0.071629047 0.67043161
0.012184891 -0.035684317 0.67094183
-0.010445901 -0.033949167 0.67097616
-0.010445901 -0.033949167 0.67097616
-0.0026041358 -0.025173277 0.6703856
0.020960942 -0.049782217 0.67167169
-0.01222766 -0.034498915 0.67167938
-0.0087348539 -0.031445444 0.67169893
-0.0026229839 -0.022732496 0.67190236
-0.00087087357 -0.022642702 0.67106837
-0.028050056 -0.070125148 0.67244232
0.027121607 -0.069116324 0.6720382
-0.026299415 -0.067501843 0.67246228
0.02540968 -0.066590875 0.67235327
0.016691564 -0.05095318 0.67291033
-0.017506627 -0.041140527 0.67214465
0.012302633 -0.032514066 0.6729722
-0.0074609481 -0.028964892 0.67272222
-0.0026325099 -0.021498293 0.67266893
0.026483811 -0.074154615 0.67394614
0.01850641 -0.046706647 0.67357528
-0.018517628 -0.040562421 0.67370433
0.0061614239 -0.027286291 0.67332077
0.019442249 -0.04418689 0.67417431
0.02036541 -0.043387175 0.67458808
-0.010597039 -0.029141843 0.67401689
-0.024948435 -0.059698015 0.67593104
-0.019557483 -0.040003896 0.67543876
-0.024093116 -0.054432571 0.67625028
-0.022315603 -0.046416432 0.67631936
-0.02140671 -0.043705374 0.67615575
-0.016098365 -0.031302333 0.67673695
-0.011590384 -0.026747018 0.67606443
0.0089264009 -0.024101287 0.67632329
0.0084942542 -0.023246408 0.67667425
0.0017829518 -0.015155077 0.6760422
-0.026074115 -0.058441967 0.67788464
-0.019710518 -0.037629128 0.67711818
-0.017020039 -0.032248467 0.67708409
-0.014349927 -0.027802944 0.67734456
-0.0026944752 -0.013472378 0.67765558
0.000449502 -0.01168406 0.67780435
0.010806649 -0.022513866 0.67823398
0.0072244308 -0.018964112 0.67883736
-0.026260221 -0.056142539 0.67943394
0.0190216 -0.036231607 0.67949808
-0.019970991 -0.033587545 0.67997652
-0.018138401 -0.029928327 0.67977077
-0.015414288 -0.025388181 0.67972314
-0.014494379 -0.024459243 0.67952418
-0.007241081 -0.018102705 0.67933983
0.0081492197 -0.018561542 0.67942047
0.0054276292 -0.017187446 0.67921185
0.027243946 -0.056304127 0.68006325
0.023653148 -0.045486838 0.68045074
-0.020969842 -0.034645796 0.68093252
-0.020969842 -0.034645796 0.68093252
-0.01182163 -0.020005822 0.68035889
0.011823736 -0.020009339 0.68039799
0.0018188049 -0.0081846416 0.68037009
-0.021944111 -0.036573499 0.68156165
0.010059115 -0.016460359 0.68159229
-0.0054810401 -0.013702601 0.6813609
-0.0054947436 -0.012821048 0.6819123
-0.02022736 -0.079989985 0.6827898
-0.017469084 -0.079989985 0.6827898
-0.016555499 -0.079558179 0.68286818
-0.020190205 -0.078466035 0.68238211
-0.02758256 -0.052406877 0.68278819
0.024794782 -0.048671216 0.6825242
0.022085041 -0.034967959 0.68297923
0.008261106 -0.013768494 0.68242174
0.020291941 -0.077478275 0.6834985
-0.020289173 -0.076545507 0.68346816
-0.028626118 -0.053558499 0.68375498
0.018417681 -0.031310022 0.68314201
0.018417681 -0.031310022 0.68314201
0.020305116 -0.028611749 0.6836431
-0.018450141 -0.024445802 0.68353385
0.011973432 -0.015657544 0.68317795
-0.011050202 -0.014733553 0.68313378
0.016647732 -0.076764524 0.68410528
-0.0046307552 -0.0074091554 0.68441355
0.016742306 -0.07441026 0.68537372
0.027951958 -0.048450023 0.68576086
0.026097048 -0.045669824 0.68583465
-0.025118874 -0.04465577 0.68542212
-0.016727256 -0.018585801 0.68517178
0.0027927826 -0.00093090534 0.68556672
0.02433979 -0.039318085 0.68682653
0.018661465 -0.026126057 0.68608475
-0.013998762 -0.013065487 0.68612754
-0.01122023 -0.0093501806 0.68655449
-0.0084284348 -0.0065553784 0.68691021
-0.0084284348 -0.0065553784 0.68691021
-0.0028021038 0.00046764314 0.68631679
-0.026282597 -0.043178529 0.68743443
-0.0074988748 -0.0056241155 0.68711948
-0.0065858453 -0.0037633479 0.6879586
-0.014166335 -0.079331458 0.68882459
-0.024469534 -0.037645429 0.6880312
0.0084726457 -0.0047069788 0.68809617
-0.0056498973 -0.0028249323 0.68815517
0.0075585172 -0.0028344095 0.68891931
0.0047055027 -0.0018821955 0.68802267
0.0028294108 0.0037725568 0.68851429
0.011370453 -0.078645587 0.68957675
0.026482612 -0.040669709 0.68915904
-0.021814354 -0.022762775 0.68979704
-0.017977411 -0.014192671 0.68924886
-0.005693723 2.9802322e-08 0.68991864
-0.005693723 2.9802322e-08 0.68991864
0.01140384 -0.084578454 0.69024837
0.014254692 -0.080776572 0.6902467
0.014283176 -0.079985797 0.69070518
0.022835178 -0.025689542 0.69052505
0.01899673 -0.018996716 0.69013172
0.01903945 -0.018087476 0.69064748
0.010451496 -0.0028503835 0.69020402
-0.0018992621 0.007597059 0.69008213
0.011442263 -0.076281756 0.69102144
0.016239148 -0.075464249 0.69143724
0.027740523 -0.038262784 0.6917572
-0.025844183 -0.035416067 0.69190747
0.0047801803 0.0038241744 0.6916284
-0.0019143034 0.010528684 0.69189775
-0.0028751181 -0.083378419 0.69219249
0.0086338203 -0.083460271 0.69241965
-0.010560182 -0.081601381 0.6925894
-0.010560182 -0.081601381 0.6925894
0.002877885 -0.081540078 0.69241518
0.017238228 -0.062249124 0.69202513
-0.027804416 -0.03739211 0.69228911
0.021130661 -0.016328186 0.69270235
-0.01344018 -0.0019200146 0.69258851
-0.01344018 -0.0019200146 0.69258851
0.0086273039 0.0019171834 0.69224483
-0.0019193703 0.011516243 0.69250941
0.0028933093 -0.079565451 0.69365644
0.01930009 -0.012545049 0.69379359
-0.01347586 -0.00096252561 0.69320381
-0.0077146799 0.0048216879 0.69363195
-0.0057834685 0.0057834983 0.69352973
-0.010641813 0.0038698018 0.694381
0.0096819755 0.0048409998 0.69456446
0.0096819755 0.0048409998 0.69456446
-0.00096839241 0.015494287 0.69461149
0.00048429746 0.015492529 0.69458485
0.0087411795 -0.078670621 0.69529951
0.017492749 -0.05636552 0.69543886
0.0029134662 0.014567345 0.69527853
-0.0029192572 0.015569419 0.69574457
-0.0029192572 0.015569419 0.69574457
0.0058643571 -0.078191429 0.6967845
0.026315277 -0.029239178 0.69611979
0.023429144 -0.018548071 0.69649994
0.021446507 -0.011698037 0.69616836
0.020475496 -0.0087752044 0.69621241
-0.015637249 0.0019546747 0.69676876
-0.015637249 0.0019546747 0.69676876
0.011735867 0.0068459213 0.69692832
0.011735867 0.0068459213 0.69692832
-0.0097819921 0.0088037848 0.69697911
-0.008786615 0.0087866485 0.69651836
-0.025514385 -0.025514364 0.69773316
-0.0088335313 0.010796547 0.69777685
0.0088355076 0.010798991 0.69782978
-0.0058760652 0.011752188 0.69725549
0.00049084803 0.020608708 0.69774383
0.016753389 -0.0088694096 0.69874007
-0.018686762 -0.00098350644 0.6982621
-0.0068845698 0.012785643 0.6982612
0.0078826128 0.012809277 0.69869977
0.019750714 -0.0029625595 0.69923311
-0.017803894 0.0029673278 0.69961202
-0.0029672924 0.021760166 0.69961017
0.00098703708 0.022701889 0.69911271
0.026791004 -0.022821933 0.70037353
0.026791004 -0.022821933 0.70037353
0.019890076 -0 0.70091534
0.012925981 0.011931688 0.70086759
-0.0099412836 0.01491192 0.70082474
-0.006940118 0.01586315 0.70017701
0.007946522 0.015893042 0.7006284
0.0049775839 0.018914849 0.70115995
-0.026057115 -0.018039525 0.70277262
-0.022981109 -0.0069942474 0.70204401
-0.018006001 0.0070023239 0.70232272
-0.017015873 0.0090084076 0.70246762
-0.017015873 0.0090084076 0.70246762
0.0050051087 0.021021485 0.70248896
-0.026125768 -0.017082214 0.70341009
0.017070783 -0.0010041296 0.70324743
-0.015052064 0.013045162 0.70308018
0.002010894 0.029157996 0.70355731
0.002010894 0.029157996 0.70355731
0.028255284 -0.019173205 0.70444334
-0.025218168 -0.014122158 0.70434904
0.019150056 0.0040316284 0.70414895
-0.018162208 0.010090142 0.70441782
0.0070563355 0.022177041 0.70418525
0.0080774343 0.022212982 0.70457906
0.0070757228 0.023248792 0.70485383
0.017236618 0.0030417442 0.70560247
-0.018267786 0.01217854 0.70583391
-0.009125934 0.023321867 0.70562041
-0.0040616831 0.029447228 0.70596516
0.017299155 -0.038668692 0.70649064
0.027530221 -0.013255268 0.70698321
-0.025435794 -0.011191726 0.70645064
0.01933435 0.0081408024 0.70649064
-0.014233047 0.019316286 0.70626104
0.010195298 0.02446872 0.70695722
-0.0071122753 0.025401026 0.70611447
0.0010174774 0.034594238 0.70646167
-0.028656725 -0.014328331 0.7079047
-0.028656725 -0.014328331 0.7079047
0.026554307 -0.011234492 0.70738924
-0.0051144063 0.029663563 0.70776629
-0.003059587 0.033655494 0.70703745
0.0276873 -0.01127997 0.70838779
0.026625067 -0.010240376 0.70804626
0.016408499 0.0061531961 0.70840609
0.019522224 0.012329876 0.70887786
-0.0082095666 0.028733462 0.70856649
0.021631388 0.0092706382 0.70950085
-0.014436855 0.024748921 0.70977557
-0.014436855 0.024748921 0.70977557
-0.0061892136 0.031977594 0.70985568
-0.024804719 -0.003100574 0.7103371
-0.015528996 0.024846435 0.7107563
0.0051620412 0.033037096 0.71006626
0.003097506 0.038202584 0.71008897
0.0020683843 0.040333509 0.71049702
0.017628634 0.012443721 0.71116972
-0.011428365 0.031168282 0.7116437
-0.011428365 0.031168282 0.7116437
0.009336561 0.032159269 0.71127033
-0.027124578 -0.0031297505 0.71268445
-0.0062593352 0.036512822 0.71267706
-0.0020849844 0.043784708 0.71250081
0.026159868 -0.0010463893 0.71344298
-0.017823523 0.026211113 0.71393728
-0.0094115287 0.035554707 0.71328139
0.0052361125 0.038747251 0.71364278
-0.011560143 0.035731345 0.71453595
0.016901728 -0.024296224 0.71584827
0.025306432 0.0031633377 0.71538395
0.025306432 0.0031633377 0.71538395
0.025306432 0.0031633377 0.71538395
0.0010559701 0.049630612 0.71575457
0.0010559701 0.049630612 0.71575457
-0.028605489 -0 0.7165978
-0.027507935 0.0021160245 0.7162441
0.01903357 0.023263305 0.71610475
-0.01904323 0.027506918 0.71623433
-0.01803798 0.030770719 0.71698284
-0.01272174 0.038165241 0.71676254
0.010579035 0.03914246 0.71622145
-0.0095474543 0.041372299 0.71692753
0.0052969316 0.043434858 0.71657944
-0.014906459 0.037266165 0.71787357
-0.01063403 0.041472763 0.71754903
0.025598489 0.0074662566 0.7183218
-0.024554288 0.011743397 0.718557
-0.022447007 0.02244702 0.71887738
0.01067177 0.042687088 0.71846026
0.01067177 0.042687088 0.71846026
0.0074657165 0.044794291 0.71830428
-0.0053554857 0.048199415 0.7194066
-0.0042811995 0.050304115 0.71921414
-0.020438701 0.031195909 0.720523
-0.0086186277 0.048479825 0.72091097
-0.021570349 0.029119998 0.72119802
-0.018373212 0.037827224 0.72174358
-0.018373212 0.037827224 0.72174358
-0.016185995 0.041004568 0.72133052
-0.014034824 0.044263691 0.72145987
0.027052619 0.011903197 0.72206414
0.016245414 0.028158784 0.72228682
0.008687689 0.051040202 0.7229951
0.027210446 0.014149457 0.72358823
0.0010898783 0.055583805 0.72394079
0.017451584 -0.0098165274 0.724145
0.017451584 -0.0098165274 0.724145
-0.026166312 0.016353935 0.72403371
-0.012031429 0.051407009 0.7248795
-0.010905386 0.051255375 0.72410023
0.01091295 0.0512909 0.7242828
0.0186597 0.038417071 0.72581208
0.01972384 0.039447725 0.7253629
0.002193613 0.058130771 0.72561342
-0.022004819 0.036307961 0.72644258
-0.012103873 0.053917259 0.7264694
0.011011755 0.055058807 0.72666818
-0.0021997949 0.059394509 0.72635961
0.017665695 -0.0044164062 0.72737569
0.013259864 0.054144502 0.72758877
-0.0033115288 0.060711384 0.72731221
0.016672697 -0.0033345222 0.72916394
0.01114638 0.060190469 0.72991836
0.010034603 0.0613226 0.72999507
-0.0055633988 0.063422769 0.72944558
0.018954841 0.045714617 0.73000348
0.019039953 0.048159897 0.73121214
-0.0089746425 0.065066189 0.7316547
0.0089796763 0.065102667 0.73180658
-0.0022464711 0.068517387 0.73199397
-0.0011228474 0.068493724 0.73190022
-0.021397194 0.047299087 0.73270196
0.016855722 0.056185752 0.73210967
0.011249477 0.064122021 0.73240733
0.020331889 0.050829709 0.7335183
0.020331889 0.050829709 0.7335183
-0.0079086311 0.068918109 0.73357981
-0.0067672445 0.06880033 0.73311377
-0.0045134495 0.069958478 0.73323172
-0.026111796 0.034058899 0.73490548
0.013592273 0.064563304 0.73427635
0.011354552 0.068127334 0.73494405
-0.0091136293 0.071769834 0.73584902
0.0011366778 0.0738841 0.73523921
0.027372424 0.03421554 0.73616618
0.027372424 0.03421554 0.73616618
0.018267352 0.060510576 0.73645401
-0.010277966 0.071945786 0.73652315
0.0091475779 0.073180616 0.73687345
-0.02062683 0.057296753 0.73747402
-0.0068721478 0.075593621 0.73733479
-0.0068721478 0.075593621 0.73733479
0.017241307 0.065516979 0.73831546
0.014977353 0.070278347 0.73896348
0.011497955 0.073586911 0.73840606
0.001150795 0.079404861 0.7386474
0.0057741613 0.079683453 0.73962206
0.017359745 0.01620242 0.7402218
-0.011597521 0.077703416 0.7408098
-0.0046261838 0.080958247 0.74003577
-0.0034771767 0.082293212 0.74064249
0.016263595 0.072024524 0.74127656
-0.01050708 0.081721753 0.74266911
-0.0081587331 0.082752854 0.74220556
0.008163753 0.082803786 0.74237871
0.008163753 0.082803786 0.74237871
-0.019978812 0.070513457 0.7445451
0.0035222147 0.088055402 0.74426687
0.0035222147 0.088055402 0.74426687
-0.0023534887 0.089432567 0.74491215
0.022423113 0.063728869 0.74573767
-0.012965717 0.083687812 0.74538469
-0.012965717 0.083687812 0.74538469
0.010617417 0.086119115 0.74562883
-0.020118399 0.07337299 0.74652749
-0.016561592 0.080442041 0.74641532
-0.010642661 0.087506354 0.74630594
-0.016616827 0.081897289 0.7473678
0.016945314 0.036311388 0.75303233
0.017075427 0.040249258 0.75527614
-0.023302965 0.079720676 0.75691742
0.017544402 0.053886414 0.76336324
0.017593401 0.05529356 0.76420826
-0.0050996616 -0.058876228 0.65316606
0.0072187702 -0.062562644 0.6544615
0.00040088341 -0.061759382 0.65445781
-0.0097634448 -0.06427601 0.65724623
-0.013572433 -0.060769387 0.65643764
0.0094498852 -0.056832235 0.65636545
-0.0068924129 -0.054833334 0.65657896
0.0051983749 -0.052871525 0.65689749
-0.018076429 -0.063266188 0.65918618
-0.014613083 -0.057011545 0.65957797
-0.015022379 -0.055019807 0.66116935
-0.0029023332 -0.04103557 0.66096199
0.0029014805 -0.041023776 0.66090441
-0.018467765 -0.057080816 0.66348064
-0.012944022 -0.050313324 0.66242647
0.012602985 -0.047891319 0.66366291
-0.0030644252 -0.038716685 0.66255593
0.016863689 -0.064503193 0.66438365
0.0088707786 -0.042767756 0.66477668
-0.001273836 -0.031414524 0.66579771
0.02132443 -0.058853924 0.66674781
-0.019217551 -0.05295334 0.66701508
-0.016462928 -0.04724922 0.66728532
-0.008940001 -0.040229373 0.66637182
0.0089401128 -0.040229693 0.66637343
-0.0055511161 -0.037003703 0.66698074
0.0067786872 -0.033458695 0.66972637
0.003159086 -0.028713694 0.66878456
0.00057636783 -0.02524529 0.66949618
0.017478801 -0.051562458 0.67180872
0.017478801 -0.051562458 0.67180872
-0.011090603 -0.034791887 0.67081499
-0.011090603 -0.034791887 0.67081499
-0.0061173667 -0.029712915 0.67180133
-0.028050056 -0.070125148 0.67244232
0.022783812 -0.05476813 0.6723786
0.0049787415 -0.026647151 0.67290425
-0.028393276 -0.06698975 0.67503166
-0.01768183 -0.038015902 0.67425942
-0.01768183 -0.038015902 0.67425942
0.0097190989 -0.028273702 0.67412984
0.012740754 -0.029036155 0.67541301
0.022321098 -0.046427876 0.67637247
0.012968298 -0.027163535 0.67672729
-0.0090533271 -0.022764912 0.6772005
-0.0090533271 -0.022764912 0.6772005
-0.0032767355 -0.01638037 0.67652559
-0.0032767355 -0.01638037 0.67652559
0.025214426 -0.056732446 0.6782245
0.025214426 -0.056732446 0.6782245
0.02122076 -0.039052755 0.67881066
0.0054075569 -0.01847522 0.67840421
0.0049723377 -0.016721465 0.67904049
0.021047158 -0.077782944 0.6817441
-0.020103898 -0.03152594 0.68143499
0.020111945 -0.031538561 0.68152332
0.020111945 -0.031538561 0.68152332
-0.018280948 -0.027421415 0.68149149
-0.0068430463 -0.015053444 0.68108523
0.0004574348 -0.0054876804 0.68163019
-0.022068795 -0.034940492 0.68281591
-0.019249924 -0.028416544 0.68212295
0.012880379 -0.017019913 0.68293512
0.0067573315 -0.011517078 0.68326992
0.0013761636 -0.0048918827 0.68227518
-0.015733967 -0.01851055 0.68426305
-0.023326224 -0.034522802 0.68607885
0.022411479 -0.03081575 0.68626297
0.01728381 -0.028261915 0.68637627
0.01728381 -0.028261915 0.68637627
-0.00094079971 0.0047040284 0.68795002
-0.00094079971 0.0047040284 0.68795002
0.026967339 -0.041158877 0.68925273
-0.025552735 -0.039274886 0.68930155
0.024569247 -0.037325501 0.6889571
-0.02259355 -0.028241932 0.6880945
-0.010421613 -0.0037896335 0.68954813
0.0069455663 -0.0015781324 0.68947518
-0.0015723499 0.0053462191 0.68857354
0.0028535507 -0.08465533 0.69045699
0.013378335 -0.078836083 0.69152206
-0.016182411 -0.076865084 0.69063151
0.020960946 -0.018815286 0.69084001
-0.01108986 -0.0031681359 0.69030166
0.0018999977 0.0076000094 0.69017088
-0.011042486 -0.081021667 0.6926505
-0.027258765 -0.035275124 0.69308084
0.024060186 -0.027427673 0.69316661
0.024060186 -0.027427673 0.69316661
-0.016958021 -0.0070387824 0.69254911
-0.01061378 0.0028946698 0.6937657
-0.0038324923 0.0076650083 0.69213223
-0.002895829 0.012548566 0.69385922
-0.0035494349 -0.080658376 0.69449317
0.02515522 -0.03047584 0.69439816
0.00548231 0.0074169738 0.69437182
0.006813508 0.0087602437 0.69581038
-0.025409931 -0.026875198 0.69676328
0.012699408 0.0053735077 0.69665998
-0.012744546 0.0068624616 0.69749826
-0.0092966966 0.0092968866 0.69706357
0.0054316181 0.015305966 0.69920957
-0.025818706 -0.021349385 0.70055878
0.022958828 -0.0079856813 0.70181012
0.0039646663 0.019823343 0.70010966
-0.025146181 -0.015087694 0.70365393
-0.020113956 0.0045264065 0.70361781
-0.015031142 0.012526676 0.70274347
-0.015031142 0.012526676 0.70274347
-0.011489538 0.015485927 0.70202279
-0.0099955397 0.01699245 0.70213455
-0.0010059362 0.0301781 0.70367539
0.01720446 -0.040986493 0.70514584
-0.026579529 -0.010733351 0.70762348
-0.023447849 -0.001019448 0.70694315
0.016826641 0.0045900047 0.70703769
0.018323524 0.0066174418 0.70658147
0.0088264514 0.02512156 0.70669001
0.016389553 -0.038925201 0.70812017
0.016456336 -0.036768243 0.70912778
-0.027089953 -0.0089153051 0.70917338
-0.025649425 -0.008207798 0.70851362
0.019220453 0.012699774 0.70941281
-0.016471257 0.021104544 0.70935303
-0.0068392991 0.029409319 0.70849264
0.0068417629 0.0294198 0.70858109
-0.0010258255 0.037955582 0.70847708
-0.022720387 0.0072292686 0.71014756
-0.014562003 0.028083861 0.71193361
-0.012971796 0.029054925 0.71133804
-0.012971796 0.029054925 0.71133804
0.012476685 0.030152023 0.7118324
-0.0068968995 0.03276062 0.71057856
-0.018815037 0.022996157 0.71317381
-0.022111639 0.017374307 0.71502197
-0.010882547 0.037210714 0.71506727
0.010889053 0.037232965 0.71521938
0.00456576 0.042487711 0.71513736
-0.023310766 0.015364885 0.71662617
-0.013236569 0.037059918 0.71645075
0.0052969316 0.043434858 0.71657944
-0.0063858465 0.044700921 0.71776754
0.022429662 0.021361619 0.718678
0.018141776 0.025611907 0.71845698
-0.0091138817 0.046102732 0.71966231
-0.026994877 0.011338636 0.72150648
-0.026994877 0.011338636 0.72150648
0.024831913 0.014035463 0.72147107
0.016332095 -0.022864908 0.72368199
0.027052619 0.011903197 0.72206414
-0.0092370864 0.051072374 0.72316051
-0.0075835898 0.05091843 0.72236955
-0.0075835898 0.05091843 0.72236955
0.0092418958 0.051098824 0.72329628
0.0092418958 0.051098824 0.72329628
0.0027109655 0.053131655 0.72259855
-0.017018259 0.046662852 0.72588944
0.017295187 -0.0051519475 0.72735041
0.019342227 0.04255344 0.72766322
0.019342227 0.04255344 0.72766322
-0.015081663 0.051496349 0.72722644
0.012584029 0.056996368 0.72887397
-0.007205708 0.06096749 0.72843647
-0.0044591282 0.06465736 0.72995305
0.025183614 0.029098898 0.73101687
-0.024587873 0.03129366 0.73064077
0.023530897 0.036977172 0.73133808
0.023530897 0.036977172 0.73133808
0.0089386702 0.06313023 0.73056912
0.00055975554 0.067165419 0.73107368
-0.025919661 0.030991748 0.7328887
-0.021470647 0.048591465 0.73363531
0.00056315761 0.069825754 0.73271477
-0.0056484099 0.070040315 0.73355025
-0.0056484099 0.070040315 0.73355025
-0.02271859 0.046573162 0.73505855
0.020435099 0.05279167 0.7349025
-0.019256331 0.055503607 0.734285
0.017046377 0.060799688 0.73517823
-0.013600158 0.065168306 0.73443496
-0.013600158 0.065168306 0.73443496
0.01088969 0.072789446 0.73755968
0.018449808 0.064574331 0.73920703
-0.013793868 0.07126832 0.73833209
-0.011488081 0.07352373 0.73816776
0.0086476915 0.077246949 0.73916507
0.00057539751 0.079397187 0.73862064
-0.023241261 0.054616988 0.7413677
-0.017382663 0.069530696 0.74059057
-0.017382663 0.069530696 0.74059057
0.017383354 0.06895496 0.74060178
0.0069401418 0.079811633 0.74007064
0.014033472 0.078353614 0.74315256
-0.0085900892 0.084728405 0.7436105
-0.0029243978 0.086556762 0.74320805
0.016458629 0.021161079 0.74463981
0.019964464 0.069288462 0.74434137
-0.014153553 0.082562447 0.74556839
-0.014153553 0.082562447 0.74556839
0.0058659255 0.086815715 0.74405283
-0.020118399 0.07337299 0.74652749
0.016590696 0.080583423 0.74691725
0.01310888 0.088187039 0.74852669
-0.022842493 0.072134197 0.75106645
-0.023023389 0.075128973 0.75336498
-0.023023389 0.075128973 0.75336498
0.017520038 0.053186715 0.76294315
0.0014524356 -0.06211108 0.65430307
-0.005106532 -0.0546389 0.65539992
-0.017043006 -0.062467847 0.6585387
-0.016487313 -0.059354305 0.6598404
-0.0099332295 -0.054191783 0.65827793
-0.0020619999 -0.045541417 0.6575858
-0.022708785 -0.068126336 0.66387218
0.010499674 -0.049829818 0.66124266
-0.0042058253 -0.039534748 0.66389608
-0.017412506 -0.050084636 0.66658825
0.021591997 -0.054276753 0.67014343
0.0073048733 -0.036093205 0.66828942
-0.028452277 -0.066461027 0.67547679
-0.026450314 -0.065853268 0.67358267
-0.011395296 -0.032432735 0.67244148
-0.0059783291 -0.025894476 0.6739049
0.022407964 -0.07786373 0.67940199
0.027243946 -0.056304127 0.68006325
-0.023485918 -0.042547807 0.68171644
-0.01182163 -0.020005822 0.68035889
-0.019483939 -0.024586231 0.6848132
0.019559361 -0.022374963 0.68748003
-0.0037031374 -0.0046288967 0.68432504
0.0019728059 -0.082486272 0.69144094
-0.026581874 -0.041522436 0.68865418
-0.0064026159 -0.079594314 0.69563699
0.022786563 -0.021180179 0.6932478
0.022786563 -0.021180179 0.6932478
-0.017819542 -0.0062503438 0.6940254
-0.014496156 -0.0018853465 0.69345355
0.0017367852 0.014095694 0.6944049
0.01658453 -0.057069793 0.69634205
-0.026280969 -0.026031271 0.69799489
-0.023441413 -0.017823048 0.69662333
-0.0062763193 0.014061733 0.69873661
-0.015876275 0.0074426979 0.70037538
0.010652374 0.01463437 0.70113564
0.0056476109 0.021586403 0.70319498
-0.0283709 -0.017390411 0.70544022
0.026910065 -0.016481888 0.7044422
0.026344607 -0.013727329 0.7057367
0.017090373 0.0022792965 0.70535576
-0.02295322 0.0056719258 0.70985508
-0.016639106 0.02495867 0.71188563
-0.0030769848 0.035898179 0.7084375
-0.025984412 0.0011928122 0.71444196
0.024147475 0.0060399845 0.71428686
0.024147475 0.0060399845 0.71428686
0.0056893057 0.038456276 0.71354812
0.0015746536 0.045858651 0.71387005
-0.009642886 0.045352496 0.71945828
-0.017306302 0.041160967 0.72261173
0.012883503 0.042944998 0.72001702
-0.025910821 0.021638878 0.72699964
-0.018965578 0.042529419 0.72545063
0.021022826 0.040939212 0.72794509
-0.0027264657 0.055616513 0.7240957
0.025589695 0.02913503 0.73136371
0.023343187 0.034461886 0.7291801
0.015773673 0.059152201 0.73282814
0.0075008785 0.067132823 0.73244929
-0.0092307441 0.077300847 0.73935908
0.0090391021 0.077315062 0.73940849
0.017897567 0.069834903 0.74181032
0.023611451 0.058146812 0.74583626
-0.014354868 0.082333833 0.74562567
-0.0021147861 0.090184614 0.745731
