# .PCD v0.7 - Point Cloud Data file format
VERSION 0.7
FIELDS x y z
SIZE 4 4 4
TYPE F F F
COUNT 1 1 1
WIDTH 1369
HEIGHT 1
VIEWPOINT 0 0 0 1 0 0 0
POINTS 1369
DATA ascii
0 0.08699742 0.69418788
0 0.086030781 0.69418788
0 0.085064143 0.69418788
0 0.084097505 0.69418788
0 0.083130836 0.69418788
0 0.082164228 0.69418788
0 0.081197262 0.69418693
0 0.080230653 0.69418699
0 0.079264015 0.69418693
0 0.078297377 0.69418693
0 0.077330709 0.69418693
0 0.0763641 0.69418693
0 0.075397462 0.69418693
0 0.074430853 0.69418699
0 0.073464215 0.69418693
0 0.072497547 0.69418693
0 0.071530938 0.69418693
0 0.0705643 0.69418699
0 0.069597632 0.69418693
0 0.068631023 0.69418693
0 0.067664385 0.69418699
0 0.066697747 0.69418693
0 0.065731138 0.69418693
0 0.06476447 0.69418693
0 0.063797832 0.69418693
0 0.062831253 0.69418693
0 0.061864585 0.69418693
0 0.060897946 0.69418693
0 0.059931338 0.69418693
0 0.0589647 0.69418693
0 0.057998061 0.69418693
0 0.057031453 0.69418699
0 0.056064755 0.69418693
0 0.055098176 0.69418699
0 0.054131538 0.69418693
0 0.05316487 0.69418693
0 0.052198261 0.69418693
0 0.051231623 0.69418693
0 0.050264984 0.69418693
0 0.049298376 0.69418693
0 0.048331738 0.69418699
0 0.047365069 0.69418693
0 0.046398491 0.69418693
0 0.045431823 0.69418693
0 0.044465184 0.69418693
0 0.043498546 0.69418693
0 0.042531878 0.69418699
0 0.041565299 0.69418693
0 0.040598661 0.69418693
0 0.039631963 0.69418699
0 0.038665384 0.69418699
0 0.037698776 0.69418693
0 0.036732078 0.69418699
0 0.035765499 0.69418699
0 0.034798831 0.69418693
0 0.033832222 0.69418693
0 0.032865554 0.69418699
0 0.031898946 0.69418693
0 0.030932307 0.69418693
0 0.029965669 0.69418699
0 0.02899906 0.69418693
0 0.028032422 0.69418693
0 0.027065754 0.69418699
0 0.026099175 0.69418693
0 0.025132537 0.69418699
0 0.024165839 0.69418699
0 0.02319923 0.69418693
0 0.022232562 0.69418699
0 0.021265954 0.69418699
0 0.020299345 0.69418693
0 0.019332677 0.69418699
0 0.018366039 0.69418699
0 0.01739946 0.69418693
0 0.016432762 0.69418699
0 0.015466154 0.69418699
0 0.014499545 0.69418693
0 0.013532847 0.69418699
0 0.012566268 0.69418699
0 0.01159963 0.69418693
0 0.010632962 0.69418699
0 0.0096663535 0.69418699
0 0.0086997449 0.69418693
0 0.0077330768 0.69418699
0 0.0067664385 0.69418699
0 0.0057998002 0.69418693
0 0.0048331916 0.69418699
0 0.0038665533 0.69418705
0 0.002899915 0.69418693
0 0.0019332767 0.69418699
0 0.00096666813 0.69418693
0 2.9802322e-08 0.69418693
0 -0.00096660852 0.69418705
0 -0.0019332767 0.69418699
0 -0.0028998554 0.69418693
0 -0.0038665235 0.69418699
0 -0.0048331618 0.69418693
0 -0.0057998002 0.69418699
0 -0.0067664385 0.69418699
0 -0.0077330768 0.69418699
0 -0.0086996853 0.69418699
0 -0.0096663237 0.69418705
0 -0.010632992 0.69418699
0 -0.011599571 0.69418699
0 -0.012566209 0.69418705
0 -0.013532877 0.69418699
0 -0.014499515 0.69418699
0 -0.015466154 0.69418705
0 -0.016432762 0.69418699
0 -0.0173994 0.69418699
0 -0.018366039 0.69418693
0 -0.019332677 0.69418699
0 -0.020299286 0.69418699
0 -0.021265924 0.69418693
0 -0.022232562 0.69418699
0 -0.023199201 0.69418705
0 -0.024165839 0.69418699
0 -0.025132477 0.69418699
0 -0.026099116 0.69418699
0 -0.027065754 0.69418699
0 -0.028032362 0.69418699
0 -0.028999001 0.69418699
0 -0.029965639 0.69418699
0 -0.030932277 0.69418699
0 -0.031898916 0.69418705
0 -0.032865554 0.69418699
0 -0.033832163 0.69418699
0 -0.034798801 0.69418693
0 -0.035765469 0.69418699
0 -0.036732078 0.69418699
0 -0.037698686 0.69418693
0 -0.038665354 0.69418699
0 -0.039631993 0.69418699
0 -0.040598601 0.69418699
0 -0.041618317 0.69448489
0 -0.042586535 0.69448674
0 -0.043554187 0.69448578
0 -0.044522077 0.69448578
0 -0.045489967 0.69448578
0 -0.046457648 0.69448489
0 -0.047425508 0.69448489
0 -0.048393369 0.69448489
0 -0.04936105 0.694484
0 -0.05032891 0.694484
0 -0.051296562 0.6944831
0 -0.052264422 0.6944831
0 -0.053232312 0.6944831
0 -0.054199964 0.69448221
0 -0.055167794 0.69448221
0 -0.056135684 0.69448221
0 -0.057103306 0.69448125
0 -0.058071166 0.69448125
0 -0.059038997 0.69448125
0 -0.060006618 0.69448042
0 -0.060974479 0.69448036
0 -0.061942339 0.69448036
0 -0.062909931 0.69447947
0 -0.063877791 0.69447947
0 -0.064845622 0.69447947
0 -0.065813243 0.69447863
0 -0.066781044 0.69447857
0 -0.067748666 0.69447768
0 -0.068716496 0.69447768
0 -0.069684327 0.69447768
0 -0.070651859 0.69447678
0 -0.071619689 0.69447678
0 -0.07258755 0.69447684
0 -0.073555112 0.69447589
0 -0.074522942 0.69447589
0 -0.075490773 0.69447583
0 -0.076458275 0.69447494
0 -0.077426136 0.69447494
0 -0.078393966 0.69447494
0 -0.079361469 0.69447404
0 -0.080329299 0.6944741
0 -0.081296802 0.69447315
0 -0.082264632 0.69447315
0 -0.083232433 0.69447315
0 -0.08419992 0.69447225
0 -0.085167721 0.69447219
0 -0.086135566 0.69447225
0 -0.087103024 0.69447136
0 -0.088070884 0.69447136
0 -0.08903867 0.69447136
0 -0.090245649 0.69509214
0.00096675719 0.087974936 0.69421673
0.00096675719 0.087008178 0.69421673
0.00096675719 0.086041421 0.69421673
0.00096675719 0.085074663 0.69421673
0.00096675719 0.084107935 0.69421673
0.00096675719 0.083141148 0.69421673
0.00096675719 0.082174391 0.69421673
0.00096675719 0.081207633 0.69421673
0.00096675719 0.080240846 0.69421673
0.00096675719 0.079274118 0.69421673
0.00096675719 0.07830736 0.69421673
0.00096675719 0.077340603 0.69421673
0.00096675719 0.076373845 0.69421673
0.00096675719 0.075407088 0.69421673
0.00096675719 0.0744403 0.69421673
0.00096675719 0.073473543 0.69421673
0.00096675719 0.072506815 0.69421673
0.00096675719 0.071540087 0.69421673
0.00096675719 0.07057333 0.69421673
0.00096675719 0.069606513 0.69421673
0.00096675719 0.068639785 0.69421673
0.00096675719 0.067673028 0.69421673
0.00096675719 0.06670627 0.69421673
0.0009667534 0.065739214 0.69421583
0.0009667534 0.064772516 0.69421577
0.0009667534 0.063805729 0.69421583
0.0009667534 0.062839031 0.69421577
0.0009667534 0.061872214 0.69421583
0.0009667534 0.060905486 0.69421577
0.0009667534 0.059938699 0.69421583
0.0009667534 0.058971971 0.69421583
0.0009667534 0.058005214 0.69421583
0.0009667534 0.057038486 0.69421583
0.0009667534 0.056071728 0.69421583
0.0009667534 0.055104971 0.69421583
0.0009667534 0.054138243 0.69421583
0.0009667534 0.053171486 0.69421583
0.0009667534 0.052204698 0.69421577
0.0009667534 0.051237971 0.69421577
0.0009667534 0.050271183 0.69421577
0.0009667534 0.049304426 0.69421577
0.0009667534 0.048337698 0.69421577
0.0009667534 0.047370911 0.69421583
0.0009667534 0.046404183 0.69421577
0.0009667534 0.045437425 0.69421583
0.0009667534 0.044470668 0.69421583
0.0009667534 0.04350394 0.69421583
0.0009667534 0.042537183 0.69421583
0.0009667534 0.041570425 0.69421583
0.0009667534 0.040603638 0.69421583
0.0009667534 0.03963691 0.69421583
0.0009667534 0.038670152 0.69421583
0.0009667534 0.037703425 0.69421583
0.0009667534 0.036736667 0.69421583
0.0009667534 0.03576988 0.69421577
0.0009667534 0.034803092 0.69421589
0.0009667534 0.033836395 0.69421577
0.0009667534 0.032869667 0.69421577
0.0009667534 0.031902909 0.69421577
0.0009667534 0.030936122 0.69421589
0.0009667534 0.029969394 0.69421577
0.0009667534 0.029002607 0.69421583
0.0009667534 0.028035879 0.69421577
0.0009667534 0.027069122 0.69421583
0.0009667534 0.026102394 0.69421583
0.0009667534 0.025135607 0.69421583
0.0009667534 0.024168849 0.69421583
0.0009667534 0.023202062 0.69421583
0.0009667534 0.022235304 0.69421583
0.0009667534 0.021268606 0.69421583
0.0009667534 0.020301849 0.69421583
0.0009667534 0.019335091 0.69421583
0.0009667534 0.018368334 0.69421583
0.0009667534 0.017401576 0.69421583
0.0009667534 0.016434819 0.69421583
0.0009667534 0.015468091 0.69421583
0.0009667534 0.014501363 0.69421583
0.0009667534 0.013534546 0.69421583
0.0009667534 0.012567788 0.69421583
0.0009667534 0.011601061 0.69421577
0.0009667534 0.010634303 0.69421583
0.0009667534 0.0096675456 0.69421583
0.0009667534 0.008700788 0.69421577
0.0009667534 0.0077340305 0.69421577
0.0009667534 0.0067672729 0.69421577
0.0009667534 0.0058005452 0.69421577
0.0009667534 0.0048337877 0.69421577
0.0009667534 0.0038670301 0.69421583
0.0009667534 0.0029003024 0.69421577
0.0009667534 0.0019335449 0.69421583
0.0009667534 0.00096675754 0.69421577
0.0009667534 2.9802322e-08 0.69421583
0.0009667534 -0.00096672773 0.69421577
0.0009667534 -0.0019335151 0.69421589
0.0009667534 -0.002900213 0.69421577
0.0009667534 -0.0038670003 0.69421589
0.0009667534 -0.0048337579 0.69421583
0.0009667534 -0.0058005154 0.69421583
0.0009667534 -0.0067672729 0.69421583
0.0009667534 -0.0077340305 0.69421583
0.0009667534 -0.0087007582 0.69421583
0.0009667534 -0.0096675158 0.69421583
0.0009667534 -0.010634243 0.69421583
0.0009667534 -0.011601001 0.69421583
0.0009667534 -0.012567759 0.69421583
0.0009667534 -0.013534546 0.69421583
0.0009667534 -0.014501303 0.69421589
0.0009667534 -0.015468031 0.69421583
0.0009667534 -0.016434759 0.69421577
0.0009667534 -0.017401516 0.69421583
0.0009667534 -0.018368334 0.69421583
0.0009667534 -0.019335061 0.69421583
0.0009667534 -0.020301819 0.69421583
0.0009667534 -0.021268517 0.69421583
0.0009667534 -0.022235304 0.69421583
0.0009667534 -0.023202062 0.69421583
0.0009667534 -0.024168819 0.69421583
0.0009667534 -0.025135577 0.69421577
0.0009667534 -0.026102334 0.69421583
0.0009667534 -0.027069062 0.69421577
0.0009667534 -0.02803582 0.69421583
0.0009667534 -0.029002577 0.69421577
0.0009667534 -0.029969335 0.69421583
0.0009667534 -0.030936092 0.69421577
0.0009667534 -0.03190282 0.69421583
0.0009667534 -0.032869607 0.69421583
0.0009667534 -0.033836335 0.69421577
0.0009667534 -0.034803092 0.69421577
0.0009667534 -0.03576988 0.69421589
0.0009667534 -0.036736637 0.69421583
0.0009667534 -0.037703335 0.69421577
0.0009667534 -0.038670093 0.69421583
0.0009667534 -0.03963685 0.69421589
0.0009667534 -0.040603638 0.69421583
0.00096798781 -0.041623473 0.69451386
0.00096799148 -0.042591602 0.69451469
0.00096799148 -0.043559581 0.69451469
0.00096799148 -0.04452759 0.69451469
0.00096798781 -0.045495391 0.69451386
0.00096798781 -0.04646343 0.69451386
0.00096798781 -0.04743138 0.69451386
0.00096798403 -0.04839918 0.6945129
0.00096798403 -0.04936716 0.69451296
0.00096798025 -0.05033496 0.69451201
0.00096798025 -0.05130291 0.69451201
0.00096798025 -0.052270889 0.69451201
0.00096797658 -0.05323869 0.69451112
0.00096797658 -0.054206669 0.69451112
0.00096798025 -0.055174857 0.69451201
0.00096798025 -0.056142867 0.69451201
0.00096798025 -0.057110786 0.69451201
0.00096798025 -0.058078855 0.69451207
0.00096798025 -0.059046745 0.69451201
0.00096798403 -0.060014963 0.6945129
0.00096798403 -0.060983002 0.6945129
0.00096798403 -0.061950952 0.6945129
0.00096798403 -0.062918931 0.69451296
0.00096798781 -0.063887149 0.69451386
0.00096798781 -0.064855188 0.6945138
0.00096798781 -0.065823138 0.6945138
0.00096798781 -0.066791177 0.6945138
0.00096798781 -0.067759126 0.69451386
0.00096799148 -0.068727374 0.69451475
0.00096799148 -0.069695383 0.69451475
0.00096799148 -0.070663363 0.69451475
0.00096799148 -0.071631372 0.69451475
0.00096799526 -0.07259962 0.69451565
0.00096799526 -0.073567629 0.69451565
0.00096799526 -0.074535608 0.69451565
0.00096799526 -0.075503618 0.69451559
0.00096799526 -0.076471627 0.69451559
0.00096799905 -0.077439874 0.69451654
0.00096799905 -0.078407943 0.69451654
0.00096799905 -0.079375893 0.69451654
0.00096799905 -0.080343902 0.69451654
0.00096800271 -0.081312209 0.69451743
0.00096800271 -0.082280219 0.69451749
0.00096800271 -0.083248228 0.69451743
0.00096800271 -0.084216237 0.69451743
0.00096800271 -0.085184231 0.69451743
0.0009680065 -0.086152554 0.69451839
0.0009680065 -0.087120578 0.69451833
0.0009680065 -0.088088572 0.69451833
0.0009680065 -0.089056566 0.69451833
0.0009706355 -0.090269089 0.69515306
0.0019341422 0.088003486 0.69429249
0.0019341422 0.087036401 0.69429249
0.0019341422 0.086069345 0.69429255
0.0019341422 0.08510226 0.69429249
0.0019341422 0.084135205 0.69429255
0.0019341422 0.083168119 0.69429255
0.0019341422 0.082201064 0.69429255
0.0019341422 0.081233978 0.69429255
0.0019341422 0.080266863 0.69429255
0.0019341422 0.079299867 0.69429255
0.0019341422 0.078332752 0.69429255
0.0019341422 0.077365726 0.69429255
0.0019341422 0.076398641 0.69429255
0.0019341422 0.075431585 0.69429243
0.0019341422 0.0744645 0.69429249
0.0019341422 0.073497444 0.69429249
0.0019341422 0.072530359 0.69429255
0.0019341422 0.071563303 0.69429255
0.0019341422 0.070596188 0.69429249
0.0019341422 0.069629133 0.69429255
0.0019341422 0.068662047 0.69429255
0.0019341422 0.067694992 0.69429255
0.0019341422 0.066727936 0.69429249
0.0019341422 0.065760851 0.69429249
0.0019341422 0.064793795 0.69429255
0.0019341422 0.06382671 0.69429255
0.0019341422 0.062859625 0.69429249
0.0019341422 0.061892569 0.69429255
0.0019341422 0.060925514 0.69429243
0.0019341422 0.059958458 0.69429255
0.0019341422 0.058991373 0.69429249
0.0019341422 0.058024257 0.69429249
0.0019341422 0.057057232 0.69429255
0.0019341422 0.056090117 0.69429255
0.0019341422 0.055123061 0.69429255
0.0019341422 0.054155976 0.69429255
0.0019341422 0.05318892 0.69429255
0.0019341422 0.052221864 0.69429255
0.0019341422 0.051254779 0.69429249
0.0019341422 0.050287694 0.69429255
0.0019341422 0.049320638 0.69429255
0.0019341422 0.048353553 0.69429249
0.0019341422 0.047386527 0.69429255
0.0019341422 0.046419442 0.69429249
0.0019341422 0.045452386 0.69429249
0.0019341422 0.044485301 0.69429249
0.0019341422 0.043518215 0.69429249
0.0019341422 0.04255116 0.69429255
0.0019341422 0.041584074 0.69429255
0.0019341422 0.040616989 0.69429255
0.0019341422 0.039649934 0.69429255
0.0019341422 0.038682848 0.69429255
0.0019341422 0.037715793 0.69429249
0.0019341422 0.036748707 0.69429249
0.0019341422 0.035781652 0.69429255
0.0019341422 0.034814596 0.69429243
0.0019341422 0.033847481 0.69429255
0.0019341422 0.032880425 0.69429255
0.0019341422 0.03191337 0.69429249
0.0019341422 0.030946314 0.69429249
0.0019341422 0.029979229 0.69429255
0.0019341422 0.029012144 0.69429249
0.0019341422 0.028045058 0.69429255
0.0019341422 0.027078003 0.69429255
0.0019341422 0.026110888 0.69429249
0.0019341422 0.025143862 0.69429255
0.0019341422 0.024176776 0.69429249
0.0019341422 0.023209751 0.69429255
0.0019341422 0.022242635 0.69429249
0.0019341422 0.02127555 0.69429249
0.0019341422 0.020308554 0.69429249
0.0019341422 0.019341469 0.69429249
0.0019341422 0.018374383 0.69429249
0.0019341422 0.017407328 0.69429249
0.0019341422 0.016440213 0.69429249
0.0019341422 0.015473187 0.69429255
0.0019341422 0.014506072 0.69429249
0.0019341422 0.013539016 0.69429255
0.0019341422 0.012571931 0.69429255
0.0019341422 0.011604875 0.69429255
0.0019341422 0.01063782 0.69429249
0.0019341422 0.0096707344 0.69429249
0.0019341422 0.008703649 0.69429249
0.0019341422 0.0077365935 0.69429255
0.0019341422 0.0067695081 0.69429249
0.0019341422 0.0058024824 0.69429249
0.0019341422 0.004835397 0.69429249
0.0019341422 0.0038683116 0.69429249
0.0019341422 0.0029012561 0.69429249
0.0019341422 0.0019341409 0.69429249
0.0019341422 0.00096708536 0.69429249
0.0019341422 -0 0.69429249
0.0019341422 -0.00096705556 0.69429255
0.0019341422 -0.0019341409 0.69429255
0.0019341422 -0.0029012263 0.69429255
0.0019341422 -0.0038682818 0.69429255
0.0019341422 -0.0048353374 0.69429255
0.0019341422 -0.0058024228 0.69429255
0.0019341422 -0.0067694485 0.69429255
0.0019341422 -0.0077365637 0.69429255
0.0019341422 -0.0087035894 0.69429249
0.0019341422 -0.0096706748 0.69429249
0.0019341422 -0.01063773 0.69429249
0.0019341422 -0.011604816 0.69429249
0.0019341422 -0.012571901 0.69429249
0.0019341422 -0.013538986 0.69429249
0.0019341422 -0.014506042 0.69429255
0.0019341422 -0.015473127 0.69429255
0.0019341422 -0.016440153 0.69429255
0.0019341422 -0.017407298 0.69429255
0.0019341422 -0.018374324 0.69429255
0.0019341422 -0.019341409 0.69429255
0.0019341422 -0.020308495 0.69429255
0.0019341422 -0.02127555 0.69429255
0.0019341422 -0.022242635 0.69429255
0.0019341422 -0.023209691 0.69429249
0.0019341422 -0.024176747 0.69429249
0.0019341422 -0.025143832 0.69429249
0.0019341422 -0.026110888 0.69429249
0.0019341422 -0.027077973 0.69429249
0.0019341422 -0.028045058 0.69429249
0.0019341422 -0.029012114 0.69429255
0.0019341422 -0.029979199 0.69429249
0.0019341422 -0.030946255 0.69429255
0.0019341422 -0.03191334 0.69429255
0.0019341422 -0.032880396 0.69429255
0.0019341422 -0.033847481 0.69429255
0.0019341422 -0.034814507 0.69429255
0.0019341422 -0.035781622 0.69429255
0.0019341422 -0.036748648 0.69429249
0.0019341422 -0.037715733 0.69429249
0.0019341422 -0.038682789 0.69429249
0.0019341422 -0.039649904 0.69429249
0.0019341422 -0.040616959 0.69429249
0.001936635 -0.041637659 0.69459337
0.001936635 -0.042605937 0.69459343
0.0019366274 -0.043574095 0.69459248
0.0019366274 -0.044542402 0.69459254
0.0019366274 -0.045510739 0.69459248
0.0019366274 -0.046479017 0.69459254
0.0019366274 -0.047447354 0.69459254
0.0019366274 -0.048415691 0.69459248
0.00193662 -0.049383789 0.69459164
0.00193662 -0.050352097 0.69459164
0.00193662 -0.051320404 0.69459158
0.00193662 -0.052288711 0.69459164
0.00193662 -0.053257018 0.69459164
0.00193662 -0.054225326 0.69459152
0.0019366125 -0.055193424 0.69459069
0.0019366125 -0.056161731 0.69459075
0.0019366125 -0.057130039 0.69459069
0.0019366125 -0.058098376 0.69459069
0.0019366125 -0.059066683 0.69459075
0.001936605 -0.060034752 0.69458979
0.001936605 -0.061003029 0.69458979
0.001936605 -0.061971337 0.69458979
0.001936605 -0.062939644 0.69458985
0.001936605 -0.063907951 0.69458979
0.001936605 -0.064876258 0.69458979
0.0019365975 -0.065844297 0.6945889
0.0019365975 -0.066812605 0.69458896
0.0019365975 -0.067780882 0.6945889
0.0019365975 -0.068749219 0.6945889
0.0019365975 -0.069717497 0.69458884
0.0019365975 -0.070685804 0.6945889
0.0019365901 -0.071653813 0.69458801
0.0019365901 -0.072622091 0.69458801
0.0019365901 -0.073590398 0.69458801
0.0019365901 -0.074558705 0.69458807
0.0019365901 -0.075526983 0.69458795
0.0019365901 -0.07649529 0.69458801
0.0019365825 -0.077463299 0.69458711
0.0019365825 -0.078431547 0.69458705
0.0019365825 -0.079399884 0.69458705
0.0019365825 -0.080368161 0.69458711
0.0019365825 -0.081336468 0.69458705
0.0019365825 -0.082304746 0.69458711
0.0019365825 -0.083273053 0.69458711
0.0019365825 -0.084241316 0.69458711
0.0019365825 -0.085209638 0.69458711
0.0019365825 -0.086177886 0.69458711
0.0019365825 -0.087146208 0.69458711
0.0019365825 -0.088114455 0.69458705
0.0019365825 -0.089082778 0.69458705
0.0019420395 -0.090304822 0.6952458
0.0029025034 0.088042647 0.69439638
0.0029025034 0.087075114 0.69439638
0.0029025034 0.086107612 0.69439632
0.0029025034 0.085140109 0.69439632
0.0029025034 0.084172606 0.69439638
0.0029025034 0.083205134 0.69439632
0.0029025034 0.082237631 0.69439638
0.0029025034 0.081270069 0.69439638
0.0029025034 0.080302626 0.69439632
0.0029025034 0.079335123 0.69439638
0.0029025034 0.078367591 0.69439638
0.0029025034 0.077400148 0.69439632
0.0029025034 0.076432645 0.69439638
0.0029025034 0.075465113 0.69439638
0.0029025034 0.07449761 0.69439632
0.0029025034 0.073530078 0.69439632
0.0029025034 0.072562575 0.69439638
0.0029025034 0.071595132 0.69439632
0.0029025034 0.0706276 0.69439638
0.0029025034 0.069660127 0.69439632
0.0029025034 0.068692625 0.69439638
0.0029025034 0.067725092 0.69439638
0.0029025034 0.06675756 0.69439638
0.0029025034 0.065790117 0.69439632
0.0029025034 0.064822614 0.69439638
0.0029025034 0.063855112 0.69439632
0.0029025034 0.062887579 0.69439632
0.0029025034 0.061920077 0.69439638
0.0029025034 0.060952574 0.69439638
0.0029025034 0.059985101 0.69439632
0.0029025034 0.059017569 0.69439638
0.0029025034 0.058050126 0.69439632
0.0029025034 0.057082593 0.69439638
0.0029025034 0.056115061 0.69439638
0.0029025034 0.055147588 0.69439632
0.0029025034 0.054180086 0.69439632
0.0029025034 0.053212613 0.69439632
0.0029025034 0.05224511 0.69439632
0.0029025034 0.051277578 0.69439632
0.0029025034 0.050310045 0.69439638
0.0029025034 0.049342602 0.69439632
0.0029025034 0.04837507 0.69439632
0.0029025034 0.047407568 0.69439626
0.0029025034 0.046440095 0.69439632
0.0029025034 0.045472592 0.69439638
0.0029025034 0.04450503 0.69439638
0.0029025034 0.043537557 0.69439632
0.0029025034 0.042570084 0.69439638
0.0029025034 0.041602582 0.69439632
0.0029025034 0.040635079 0.69439632
0.0029025034 0.039667547 0.69439632
0.0029025034 0.038700044 0.69439638
0.0029025034 0.037732571 0.69439632
0.0029025034 0.036765039 0.69439632
0.0029025034 0.035797596 0.69439632
0.0029025034 0.034830064 0.69439632
0.0029025034 0.033862561 0.69439638
0.0029025034 0.032895029 0.69439638
0.0029025034 0.031927556 0.69439632
0.0029025034 0.030960023 0.69439638
0.0029025034 0.02999258 0.69439632
0.0029025034 0.029025048 0.69439632
0.0029025034 0.028057545 0.69439638
0.0029025034 0.027090102 0.69439638
0.0029025034 0.02612254 0.69439638
0.0029025034 0.025155067 0.69439632
0.0029025034 0.024187565 0.69439638
0.0029025034 0.023220062 0.69439638
0.0029025034 0.02225253 0.69439638
0.0029025034 0.021285057 0.69439632
0.0029025034 0.020317525 0.69439638
0.0029024922 0.019349992 0.69439542
0.0029024922 0.01838249 0.69439542
0.0029024922 0.017414957 0.69439542
0.0029024922 0.016447484 0.69439542
0.0029024922 0.015479982 0.69439542
0.0029024922 0.014512479 0.69439542
0.0029024922 0.013545007 0.69439542
0.0029024922 0.012577504 0.69439542
0.0029024922 0.011610001 0.69439542
0.0029024922 0.010642469 0.69439542
0.0029024922 0.0096750259 0.69439542
0.0029024922 0.0087074935 0.69439542
0.0029024922 0.0077399611 0.69439542
0.0029024922 0.006772548 0.69439542
0.0029024922 0.0058050156 0.69439542
0.0029024922 0.004837513 0.69439536
0.0029024922 0.0038700104 0.69439542
0.0029024922 0.0029025078 0.69439542
0.0029024922 0.0019349754 0.69439548
0.0029024922 0.0009675324 0.69439542
0.0029024922 2.9802322e-08 0.69439548
0.0029024922 -0.00096747279 0.69439542
0.0029024922 -0.0019349754 0.69439542
0.0029024922 -0.002902478 0.69439542
0.0029024922 -0.0038699806 0.69439542
0.0029024922 -0.0048374534 0.69439542
0.0029024922 -0.0058049262 0.69439542
0.0029024922 -0.0067724586 0.69439542
0.0029024922 -0.0077399611 0.69439548
0.0029024922 -0.0087074339 0.69439542
0.0029024922 -0.0096749663 0.69439542
0.0029024922 -0.010642409 0.69439542
0.0029024922 -0.011609912 0.69439542
0.0029024922 -0.012577444 0.69439542
0.0029024922 -0.013544977 0.69439548
0.0029024922 -0.01451245 0.69439548
0.0029024922 -0.015479952 0.69439548
0.0029024922 -0.016447425 0.69439542
0.0029024922 -0.017414927 0.69439542
0.0029024922 -0.01838243 0.69439542
0.0029024922 -0.019349903 0.69439542
0.0029024922 -0.020317435 0.69439548
0.0029024922 -0.021284908 0.69439542
0.0029024922 -0.022252411 0.69439542
0.0029024922 -0.023219913 0.69439542
0.0029024922 -0.024187416 0.69439554
0.0029024922 -0.025154889 0.69439542
0.0029024922 -0.026122451 0.69439548
0.0029024922 -0.027089924 0.69439542
0.0029024922 -0.028057396 0.69439548
0.0029024922 -0.029024899 0.69439542
0.0029024922 -0.029992402 0.69439542
0.0029024922 -0.030959845 0.69439542
0.0029024922 -0.031927407 0.69439542
0.0029024922 -0.032894909 0.69439542
0.0029024922 -0.033862382 0.69439548
0.0029024922 -0.034829885 0.69439542
0.0029024922 -0.035797387 0.69439548
0.0029024922 -0.03676486 0.69439542
0.0029024922 -0.037732393 0.69439542
0.0029024922 -0.038699895 0.69439542
0.0029024922 -0.039667368 0.69439542
0.0029024922 -0.040634871 0.69439542
0.0029062461 -0.041656137 0.6946975
0.0029062349 -0.042624772 0.69469666
0.0029062349 -0.043593496 0.69469661
0.0029062349 -0.04456225 0.69469666
0.0029062349 -0.045531005 0.69469661
0.0029062349 -0.046499699 0.69469666
0.0029062349 -0.047468513 0.69469661
0.0029062235 -0.048437029 0.69469571
0.0029062235 -0.049405783 0.69469571
0.0029062235 -0.050374508 0.69469571
0.0029062235 -0.051343262 0.69469571
0.0029062235 -0.052312016 0.69469571
0.0029062235 -0.053280771 0.69469571
0.0029062235 -0.054249495 0.69469577
0.0029062235 -0.05521825 0.69469571
0.0029062235 -0.056186944 0.69469565
0.0029062235 -0.057155728 0.69469571
0.0029062235 -0.058124453 0.69469571
0.0029062235 -0.059093177 0.69469571
0.0029062235 -0.060061961 0.69469571
0.0029062235 -0.061030656 0.69469571
0.0029062235 -0.06199941 0.69469571
0.0029062349 -0.062968433 0.69469661
0.0029062349 -0.063937128 0.69469661
0.0029062349 -0.064905912 0.69469661
0.0029062349 -0.065874636 0.69469666
0.0029062349 -0.06684342 0.69469661
0.0029062349 -0.067812115 0.69469666
0.0029062349 -0.068780869 0.69469666
0.0029062349 -0.069749624 0.69469661
0.0029062349 -0.070718348 0.69469666
0.0029062349 -0.071687102 0.69469666
0.0029062349 -0.072655857 0.69469666
0.0029062349 -0.073624581 0.69469661
0.0029062349 -0.074593306 0.69469666
0.0029062349 -0.07556209 0.69469666
0.0029062349 -0.076530814 0.69469655
0.0029062349 -0.077499568 0.69469661
0.0029062349 -0.078468323 0.69469666
0.0029062349 -0.079437047 0.69469661
0.0029062349 -0.080405831 0.69469666
0.0029062349 -0.081374556 0.69469666
0.0029062349 -0.08234328 0.69469666
0.0029062349 -0.083312064 0.69469661
0.0029062349 -0.084280819 0.69469666
0.0029062349 -0.085249528 0.69469661
0.0029062349 -0.086218283 0.69469666
0.0029062349 -0.087187022 0.69469661
0.0029062349 -0.088155791 0.69469666
0.0029062349 -0.089124486 0.69469661
0.0029148355 -0.090359867 0.69538867
0.0038725503 0.088100553 0.69454998
0.0038725503 0.087132454 0.69454998
0.0038725503 0.086164266 0.69455004
0.0038725503 0.085196137 0.69454998
0.0038725503 0.084227979 0.69454998
0.0038725503 0.083259821 0.69455004
0.0038725503 0.082291692 0.69455004
0.0038725503 0.081323564 0.69455004
0.0038725503 0.080355436 0.69454998
0.0038725503 0.079387307 0.69455004
0.0038725503 0.078419179 0.69455004
0.0038725503 0.07745105 0.69454998
0.0038725503 0.076482922 0.69454998
0.0038725503 0.075514764 0.69455004
0.0038725503 0.074546635 0.69455004
0.0038725503 0.073578477 0.69454998
0.0038725503 0.072610348 0.69455004
0.0038725503 0.07164216 0.69455004
0.0038725503 0.070674062 0.69454998
0.0038725503 0.069705933 0.69454998
0.0038725503 0.068737805 0.69454998
0.0038725503 0.067769647 0.69454998
0.0038725503 0.066801488 0.69454998
0.0038725503 0.06583339 0.69454998
0.0038725503 0.064865232 0.69455004
0.0038725503 0.063897103 0.69455004
0.0038725503 0.062928975 0.69454998
0.0038725503 0.061960816 0.69455004
0.0038725503 0.060992658 0.69455004
0.0038725503 0.060024559 0.69455004
0.0038725503 0.059056461 0.69454998
0.0038725357 0.058088064 0.69454914
0.0038725357 0.057119906 0.69454908
0.0038725357 0.056151778 0.69454908
0.0038725357 0.055183649 0.69454908
0.0038725357 0.054215521 0.69454908
0.0038725357 0.053247362 0.69454914
0.0038725357 0.052279264 0.69454908
0.0038725357 0.051311135 0.69454908
0.0038725357 0.050342977 0.69454914
0.0038725357 0.049374878 0.69454914
0.0038725357 0.04840672 0.69454908
0.0038725357 0.047438592 0.69454908
0.0038725357 0.046470463 0.69454908
0.0038725357 0.045502335 0.69454908
0.0038725357 0.044534177 0.69454908
0.0038725357 0.043566048 0.69454908
0.0038725357 0.04259786 0.69454908
0.0038725357 0.041629761 0.69454914
0.0038725357 0.040661633 0.69454908
0.0038725357 0.039693505 0.69454908
0.0038725357 0.038725376 0.69454908
0.0038725357 0.037757218 0.69454914
0.0038725357 0.036789089 0.69454908
0.0038725357 0.035820961 0.69454908
0.0038725357 0.034852833 0.69454908
0.0038725357 0.033884734 0.69454908
0.0038725357 0.032916546 0.69454908
0.0038725357 0.031948447 0.69454908
0.0038725357 0.030980319 0.69454908
0.0038725357 0.030012161 0.69454914
0.0038725357 0.029044032 0.69454908
0.0038725357 0.028075904 0.69454908
0.0038725357 0.027107775 0.69454908
0.0038725357 0.026139647 0.69454908
0.0038725357 0.025171459 0.69454908
0.0038725357 0.02420336 0.69454908
0.0038725357 0.023235261 0.69454908
0.0038725357 0.022267103 0.69454908
0.0038725357 0.021298975 0.69454908
0.0038725357 0.020330817 0.69454908
0.0038725357 0.019362718 0.69454908
0.0038725357 0.01839456 0.69454908
0.0038725357 0.017426401 0.69454908
0.0038725357 0.016458243 0.69454908
0.0038725357 0.015490144 0.69454908
0.0038725357 0.014522046 0.69454908
0.0038725357 0.013553888 0.69454908
0.0038725357 0.012585759 0.69454908
0.0038725357 0.011617631 0.69454908
0.0038725357 0.010649502 0.69454908
0.0038725357 0.009681344 0.69454914
0.0038725357 0.0087132156 0.69454908
0.0038725357 0.0077450871 0.69454908
0.0038725357 0.0067769885 0.69454908
0.0038725357 0.0058088601 0.69454908
0.0038725357 0.004840672 0.69454914
0.0038725357 0.0038725436 0.69454914
0.0038725357 0.0029044151 0.69454908
0.0038725357 0.0019362867 0.69454908
0.0038725357 0.00096815825 0.69454908
0.0038725357 -0 0.69454908
0.0038725357 -0.00096812844 0.69454908
0.0038725357 -0.0019362569 0.69454908
0.0038725357 -0.0029044151 0.69454908
0.0038725357 -0.0038725436 0.69454908
0.0038725357 -0.0048406422 0.69454914
0.0038725357 -0.0058088005 0.69454908
0.0038725357 -0.0067768991 0.69454908
0.0038725357 -0.0077450871 0.69454914
0.0038725357 -0.0087131858 0.69454908
0.0038725357 -0.0096813142 0.69454908
0.0038725357 -0.010649472 0.69454914
0.0038725357 -0.011617601 0.69454908
0.0038725357 -0.012585729 0.69454908
0.0038725357 -0.013553828 0.69454908
0.0038725357 -0.014521986 0.69454908
0.0038725357 -0.015490115 0.69454914
0.0038725357 -0.016458273 0.69454914
0.0038725357 -0.017426401 0.69454908
0.0038725357 -0.01839453 0.69454908
0.0038725357 -0.019362628 0.69454908
0.0038725357 -0.020330817 0.69454908
0.0038725357 -0.021298945 0.69454908
0.0038725357 -0.022267044 0.69454908
0.0038725357 -0.023235232 0.69454908
0.0038725357 -0.0242033 0.69454908
0.0038725357 -0.025171489 0.69454908
0.0038725357 -0.026139587 0.69454908
0.0038725357 -0.027107745 0.69454908
0.0038725357 -0.028075874 0.69454914
0.0038725357 -0.029044002 0.69454908
0.0038725357 -0.030012131 0.69454908
0.0038725357 -0.030980229 0.69454908
0.0038725357 -0.031948358 0.69454908
0.0038725357 -0.032916516 0.69454908
0.0038725357 -0.033884674 0.69454908
0.0038725205 -0.034852654 0.69454825
0.0038725205 -0.035820782 0.69454813
0.0038725205 -0.036788881 0.69454819
0.0038725205 -0.037757069 0.69454825
0.0038725205 -0.038725168 0.69454819
0.0038725205 -0.039693296 0.69454819
0.0038725205 -0.040661424 0.69454819
0.0038776074 -0.04168424 0.69485521
0.0038775923 -0.042653501 0.69485426
0.0038775923 -0.043622881 0.69485432
0.0038775923 -0.044592261 0.69485426
0.0038775923 -0.045561701 0.69485432
0.0038775923 -0.046531081 0.69485426
0.0038775923 -0.047500491 0.69485426
0.0038775771 -0.048469722 0.69485337
0.0038775771 -0.049439073 0.69485337
0.0038775771 -0.050408512 0.69485337
0.0038775771 -0.051377863 0.69485337
0.0038775771 -0.052347302 0.69485343
0.003877562 -0.053316474 0.69485247
0.003877562 -0.054285884 0.69485253
0.003877562 -0.055255234 0.69485253
0.003877562 -0.056224644 0.69485247
0.003877562 -0.057193995 0.69485247
0.003877562 -0.058163404 0.69485253
0.0038775473 -0.059132576 0.69485158
0.0038775473 -0.060101956 0.69485158
0.0038775473 -0.061071336 0.69485164
0.0038775473 -0.062040716 0.69485158
0.0038775473 -0.063010126 0.69485158
0.0038775473 -0.063979506 0.69485164
0.0038775473 -0.064948887 0.69485158
0.0038775473 -0.065918267 0.69485158
0.0038775473 -0.066887647 0.69485152
0.0038775473 -0.067857057 0.69485158
0.0038775473 -0.068826407 0.69485158
0.0038775473 -0.069795817 0.69485158
0.0038775473 -0.070765257 0.69485164
0.0038775473 -0.071734607 0.69485158
0.0038775473 -0.072704017 0.69485158
0.0038775473 -0.073673368 0.69485152
0.0038775473 -0.074642748 0.69485152
0.0038775473 -0.075612187 0.69485158
0.0038775473 -0.076581538 0.69485152
0.0038775473 -0.077550948 0.69485158
0.0038775473 -0.078520328 0.69485158
0.0038775473 -0.079489708 0.69485152
0.0038775473 -0.080459088 0.69485152
0.0038775473 -0.081428498 0.69485158
0.0038775473 -0.082397878 0.69485158
0.0038775473 -0.083367258 0.69485164
0.0038775473 -0.084336668 0.69485158
0.0038775473 -0.085306033 0.69485164
0.0038775473 -0.086275414 0.69485164
0.0038775473 -0.087244779 0.69485158
0.0038775473 -0.088214174 0.69485158
0.0038776675 -0.089186326 0.69485891
0.0038899067 -0.090440303 0.69559753
0.0048444001 0.088168114 0.69472921
0.0048444001 0.087199211 0.69472921
0.0048444001 0.086230308 0.69472921
0.0048444001 0.085261494 0.69472921
0.0048444001 0.08429262 0.69472921
0.0048444001 0.083323687 0.69472921
0.0048444001 0.082354814 0.69472921
0.0048444001 0.08138594 0.69472921
0.0048444001 0.080417067 0.69472921
0.0048444001 0.079448164 0.69472927
0.0048444001 0.07847929 0.69472921
0.0048444001 0.077510387 0.69472921
0.0048444001 0.076541543 0.69472921
0.0048444001 0.07557267 0.69472921
0.0048444001 0.074603766 0.69472921
0.0048444001 0.073634893 0.69472921
0.0048444001 0.072666049 0.69472921
0.0048444001 0.071697146 0.69472921
0.0048444001 0.070728272 0.69472921
0.0048444001 0.069759339 0.69472921
0.0048444001 0.068790466 0.69472927
0.0048444001 0.067821652 0.69472921
0.0048444001 0.066852748 0.69472921
0.0048444001 0.065883875 0.69472921
0.0048444001 0.064914942 0.69472921
0.0048444001 0.063946098 0.69472921
0.0048444001 0.062977254 0.69472921
0.0048444001 0.062008351 0.69472921
0.0048444001 0.061039448 0.69472921
0.0048444001 0.060070544 0.69472921
0.0048444001 0.059101701 0.69472927
0.0048444001 0.058132797 0.69472927
0.0048444001 0.057163954 0.69472921
0.0048444001 0.05619505 0.69472921
0.0048444001 0.055226177 0.69472921
0.0048444001 0.054257333 0.69472921
0.0048444001 0.05328843 0.69472921
0.0048444001 0.052319556 0.69472921
0.0048444001 0.051350653 0.69472921
0.0048444001 0.05038178 0.69472921
0.0048444001 0.049412906 0.69472921
0.0048444001 0.048444003 0.69472927
0.0048444001 0.047475129 0.69472927
0.0048444001 0.046506256 0.69472921
0.0048444001 0.045537382 0.69472921
0.0048444001 0.044568509 0.69472921
0.0048444001 0.043599606 0.69472927
0.0048444001 0.042630762 0.69472921
0.0048444001 0.041661859 0.69472921
0.0048444001 0.040693015 0.69472921
0.0048444001 0.039724082 0.69472921
0.0048444001 0.038755208 0.69472927
0.0048444001 0.037786335 0.69472927
0.0048444001 0.036817431 0.69472927
0.0048444001 0.035848618 0.69472921
0.0048444001 0.034879684 0.69472921
0.0048444001 0.033910811 0.69472921
0.0048444001 0.032941937 0.69472927
0.0048444001 0.031973064 0.69472921
0.0048444001 0.03100419 0.69472921
0.0048444001 0.030035287 0.69472921
0.0048444001 0.029066443 0.69472921
0.0048444001 0.02809751 0.69472921
0.0048444001 0.027128667 0.69472927
0.0048444001 0.026159793 0.69472921
0.0048444001 0.02519092 0.69472921
0.0048444001 0.024222046 0.69472921
0.0048444001 0.023253113 0.69472921
0.0048444001 0.022284269 0.69472927
0.0048444001 0.021315396 0.69472921
0.0048444001 0.020346522 0.69472921
0.004844381 0.01937753 0.69472831
0.004844381 0.018408656 0.69472831
0.004844381 0.017439812 0.69472831
0.004844381 0.016470909 0.69472831
0.004844381 0.015502036 0.69472831
0.004844381 0.014533162 0.69472837
0.004844381 0.013564289 0.69472826
0.004844381 0.012595415 0.69472831
0.004844381 0.011626542 0.69472831
0.004844381 0.010657668 0.69472831
0.004844381 0.0096887946 0.69472837
0.004844381 0.0087198615 0.69472837
0.004844381 0.0077510178 0.69472831
0.004844381 0.0067821443 0.69472831
0.004844381 0.0058132708 0.69472831
0.004844381 0.0048444271 0.69472831
0.004844381 0.0038755238 0.69472831
0.004844381 0.0029066503 0.69472831
0.004844381 0.0019377768 0.69472831
0.004844381 0.0009689033 0.69472837
0.004844381 2.9802322e-08 0.69472826
0.004844381 -0.0009688735 0.69472831
0.004844381 -0.0019377172 0.69472837
0.004844381 -0.0029065907 0.69472831
0.004844381 -0.003875494 0.69472831
0.004844381 -0.0048443675 0.69472831
0.004844381 -0.005813241 0.69472837
0.004844381 -0.0067821145 0.69472831
0.004844381 -0.007750988 0.69472837
0.004844381 -0.0087198615 0.69472837
0.004844381 -0.009688735 0.69472826
0.004844381 -0.010657609 0.69472831
0.004844381 -0.011626482 0.69472837
0.004844381 -0.012595356 0.69472826
0.004844381 -0.013564229 0.69472831
0.004844381 -0.014533132 0.69472831
0.004844381 -0.015502006 0.69472826
0.004844381 -0.016470879 0.69472831
0.004844381 -0.017439753 0.69472837
0.004844381 -0.018408656 0.69472831
0.004844381 -0.01937747 0.69472831
0.004844381 -0.020346403 0.69472831
0.004844381 -0.021315247 0.69472837
0.004844381 -0.02228412 0.69472826
0.004844381 -0.023253024 0.69472831
0.004844381 -0.024221867 0.69472837
0.004844381 -0.025190771 0.69472831
0.004844381 -0.026159644 0.69472831
0.004844381 -0.027128518 0.69472831
0.004844381 -0.028097421 0.69472826
0.004844381 -0.029066265 0.69472831
0.004844381 -0.030035168 0.69472837
0.004844381 -0.031004041 0.69472831
0.004844381 -0.031972885 0.69472826
0.004844381 -0.032941759 0.69472831
0.004844381 -0.033910662 0.69472837
0.004844381 -0.034879535 0.69472831
0.004844381 -0.035848409 0.69472837
0.004844381 -0.036817282 0.69472831
0.004844381 -0.037786156 0.69472826
0.004844381 -0.038755029 0.69472831
0.004844381 -0.039723873 0.69472831
0.004844381 -0.040692776 0.69472831
0.0048507308 -0.041716248 0.69503492
0.0048507308 -0.042686403 0.69503492
0.0048507308 -0.043656558 0.69503492
0.0048507308 -0.044626713 0.69503492
0.0048507308 -0.045596838 0.69503492
0.0048507117 -0.046566844 0.69503403
0.0048507117 -0.047536939 0.69503397
0.0048507117 -0.048507124 0.69503403
0.0048507117 -0.04947722 0.69503397
0.0048507117 -0.050447375 0.69503397
0.004850693 -0.051417351 0.69503307
0.004850693 -0.052387446 0.69503307
0.004850693 -0.053357571 0.69503307
0.004850693 -0.054327756 0.69503307
0.004850693 -0.055297911 0.69503307
0.004850693 -0.056268007 0.69503307
0.0048506744 -0.057237953 0.69503218
0.0048506744 -0.058208078 0.69503218
0.0048506744 -0.059178203 0.69503218
0.0048506744 -0.060148358 0.69503218
0.0048506744 -0.061118484 0.69503218
0.0048506744 -0.062088609 0.69503212
0.0048506553 -0.063058496 0.69503123
0.0048506553 -0.064028621 0.69503123
0.0048506553 -0.064998776 0.69503123
0.0048506553 -0.065968871 0.69503129
0.0048506553 -0.066939056 0.69503129
0.0048506367 -0.067908883 0.69503033
0.0048506367 -0.068879038 0.69503033
0.0048506367 -0.069849163 0.69503039
0.0048506367 -0.070819259 0.69503039
0.0048506367 -0.071789443 0.69503039
0.0048506367 -0.072759539 0.69503039
0.0048506181 -0.073729396 0.69502944
0.0048506181 -0.074699521 0.69502944
0.0048506181 -0.075669587 0.6950295
0.0048506181 -0.076639771 0.6950295
0.0048506181 -0.077609867 0.6950295
0.004850599 -0.078579694 0.69502854
0.004850599 -0.079549819 0.69502854
0.004850599 -0.080519915 0.69502854
0.004850599 -0.08149007 0.6950286
0.004850599 -0.082460165 0.69502854
0.004850599 -0.08343029 0.69502854
0.0048505804 -0.084400102 0.69502765
0.0048505804 -0.085370183 0.69502759
0.0048505804 -0.086340323 0.69502765
0.0048505804 -0.087310433 0.69502765
0.0048505804 -0.088280544 0.69502765
0.0048518595 -0.089274213 0.69508934
0.0048674918 -0.090535313 0.69584417
0.0058191391 0.088256955 0.694965
0.0058191391 0.087287128 0.69496495
0.0058191391 0.086317271 0.694965
0.0058191391 0.085347414 0.694965
0.0058191391 0.084377527 0.694965
0.0058191391 0.08340767 0.69496495
0.0058191391 0.082437843 0.69496495
0.0058191391 0.081467986 0.694965
0.0058191391 0.080498099 0.694965
0.0058191391 0.079528242 0.694965
0.0058191391 0.078558415 0.694965
0.0058191391 0.077588528 0.694965
0.0058191391 0.076618701 0.694965
0.0058191391 0.075648844 0.694965
0.0058191391 0.074678957 0.694965
0.0058191391 0.07370916 0.694965
0.0058191391 0.072739273 0.694965
0.0058191391 0.071769387 0.694965
0.0058191391 0.07079953 0.694965
0.0058191391 0.069829673 0.694965
0.0058191391 0.068859875 0.69496495
0.0058191391 0.067889988 0.694965
0.0058191391 0.066920102 0.694965
0.0058191172 0.065950006 0.69496405
0.0058191172 0.064980149 0.69496411
0.0058191172 0.064010322 0.69496411
0.0058191172 0.063040465 0.69496405
0.0058191172 0.062070608 0.69496405
0.0058191172 0.061100751 0.69496405
0.0058191172 0.060130894 0.69496411
0.0058191172 0.059161037 0.69496405
0.0058191172 0.05819121 0.69496405
0.0058191172 0.057221323 0.69496405
0.0058191172 0.056251466 0.69496405
0.0058191172 0.055281609 0.69496411
0.0058191172 0.054311782 0.69496405
0.0058191172 0.053341925 0.69496405
0.0058191172 0.052372068 0.69496405
0.0058191172 0.051402241 0.69496405
0.0058191172 0.050432354 0.69496411
0.0058191172 0.049462527 0.69496405
0.0058191172 0.04849267 0.69496405
0.0058191172 0.047522783 0.69496411
0.0058191172 0.046552956 0.69496405
0.0058191172 0.045583099 0.69496411
0.0058191172 0.044613272 0.69496405
0.0058191172 0.043643385 0.69496405
0.0058191172 0.042673528 0.69496411
0.0058191172 0.041703731 0.69496411
0.0058191172 0.040733814 0.69496411
0.0058191172 0.039763957 0.69496405
0.0058191172 0.03879416 0.69496405
0.0058191172 0.037824273 0.69496411
0.0058191172 0.036854446 0.69496405
0.0058191172 0.035884559 0.69496411
0.0058191172 0.034914702 0.69496405
0.0058191172 0.033944875 0.69496405
0.0058191172 0.032975018 0.69496411
0.0058191172 0.032005161 0.69496405
0.0058191172 0.031035274 0.69496411
0.0058191172 0.030065447 0.69496405
0.0058191172 0.02909562 0.69496405
0.0058191172 0.028125763 0.69496411
0.0058191172 0.027155876 0.69496405
0.0058191172 0.026186049 0.69496411
0.0058191172 0.025216192 0.69496405
0.0058191172 0.024246335 0.69496405
0.0058191172 0.023276478 0.69496411
0.0058191172 0.022306621 0.69496405
0.0058191172 0.021336764 0.69496411
0.0058191172 0.020366937 0.69496405
0.0058191172 0.01939708 0.69496405
0.0058191172 0.018427193 0.69496411
0.0058191172 0.017457366 0.69496405
0.0058191172 0.016487539 0.69496405
0.0058191172 0.015517682 0.69496411
0.0058191172 0.014547795 0.69496405
0.0058191172 0.013577938 0.69496411
0.0058191172 0.012608111 0.69496405
0.0058191172 0.011638254 0.69496405
0.0058191172 0.010668427 0.69496411
0.0058191172 0.00969854 0.69496405
0.0058191172 0.0087286532 0.69496411
0.0058191172 0.0077588558 0.69496405
0.0058191172 0.0067890286 0.69496405
0.0058191172 0.0058191121 0.69496405
0.0058191172 0.0048492849 0.69496405
0.0058190944 0.0038794279 0.69496322
0.0058190944 0.0029095411 0.69496322
0.0058190944 0.0019396842 0.69496322
0.0058190944 0.00096988678 0.69496316
0.0058190944 2.9802322e-08 0.69496316
0.0058190944 -0.00096985698 0.69496322
0.0058190944 -0.0019396842 0.69496322
0.0058190944 -0.0029095113 0.69496316
0.0058190944 -0.0038793385 0.69496316
0.0058190944 -0.0048492253 0.69496316
0.0058190944 -0.0058191121 0.69496322
0.0058190944 -0.0067889392 0.69496322
0.0058190944 -0.0077587664 0.69496316
0.0058190944 -0.0087286234 0.69496316
0.0058190944 -0.0096984804 0.69496322
0.0058190944 -0.010668308 0.69496316
0.0058190944 -0.011638194 0.69496322
0.0058190944 -0.012608021 0.69496316
0.0058190944 -0.013577849 0.69496322
0.0058190944 -0.014547735 0.69496322
0.0058190944 -0.015517563 0.69496316
0.0058190944 -0.016487449 0.69496322
0.0058190944 -0.017457247 0.69496316
0.0058190944 -0.018427134 0.69496322
0.0058190944 -0.019396961 0.69496316
0.0058190944 -0.020366818 0.69496316
0.0058190944 -0.021336645 0.69496316
0.0058190944 -0.022306532 0.69496322
0.0058190944 -0.023276359 0.69496322
0.0058190944 -0.024246216 0.69496316
0.0058190944 -0.025216073 0.69496316
0.0058190944 -0.02618587 0.69496322
0.0058190944 -0.027155757 0.6949631
0.0058190944 -0.028125614 0.69496322
0.0058190944 -0.029095441 0.69496316
0.0058190944 -0.030065328 0.69496316
0.0058190944 -0.031035155 0.69496322
0.0058190944 -0.032005012 0.6949631
0.0058190944 -0.032974869 0.69496322
0.0058190944 -0.033944666 0.69496316
0.0058190944 -0.034914523 0.69496322
0.0058190944 -0.03588441 0.6949631
0.0058190944 -0.036854237 0.69496316
0.0058190944 -0.037824064 0.69496316
0.0058190944 -0.038793951 0.69496316
0.0058190944 -0.039763808 0.69496322
0.0058190944 -0.040733635 0.69496316
0.0058268872 -0.041759342 0.69527674
0.0058268644 -0.042730331 0.69527578
0.0058268644 -0.0437015 0.69527584
0.0058268644 -0.044672608 0.6952759
0.005826842 -0.045643598 0.69527495
0.005826842 -0.046614707 0.69527495
0.005826842 -0.047585845 0.69527489
0.0058268197 -0.048556805 0.69527406
0.0058268197 -0.049527973 0.695274
0.0058268197 -0.050499111 0.695274
0.0058267969 -0.051470011 0.6952731
0.0058267969 -0.05244115 0.69527304
0.0058267741 -0.05341208 0.69527215
0.0058267741 -0.054383188 0.69527221
0.0058267741 -0.055354357 0.69527221
0.0058267512 -0.056325227 0.69527125
0.0058267512 -0.057296365 0.69527125
0.0058267512 -0.058267534 0.69527131
0.0058267293 -0.059238374 0.69527036
0.0058267293 -0.060209543 0.69527042
0.0058267293 -0.061180681 0.69527036
0.0058267065 -0.062151551 0.69526947
0.0058267065 -0.0631226 0.69526947
0.0058267065 -0.064093739 0.69526947
0.0058266837 -0.065064609 0.69526851
0.0058266837 -0.066035718 0.69526857
0.0058266837 -0.067006856 0.69526851
0.0058266609 -0.067977697 0.69526756
0.0058266609 -0.068948835 0.69526762
0.0058266609 -0.069919914 0.69526768
0.0058266609 -0.070890993 0.69526768
0.0058266837 -0.071862429 0.69526851
0.0058266837 -0.072833538 0.69526851
0.0058266837 -0.073804617 0.69526857
0.0058266837 -0.074775785 0.69526857
0.0058266837 -0.075746864 0.69526857
0.0058266837 -0.076718003 0.69526857
0.0058266837 -0.077689081 0.69526857
0.0058267065 -0.078660518 0.69526947
0.0058267065 -0.079631627 0.69526947
0.0058267065 -0.080602765 0.69526947
0.0058267065 -0.081573874 0.69526947
0.0058267065 -0.082544982 0.69526947
0.0058267065 -0.083516091 0.69526947
0.0058267065 -0.08448723 0.69526947
0.0058267293 -0.085458681 0.69527042
0.0058267293 -0.08642976 0.69527036
0.0058267293 -0.087400898 0.69527036
0.0058267293 -0.088372052 0.69527036
0.0058300556 -0.089394167 0.69540423
0.0058488874 -0.090657726 0.69616199
0.0067964783 0.08835426 0.69522309
0.0067964783 0.0873833 0.69522309
0.0067964783 0.08641234 0.69522303
0.0067964783 0.08544147 0.69522309
0.0067964783 0.08447054 0.69522303
0.0067964783 0.08349964 0.69522309
0.0067964783 0.08252871 0.69522309
0.0067964783 0.081557751 0.69522309
0.0067964783 0.080586851 0.69522303
0.0067964783 0.079615891 0.69522303
0.0067964783 0.078645021 0.69522309
0.0067964783 0.077674061 0.69522309
0.0067964783 0.076703101 0.69522309
0.0067964783 0.075732231 0.69522303
0.0067964783 0.074761301 0.69522303
0.0067964783 0.073790342 0.69522303
0.0067964783 0.072819412 0.69522309
0.0067964783 0.071848482 0.69522309
0.0067964783 0.070877612 0.69522309
0.0067964783 0.069906652 0.69522303
0.0067964783 0.068935752 0.69522303
0.0067964783 0.067964822 0.69522303
0.0067964783 0.066993862 0.69522303
0.0067964783 0.066022933 0.69522309
0.0067964783 0.065052032 0.69522309
0.0067964783 0.064081073 0.69522309
0.0067964783 0.063110173 0.69522309
0.0067964783 0.062139273 0.69522303
0.0067964783 0.061168343 0.69522303
0.0067964783 0.060197413 0.69522309
0.0067964783 0.059226453 0.69522303
0.0067964783 0.058255553 0.69522309
0.0067964783 0.057284653 0.69522303
0.0067964783 0.056313694 0.69522303
0.0067964783 0.055342793 0.69522303
0.0067964783 0.054371834 0.69522303
0.0067964783 0.053400904 0.69522303
0.0067964783 0.052429974 0.69522309
0.0067964783 0.051459044 0.69522309
0.0067964783 0.050488144 0.69522309
0.0067964783 0.049517184 0.69522309
0.0067964783 0.048546314 0.69522303
0.0067964783 0.047575384 0.69522303
0.0067964783 0.046604425 0.69522303
0.0067964783 0.045633525 0.69522309
0.0067964783 0.044662595 0.69522309
0.0067964783 0.043691695 0.69522303
0.0067964783 0.042720765 0.69522303
0.0067964783 0.041749835 0.69522303
0.0067964783 0.040778905 0.69522303
0.0067964783 0.039807975 0.69522309
0.0067964783 0.038837045 0.69522309
0.0067964783 0.037866116 0.69522309
0.0067964783 0.036895156 0.69522309
0.0067964783 0.035924256 0.69522303
0.0067964783 0.034953326 0.69522309
0.0067964783 0.033982396 0.69522303
0.0067964783 0.033011466 0.69522303
0.0067964783 0.032040536 0.69522309
0.0067964783 0.031069636 0.69522309
0.0067964783 0.030098736 0.69522303
0.0067964783 0.029127777 0.69522303
0.0067964783 0.028156877 0.69522303
0.0067964522 0.027185827 0.69522214
0.0067964522 0.026214927 0.69522214
0.0067964522 0.025243998 0.69522214
0.0067964522 0.024273068 0.69522214
0.0067964522 0.023302138 0.69522214
0.0067964522 0.022331238 0.69522214
0.0067964522 0.021360278 0.69522214
0.0067964522 0.020389348 0.69522214
0.0067964522 0.019418478 0.69522214
0.0067964522 0.018447518 0.69522214
0.0067964522 0.017476618 0.69522214
0.0067964522 0.016505688 0.69522214
