# .PCD v0.7 - Point Cloud Data file format
VERSION 0.7
FIELDS x y z
SIZE 4 4 4
TYPE F F F
COUNT 1 1 1
WIDTH 586
HEIGHT 1
VIEWPOINT 0 0 0 1 0 0 0
POINTS 586
DATA ascii
0.011535799 0.077520788 0.68362051
0.011529101 0.078398108 0.68349111
0.0083024725 0.080257267 0.68353134
0.011509031 0.081023812 0.68310356
0.007425895 0.070546031 0.68491709
0.0064844377 0.075497314 0.68446112
0.015727043 0.075859904 0.6841647
0.00555448 0.078688473 0.68431592
0.0037105933 0.079777777 0.68477499
0.0055520353 0.079579204 0.68421757
0.018493515 0.079522133 0.68405735
0.019439746 0.079610437 0.68430519
0.0046281172 0.081454873 0.68428612
0.003706292 0.082465023 0.68451542
0.010243291 0.06425339 0.68563449
0.014920102 0.06527546 0.6859479
0.013480529 0.067866951 0.68526649
0.0046540662 0.069811016 0.68553913
0.0046540662 0.069811016 0.68553913
0.01770073 0.069871336 0.68573326
0.0037207336 0.07348448 0.68538707
0.0037207336 0.07348448 0.68538707
0.001860917 0.080484569 0.68545341
0.0056195455 0.057132065 0.68693399
0.0084022973 0.06068328 0.68620914
0.01494199 0.063503474 0.6862781
0.019664655 0.067421705 0.68689078
0.021535784 0.071161747 0.68687302
0.00046660451 0.07753481 0.6863457
-0.0056175892 0.079582542 0.6868552
0.029476378 0.08047539 0.68673348
-0.0028101513 0.081494421 0.68696439
-0.0018717733 0.083293915 0.68676394
-0.0056021172 0.084498525 0.68623269
0.0084583228 0.050749928 0.68771201
0.0046977447 0.052614748 0.68764812
0.013159567 0.053578258 0.68774951
0.010308596 0.055291593 0.68706775
-0.00093922799 0.07044214 0.68757063
-0.0056293346 0.07646504 0.68732786
-0.0056293346 0.07646504 0.68732786
0.028160769 0.076503351 0.68744129
-0.0056243041 0.077802926 0.68712538
-0.0009371452 0.077783078 0.68706775
-0.007508778 0.079780757 0.68741834
-0.0028122046 0.080616534 0.68712962
-0.0075012636 0.083451599 0.68719155
0.0037783307 0.044395387 0.68886334
0.0084908893 0.045284778 0.68858558
0.011336833 0.045347363 0.68890035
0.0075413147 0.04619056 0.68840021
0.013218169 0.04815194 0.6887601
0.0018851439 0.05089891 0.68837792
0.017010132 0.052920461 0.68896586
0.019787153 0.061245978 0.68829906
-0.0028340584 0.066128075 0.68888831
0.022602651 0.067807972 0.68818605
0.028288776 0.068836033 0.68847138
0.030242519 0.068990737 0.68898308
0.027338604 0.069760591 0.68841136
-0.0037709698 0.072591186 0.68841904
0.025430856 0.073466927 0.68821174
0.026376016 0.073476046 0.68823999
-0.0037655493 0.074369669 0.68809193
-0.008474336 0.077210635 0.68814152
0.0037886731 0.039781094 0.68948752
0.0066187009 0.041603297 0.68909174
0.016123654 0.047422528 0.68979704
-0.0018911074 0.056733221 0.68909776
-0.0066398308 0.061655581 0.68982047
-0.0028372298 0.062419057 0.68914354
0.024642797 0.064450413 0.68964005
0.0038038953 0.033284098 0.69040632
0.0066486541 0.035142899 0.69012481
0.011413118 0.037092656 0.69043511
0.019973563 0.052311718 0.69044209
-0.0085714059 0.054285586 0.69074541
-0.0085714059 0.054285586 0.69074541
0.028547019 0.058521166 0.69054955
0.0047875717 0.022980362 0.69198531
0.0047875717 0.022980362 0.69198531
0.0057311794 0.026745528 0.69142574
0.0086032404 0.027721554 0.69159937
0.0085967686 0.028655916 0.69142574
-0.00095559057 0.0296233 0.69152087
-0.0028715429 0.030629814 0.69190484
-0.0019096495 0.033418894 0.69133598
-0.00095376908 0.033381909 0.69108111
-0.0047751805 0.044886708 0.69138706
-0.0047697909 0.048651874 0.69112682
0.025790207 0.049670041 0.69142485
-0.0076326546 0.05342859 0.69115663
0.029610639 0.058266103 0.69142222
-0.011443134 0.061506867 0.69103897
0.0057666488 0.018261045 0.69285297
0.012479592 0.027839094 0.69257784
0.017241264 0.039271772 0.69206583
0.024024751 0.040361613 0.69282436
-0.0057495534 0.041205138 0.69216508
0.025914878 0.044151306 0.69253957
-0.0076667164 0.047917008 0.69218457
-0.0067062196 0.047901601 0.69211012
0.022026369 0.048841119 0.6920225
-0.01245622 0.049824864 0.6921438
-0.01244964 0.054586887 0.69202161
0.029810844 0.054813534 0.69298136
-0.0028974721 0.012555748 0.69399142
0.0048235338 0.012541205 0.69372177
0.0048235338 0.012541205 0.69372177
0.0096192118 0.021162271 0.69304919
0.01352065 0.02317825 0.69397616
0.011542123 0.024046093 0.69303048
0.014446481 0.027929872 0.69333357
-0.0077225086 0.031855375 0.69386816
-0.0077225086 0.031855375 0.69386816
0.017360907 0.032792836 0.69367057
-0.012532827 0.0356704 0.69356644
-0.012532827 0.0356704 0.69356644
-0.0096456921 0.03761822 0.69368851
-0.00096961221 0.0038784742 0.694906
0.0029097274 0.0038796365 0.69497764
-0.001937715 0.0058131516 0.69472378
-0.0038781483 0.0067867935 0.69488788
0.0067874435 0.0077571273 0.69491148
0.00048320118 0.0086982399 0.69414687
0.0038651018 0.0096627772 0.69410044
0.007733997 0.012567788 0.69421494
0.007733997 0.012567788 0.69421494
-0.0067827906 0.015503526 0.69475096
-0.0067827906 0.015503526 0.69475096
-0.0067773042 0.017427355 0.69456178
-0.0067720101 0.019348621 0.69437915
-0.013532978 0.031899184 0.69418877
-0.014488816 0.038636863 0.69401491
-0.0038942511 -0.00097355247 0.69585973
-0.0038942511 -0.00097355247 0.69585973
-0.0038860696 0.0029146075 0.69536597
-0.004856437 0.0048564374 0.69531041
-0.0058203577 0.0097006261 0.69501406
0.010694043 0.010694087 0.69552726
0.014584939 0.018474281 0.69556189
0.014555579 0.020377845 0.6950894
-0.015579672 0.021422058 0.69589996
0.015546513 0.021376491 0.69539964
-0.013615468 0.022368282 0.69561124
0.019454978 0.023346007 0.69566327
-0.013597495 0.024281263 0.69530129
-0.0097153252 0.025259882 0.6953696
0.016490182 0.025220275 0.6950022
0.019438276 0.025269806 0.69546163
-0.011640444 0.028131098 0.69500858
0.0029327401 -0.0068430305 0.69682962
0.0029327401 -0.0068430305 0.69682962
0.00048762391 -0.0048757792 0.69624496
-0.0068388646 -0.0029309392 0.6966849
0.0087844217 0.0029281676 0.69645941
-0.010749474 0.013681173 0.69674391
0.014644016 0.014644027 0.69651276
0.020529661 0.014664054 0.69683516
-0.016602835 0.017579496 0.69660199
-0.016595127 0.018547535 0.69649255
0.018528337 0.020478696 0.69624913
-0.0039185118 -0.011755526 0.69732404
-0.0039185118 -0.011755526 0.69732404
0.0039286804 -0.011786014 0.69793773
-0.0078537222 -0.010798842 0.69782794
-0.0078537222 -0.010798842 0.69782794
-0.006855302 -0.0078346133 0.69725186
-0.006855302 -0.0078346133 0.69725186
0.0078585949 -0.0058939457 0.69797498
-0.0088216607 -0.0049009025 0.69745833
0.0088389413 -0.0039283931 0.69792187
0.011775502 0.0029439032 0.69772565
-0.016698793 0.0068759918 0.69796473
0.019642245 0.0078569055 0.69792378
-0.017656604 0.010790139 0.69763654
-0.016641229 0.012725651 0.69714731
-0.014686598 0.012728363 0.69719815
0.015669139 0.013710558 0.69724995
0.015669139 0.013710558 0.69724995
-0.012723655 0.015659899 0.6971103
0.022525622 0.016649365 0.69726288
-0.0068981824 -0.01970908 0.69873071
0.0019717014 -0.018731147 0.69882631
0.001968645 -0.016733468 0.69845742
-0.0058965627 -0.015724152 0.69808024
-0.0058965627 -0.015724152 0.69808024
-0.01084996 -0.012822658 0.69894928
0.0068900408 -0.0098429024 0.69844991
-0.012812425 0.0004927516 0.69875884
-0.015784623 0.0019731224 0.69899249
0.01279997 0.0019692481 0.69852757
-0.018719731 0.0039410293 0.69868106
-0.016719669 0.004917562 0.6982612
-0.014744245 0.007863611 0.69812596
0.015738262 0.0078691542 0.69829297
-0.018689848 0.0088531375 0.69830132
-0.00594135 -0.028716505 0.69988233
-0.0039524678 -0.025691032 0.69937342
-0.00098686584 -0.022697896 0.69907135
-0.0088921739 -0.021736413 0.69934988
-0.010876761 -0.018787116 0.69953746
-0.011873724 -0.016821116 0.69970179
-0.012848616 -0.0088951886 0.69943094
-0.012848616 -0.0088951886 0.69943094
0.0098870657 -0.0088983178 0.69951576
0.0098870657 -0.0088983178 0.69951576
0.015844353 -0.0059415698 0.69989371
-0.019792201 -0.0029688179 0.69973385
-0.018782085 -0.0029655695 0.69947338
-0.015835013 -0.001979351 0.69975281
-0.015835013 -0.001979351 0.69975281
0.016781351 -0.00098714232 0.69913721
-0.0069585666 -0.034792811 0.70081323
-0.0039738603 -0.033777803 0.70066464
-0.0089339837 -0.030772597 0.7004714
-0.0039658132 -0.030735016 0.70017886
-0.011903146 -0.022814363 0.70029378
0.0059493799 -0.01983127 0.70020545
0.0069400077 -0.01784569 0.70017326
-0.013888657 -0.013888627 0.70032221
-0.013888657 -0.013888627 0.70032221
0.0089235036 -0.013880998 0.70019031
-0.013880512 -0.011897534 0.70018172
0.013924769 -0.01094088 0.70094496
0.013924769 -0.01094088 0.70094496
-0.017888837 -0.0099382102 0.7007513
-0.020857466 -0.0079456866 0.7006036
0.012916738 -0.0079487264 0.70069605
0.012916738 -0.0079487264 0.70069605
-0.019820033 -0.0059460104 0.70006979
0.033760522 0.068514049 0.70054173
0.035683267 0.078304946 0.70011818
-0.0089797331 -0.039909929 0.7016986
-0.0049798628 -0.037846893 0.70126992
-0.012952182 -0.029889613 0.70135427
-0.01294682 -0.028881371 0.70125461
0.0059827669 -0.025925308 0.70154881
-0.014937211 -0.018920451 0.70123172
-0.0169672 -0.014971018 0.70177639
-0.015950929 -0.014953971 0.70150185
0.013944115 -0.013944089 0.70127857
-0.020893963 -0.011939406 0.70102322
-0.014971057 0.055891991 0.70177644
-0.014971057 0.055891991 0.70177644
-0.013984536 0.067924917 0.70197558
-0.0080142021 -0.045079857 0.70267081
-0.0050102407 -0.045092106 0.70273674
-0.0020022118 -0.043047518 0.70250928
-0.013023705 -0.042076558 0.7026825
-0.015046874 -0.039121866 0.70299667
0.0060175429 -0.032093525 0.70294809
0.0090250121 -0.025069445 0.70291322
0.015041566 -0.024066478 0.70291126
-0.023056619 -0.023056597 0.70283651
-0.019059526 -0.023072064 0.70299864
0.011013619 -0.020024717 0.70254111
-0.02198676 -0.01898852 0.70209694
-0.02198676 -0.01898852 0.70209694
-0.023008218 -0.014004976 0.7023285
-0.010071268 -0.053377718 0.7039628
-0.0070401947 -0.051292837 0.70362854
-0.011057206 -0.049254805 0.70349777
-0.010047283 -0.049231678 0.70338374
-0.011038003 -0.04615888 0.70307636
-0.012038319 -0.044140458 0.70301318
-0.016098669 -0.042259008 0.70373106
0.0030201646 -0.042282283 0.70386493
0.0030201646 -0.042282283 0.70386493
0.0040192041 -0.038182408 0.70340127
0.0040192041 -0.038182408 0.70340127
0.0070368284 -0.032168359 0.70351243
-0.023111442 -0.028135657 0.70341194
0.014057728 -0.027111322 0.70323771
0.0090342099 -0.026098818 0.70315993
-0.016051866 0.050162077 0.70302486
-0.0090858676 -0.057543814 0.70454562
-0.0090685943 -0.05441156 0.70408231
-0.016143858 -0.046413571 0.70441294
0.0060675284 -0.040450186 0.70495939
-0.021224082 -0.03537342 0.70481831
0.012106673 -0.035311103 0.70438838
0.01917493 -0.01513809 0.70446503
-0.018202143 0.035393119 0.70495343
0.032359496 0.054606646 0.70495445
-0.012181538 -0.065983295 0.70589459
-0.012167023 -0.063876867 0.70560253
-0.0091104247 -0.061748415 0.70520437
-0.0091104247 -0.061748415 0.70520437
-0.0091104247 -0.061748415 0.70520437
-0.012138491 -0.059680939 0.70502847
-0.015197755 -0.058764637 0.70542508
-0.0040505528 -0.058732986 0.70529336
-0.017258789 -0.057867676 0.70591742
-0.016191659 -0.053634852 0.70513415
-0.01824669 -0.049671531 0.70555103
0.0040527182 -0.045593083 0.70542413
0.010129333 -0.041530252 0.7053647
0.012164264 -0.041561216 0.70554698
-0.022281379 -0.039498776 0.70533001
-0.026361886 -0.033459306 0.70560253
0.015172439 -0.032367855 0.70501763
0.032494389 0.053818822 0.70597214
-0.012235953 -0.073415697 0.70698929
-0.01529463 -0.071374893 0.70698422
-0.0040739523 -0.066201687 0.70670563
-0.01834877 -0.064220637 0.70692003
-0.001016386 -0.058950394 0.70619822
-0.019318791 -0.052872479 0.70629299
0.013205455 -0.041647971 0.70605773
0.026509829 0.023450971 0.70697629
-0.019314237 0.029479623 0.70623511
0.029474597 0.038621902 0.70619321
-0.015356215 -0.078828514 0.70797545
-0.015356215 -0.078828514 0.70797545
-0.0081903841 -0.077808619 0.70798761
-0.0092013413 -0.076677829 0.70764315
-0.0040951418 -0.072688758 0.70798457
-0.0183731 -0.067368001 0.70724642
-0.0010220079 -0.065408468 0.70755541
0.0030707025 -0.058343321 0.707932
0.0061235921 -0.04796809 0.70721519
-0.022491893 -0.042939007 0.70764011
-0.011302806 -0.08528477 0.70888805
-0.014362383 -0.083096623 0.70849133
-0.0071782474 -0.078960747 0.70838982
-0.0010270005 -0.070863008 0.7087608
-0.021561345 -0.069817662 0.70869565
-0.020495838 -0.069685847 0.70822757
-0.0010249765 -0.068673462 0.70827216
-0.02153801 -0.066665232 0.70842737
-0.022586869 -0.062627226 0.70868242
-0.021508912 -0.062478244 0.70809281
-0.023640517 -0.055503786 0.70896542
-0.023610543 -0.047221035 0.70865089
-0.017523894 -0.089681089 0.70968223
-0.018527078 -0.085430413 0.7093116
-0.0061859996 -0.084541976 0.70972627
-0.021619014 -0.077210754 0.70935863
-0.0010321059 -0.076375812 0.7099933
-0.023713293 -0.069077849 0.70972943
0.0072025745 -0.05247587 0.70922881
0.0082413433 -0.05047819 0.70952541
-0.023708602 -0.0041232407 0.7096802
0.023674363 0.0061759353 0.70932078
-0.023813687 -0.08283022 0.71078324
-0.023787698 -0.07963708 0.71051037
-0.0010331842 -0.07748875 0.7102536
0 -0.07544297 0.71032166
-0.02483663 -0.073475003 0.71065807
-0.024799289 -0.067164689 0.7102825
0.0041290708 -0.064000547 0.71003234
-0.025879731 -0.05693537 0.71073771
-0.0041528367 -0.08928597 0.71146679
-0.0010364673 -0.080844462 0.71104622
0.0010396676 -0.079014719 0.71181881
-0.025919305 -0.068426937 0.71111983
0.0062379534 -0.064458847 0.71181679
-0.021819599 0.023897648 0.71166456
0.028055519 0.023899168 0.71168029
0.0010433226 -0.082422435 0.71270126
0.0020834045 -0.078127682 0.71231008
0.005212157 -0.069842845 0.71248609
0.020895557 -0.013582081 0.71305263
-0.029397665 -0.083993345 0.71429324
-0.029397665 -0.083993345 0.71429324
0.0063093761 -0.073609352 0.71469057
-0.02938533 -0.062968552 0.71418691
0.0094548035 -0.061981469 0.71444213
0.0094548035 -0.061981469 0.71444213
-0.029399637 -0.059849232 0.71431023
0.0021127874 -0.090849817 0.71585691
0.0021127874 -0.090849817 0.71585691
0.0042214212 -0.0833731 0.71560621
0.0084380731 -0.068559349 0.71546227
0.0084380731 -0.068559349 0.71546227
-0.030603753 -0.064373404 0.71559328
0.012660899 -0.052753747 0.71553856
-0.031765044 -0.08258909 0.71644628
-0.031765044 -0.08258909 0.71644628
-0.029638968 -0.040224284 0.7163738
0.020148048 -0.023329347 0.71682978
0.0074382876 -0.077570736 0.71735829
-0.030787909 -0.049897611 0.71712637
-0.030811574 -0.048873544 0.71732342
0.019172138 -0.029823303 0.71796334
0.0053294059 -0.087402225 0.7181474
0.006425262 -0.08674103 0.71935356
-0.033241156 -0.064337701 0.71969593
-0.034363676 -0.077318251 0.72007483
-0.035693094 -0.08112064 0.72194439
0.0087029133 -0.087029099 0.72345448
-0.035901703 -0.075067163 0.72347057
0.014125833 -0.060849726 0.72314996
0.0098374467 -0.084164739 0.72470641
-0.037218161 -0.082098871 0.72509325
0.010626633 0.075772732 0.6839081
0.0055399458 0.084022552 0.68373108
0.0051251398 0.066745713 0.6857968
0.017179938 0.072897576 0.68501282
0.015268947 0.075187013 0.6842283
0.022659194 0.07899534 0.68562907
0.01035012 0.049868762 0.6879791
0.012609195 0.061177269 0.68630993
0.017328212 0.063223377 0.68694699
0.017328212 0.063223377 0.68694699
0.0028001782 0.068837501 0.68616188
0.021056145 0.070769936 0.68674481
0.026783172 0.076825313 0.68769979
-0.0028476068 0.051256955 0.6899786
-0.0031599561 0.057503443 0.68965358
0.00023527691 0.05698739 0.68822503
0.00023527691 0.05698739 0.68822503
0.017592829 0.056861818 0.68835109
-0.0033156651 0.061093315 0.68949127
-0.0070936615 0.064789593 0.68916583
-0.0089720152 0.071299143 0.68880951
-0.0089720152 0.071299143 0.68880951
0.026839809 0.072986014 0.68818104
0.0033416098 0.027210377 0.69131911
0.0011926416 0.029109132 0.69123381
0.010988288 0.031052947 0.69149435
-0.0031888355 0.033161193 0.69175738
0.000158225 0.039261229 0.69014049
0.011400334 0.038475975 0.69017792
0.023935935 0.045956999 0.69196677
0.023935935 0.045956999 0.69196677
0.018586611 0.04717993 0.69092786
-0.010993624 0.049231224 0.69160712
-0.0090563269 0.052908324 0.69096929
0.025258908 0.052900769 0.69093615
0.024689142 0.061247975 0.69007039
-0.010949261 0.065212287 0.69065481
0.0014487137 0.0096581429 0.69398832
-0.0028967345 0.013035208 0.69393206
0.0012016596 0.016825333 0.69293666
-0.0033610228 0.025205359 0.69263732
-0.0052918554 0.027298823 0.69308805
0.015331616 0.034975037 0.69215715
0.020720422 0.039031439 0.69348896
-0.012980212 0.042784996 0.69293833
-0.012980212 0.042784996 0.69293833
0.031680301 0.064320624 0.69258761
0.031680301 0.064320624 0.69258761
-0.0014607913 -0.0029214919 0.69592655
0.0087612802 0.0058408976 0.69583869
0.0092277173 0.0092271939 0.69531417
-0.0072696032 0.016961351 0.6948123
-0.0072696032 0.016961351 0.6948123
-0.011197939 0.023369566 0.69590044
0.022380192 0.022866532 0.69573641
-0.011155955 0.028617859 0.69502437
-0.0091883028 0.033367321 0.69431669
-0.0093210004 -0.0053962246 0.69768399
-0.0093133654 -0.0034311637 0.69748998
0.0034141962 -0.0034141764 0.69631231
-0.0073176562 0.0012192912 0.69636333
0.017339522 0.009487818 0.69777435
0.015282968 0.016908448 0.69632339
-0.017093316 0.024905823 0.69661641
-0.0052817818 -0.029050132 0.69991052
-0.0073842434 -0.01722955 0.69850981
-0.011363734 -0.01531592 0.69937384
-0.012869155 -0.013364181 0.69981229
-0.0078631341 -0.013269126 0.69811195
0.0054188366 -0.013300188 0.6986655
0.0093886722 -0.0093884021 0.6994006
0.017306954 -0.0034615248 0.69957739
-0.01329254 0.0054152608 0.6985274
-0.018675163 0.017200872 0.69811475
-0.011789697 0.07172066 0.69801134
-0.0054828674 -0.039377436 0.70149219
-0.0054828674 -0.039377436 0.70149219
-0.0074681146 -0.037340462 0.70121425
-0.0094269086 -0.029272527 0.70037973
-0.014969505 -0.025448263 0.70175147
-0.015416322 -0.011437632 0.70093161
-0.016852971 -0.005452618 0.70015424
0.013390196 -0.0054553822 0.70027715
-0.020872436 0.0074548423 0.70077574
0.022818618 0.008929044 0.70033836
-0.012561733 -0.046728991 0.70343053
0.0019992837 -0.035987109 0.70215577
0.016089194 -0.02463682 0.70358813
0.0089969561 -0.021992534 0.7021606
-0.016006904 0.046520248 0.70234644
-0.0085788611 -0.057024539 0.70448297
-0.006554137 -0.054954901 0.70425659
-0.012601712 -0.052926488 0.70420295
0.010632178 -0.041010149 0.70528257
0.010632178 -0.041010149 0.70528257
-0.018659525 -0.034796491 0.7043165
-0.020492015 -0.030906241 0.70412815
0.009070551 -0.030739278 0.70413476
0.009070551 -0.030739278 0.70413476
0.027313195 0.030853167 0.70504272
-0.014827863 -0.077206701 0.70769924
-0.012742817 -0.072888806 0.70693111
-0.0066388207 -0.073029704 0.70740664
-0.016807597 -0.066720061 0.70673877
-0.0060944539 -0.065007478 0.70604277
-0.020445798 -0.062870905 0.70762354
-0.015237001 -0.063995391 0.70605671
0.00034100644 -0.062682092 0.70755124
0.0023857222 -0.058609873 0.70761788
0.0023857222 -0.058609873 0.70761788
0.0023735613 -0.053227406 0.70636702
-0.022498326 -0.044996619 0.70771074
-0.021461291 0.010730803 0.7075454
-0.019390274 0.033167914 0.70720124
0.031621918 0.047942936 0.70708561
-0.0046345401 -0.080854148 0.7094816
-0.0010290366 -0.073061585 0.70925236
-0.021040866 -0.071332164 0.70860636
-0.021040866 -0.071332164 0.70860636
-0.021502309 -0.061435163 0.70801693
0.0066817212 -0.052933052 0.70895875
0.023643326 0.0066811591 0.70899498
-0.02119096 -0.088897169 0.71037531
-0.023486532 -0.086691462 0.71097076
-0.02536512 -0.068846062 0.71075922
-0.025885729 -0.059019446 0.71079558
-0.027031356 -0.05302304 0.71181881
-0.027049117 -0.045775384 0.71198374
-0.027049117 -0.045775384 0.71198374
0.020756815 -0.010897994 0.71137774
-0.023790997 0.00051742792 0.71054506
-0.023790997 0.00051742792 0.71054506
-0.0010426424 -0.087060913 0.71253705
0.00034946619 -0.08721149 0.71347797
-0.028257445 -0.085295632 0.71348572
-0.02711525 -0.082910135 0.71259779
0.0093870703 -0.056844279 0.71262527
0.012564619 -0.048164368 0.71360153
-0.026181778 -0.010996014 0.71365452
0.0047442615 -0.080637068 0.71530092
0.0047442615 -0.080637068 0.71530092
-0.030568231 -0.073258311 0.71529758
0.013152687 -0.048920691 0.71481824
0.0042500552 -0.088720292 0.71733445
0.0074070049 -0.074599549 0.71627939
-0.030758999 -0.051441595 0.71688569
-0.0335663 -0.056304723 0.72222805
0.012227867 0.051733285 0.68790317
0.0062537999 0.062264379 0.68618983
0.0097937705 0.062026288 0.68600345
0.014219729 0.070107207 0.68500048
0.0097181015 0.073754214 0.68426937
-0.0023495802 0.03394942 0.69142884
-0.0023495802 0.03394942 0.69142884
-0.01026318 0.04695503 0.69190592
-0.0064333244 0.058292713 0.69037408
0.025884334 0.061915185 0.68973082
0.032430559 0.070343845 0.69109821
0.0023064406 0.0023048162 0.6952225
-0.0091576967 0.018071294 0.69559026
0.014298018 0.02586275 0.69375539
-0.0063999193 -0.018213781 0.69849861
0.0058836429 -0.017759174 0.69974864
0.01063313 0.0059666596 0.69654465
0.035334248 0.080973715 0.69777763
0.0054365085 -0.033654936 0.703053
-0.021751603 -0.0295479 0.70365942
0.0095764287 -0.025631975 0.70308912
0.014258372 -0.0064480845 0.70029223
0.029104792 0.04265295 0.70311463
-0.014484644 0.061921541 0.70194161
-0.018047933 -0.054251529 0.70588672
-0.0053773886 -0.054114744 0.70425558
-0.018138086 -0.05024017 0.70557547
0.0017256093 -0.046138033 0.70450854
-0.025858535 -0.029703794 0.70530039
0.025542986 0.018133707 0.7074858
-0.020465154 0.024558216 0.70785719
-0.018796101 0.033904217 0.70606816
-0.005457209 -0.082093053 0.70948714
-0.025930401 -0.069486275 0.71120632
0.001757237 -0.069659255 0.70996445
0.0030739601 -0.059429884 0.70819408
-0.02270199 0.0098046362 0.70994568
-0.029399185 -0.082064137 0.71428347
-0.026550192 -0.014674246 0.71381271
0.0019490331 -0.093130708 0.71728849
0.0019490331 -0.093130708 0.71728849
-0.031825118 -0.069749817 0.71692967
0.014365345 -0.050136343 0.71767175
