# .PCD v0.7 - Point Cloud Data file format
VERSION 0.7
FIELDS x y z
SIZE 4 4 4
TYPE F F F
COUNT 1 1 1
WIDTH 1320
HEIGHT 1
VIEWPOINT 0 0 0 1 0 0 0
POINTS 1320
DATA ascii
-0.02261786 -0.021540791 0.72084165
-0.022696711 -0.022696704 0.72174811
-0.022776116 -0.023860663 0.72266096
-0.022856077 -0.025032818 0.72358018
-0.022936605 -0.026213229 0.72450602
-0.023017699 -0.027402014 0.72543824
-0.023099473 -0.028599352 0.72637832
-0.023181725 -0.029805034 0.72732389
-0.023264565 -0.031019419 0.72827631
-0.023348 -0.032242447 0.72923541
-0.02343308 -0.033475816 0.73021358
-0.023524366 -0.034726411 0.73126298
-0.023616362 -0.035986811 0.73232067
-0.023709085 -0.037257135 0.73338652
-0.023802536 -0.038537443 0.73446095
-0.024054499 -0.040090799 0.73735756
-0.024162916 -0.041422129 0.73860395
-0.024272317 -0.042765498 0.73986167
-0.02438271 -0.044121087 0.74113077
-0.024512628 -0.045523435 0.74262434
-0.024648793 -0.046950072 0.74418974
-0.024839569 -0.048496276 0.74638295
-0.018577281 0.08266893 0.68506849
-0.018347446 0.080728799 0.68229413
-0.018386347 0.079980642 0.6827637
-0.018425481 0.079229593 0.68323612
-0.018464781 0.078475356 0.68371052
-0.018504184 0.077717572 0.68418616
-0.016911035 0.070180863 0.66495514
-0.016805276 0.068901658 0.66367853
-0.016420115 0.066501498 0.65902919
-0.016330509 0.065322071 0.6579476
-0.016368065 0.064653873 0.65840089
-0.016405739 0.063982427 0.65885568
-0.016443642 0.06330806 0.6593132
-0.016481666 0.062630326 0.65977216
-0.016519919 0.06194973 0.66023397
-0.016558353 0.061265916 0.66069794
-0.01659691 0.060578734 0.66116333
-0.016635701 0.059888542 0.66163158
-0.016674619 0.059194893 0.66210133
-0.016713776 0.058498234 0.66257405
-0.016753117 0.057798266 0.66304892
-0.016792588 0.057094842 0.66352534
-0.0168323 0.056388229 0.66400474
-0.016872143 0.055678099 0.66448569
-0.016912235 0.054964781 0.66496962
-0.016952461 0.054247886 0.66545522
-0.016992934 0.053527772 0.66594374
-0.017033601 0.052804202 0.66643465
-0.017074406 0.052076966 0.66692722
-0.017115464 0.051346391 0.66742283
-0.017156664 0.050612181 0.66792017
-0.017198119 0.049874574 0.66842055
-0.017239776 0.04913339 0.66892338
-0.017281575 0.048388422 0.66942799
-0.017323639 0.047640026 0.6699357
-0.017365847 0.046887815 0.6704452
-0.017408321 0.046132088 0.67095792
-0.017450942 0.045372427 0.67147243
-0.017493835 0.044609278 0.67199022
-0.017536938 0.043842345 0.6725105
-0.017580193 0.043071508 0.67303258
-0.017623723 0.042296976 0.67355806
-0.017667409 0.04151842 0.67408538
-0.017711373 0.040736169 0.6746161
-0.017755555 0.039950043 0.67514944
-0.017800024 0.039160103 0.67568618
-0.017845225 0.038367242 0.6762318
-0.017890718 0.037570506 0.676781
-0.017936381 0.036769599 0.67733222
-0.017982341 0.035964698 0.67788696
-0.018028473 0.035155565 0.67844385
-0.018074909 0.034342349 0.67900431
-0.018121518 0.033524871 0.67956698
-0.018168435 0.032703221 0.68013334
-0.018215528 0.03187719 0.68070173
-0.018262932 0.031046987 0.681274
-0.018310517 0.030212373 0.68184841
-0.018358352 0.029373378 0.68242586
-0.018406501 0.028530061 0.68300706
-0.018454839 0.027682275 0.68359053
-0.0185035 0.026830107 0.68417788
-0.018552348 0.02597326 0.6847676
-0.018601524 0.025112092 0.68536115
-0.018650893 0.024246186 0.68595707
-0.018700592 0.023375779 0.68655699
-0.018750491 0.022500604 0.6871593
-0.018800724 0.02162084 0.68776572
-0.018851155 0.020736277 0.68837446
-0.018901931 0.019847006 0.68898737
-0.018952908 0.018952936 0.68960273
-0.019004162 0.018053979 0.69022143
-0.019055767 0.017150193 0.69084436
-0.019107578 0.016241491 0.69146973
-0.019159967 0.01532799 0.69210219
-0.019213306 0.014410019 0.69274598
-0.019267019 0.013486922 0.69339442
-0.019321032 0.012558699 0.69404638
-0.019375274 0.011625201 0.69470114
-0.019429896 0.010686457 0.69536048
-0.019484753 0.0097423792 0.69602263
-0.019539995 0.0087929964 0.69668949
-0.019595476 0.0078382194 0.6973592
-0.019651348 0.0068780184 0.69803369
-0.019707464 0.0059123039 0.69871104
-0.019763978 0.0049410164 0.69939321
-0.019820817 0.0039641559 0.70007932
-0.019877907 0.0029816926 0.70076847
-0.019935405 0.0019935966 0.70146251
-0.019993156 0.0009996891 0.70215964
-0.020051323 -0 0.70286179
-0.020109829 -0.001005441 0.70356804
-0.020168599 -0.0020168722 0.7042774
-0.020227792 -0.0030341446 0.70499194
-0.020287253 -0.0040574372 0.7057097
-0.020347146 -0.0050867498 0.7064327
-0.020407312 -0.0061221421 0.70715892
-0.02046909 -0.0071641803 0.7079047
-0.020531496 -0.0082125664 0.70865798
-0.02059437 -0.0092674494 0.70941693
-0.020657627 -0.010328799 0.71018058
-0.020721277 -0.011396706 0.71094882
-0.020785231 -0.01247111 0.71172082
-0.020849669 -0.013552278 0.71249872
-0.02091451 -0.014640123 0.71328139
-0.020979753 -0.015734792 0.71406889
-0.021045316 -0.016836256 0.71486038
-0.02111138 -0.017944664 0.71565783
-0.02117786 -0.019060016 0.71646029
-0.021244671 -0.020182431 0.7172668
-0.021311995 -0.021311969 0.71807939
-0.021379745 -0.022448689 0.71889722
-0.02144793 -0.02359271 0.71972024
-0.021516455 -0.024743885 0.7205475
-0.021586075 -0.025903285 0.72138786
-0.02165802 -0.027072519 0.7222563
-0.021730352 -0.028249443 0.72312945
-0.02180317 -0.029434294 0.72400844
-0.021876477 -0.030627012 0.72489333
-0.021950277 -0.031827897 0.72578418
-0.022024577 -0.033036828 0.72668105
-0.022099383 -0.034254044 0.72758406
-0.022174796 -0.035479665 0.72849435
-0.022250628 -0.036713511 0.72940975
-0.022326978 -0.037955821 0.73033136
-0.022403855 -0.039206713 0.73125935
-0.022481265 -0.040466249 0.73219371
-0.022655124 -0.04191196 0.73429245
-0.022737689 -0.043201596 0.7352891
-0.02282086 -0.044500649 0.73629302
-0.022904642 -0.045809269 0.73730439
-0.022989146 -0.047127753 0.73832446
-0.023074489 -0.04845643 0.73935467
-0.023161862 -0.049797982 0.74040937
-0.023252385 -0.051155239 0.74150205
-0.023346122 -0.052528739 0.74263358
-0.02344051 -0.053913146 0.74377286
-0.023535663 -0.055308759 0.74492145
-0.023631593 -0.056715757 0.74607944
-0.023729544 -0.058137357 0.74726182
-0.023828311 -0.05957076 0.74845409
-0.023932252 -0.061027199 0.74970871
-0.024044037 -0.062514484 0.7510581
-0.024156753 -0.064015388 0.7524187
-0.024271235 -0.065532327 0.75380063
-0.024387166 -0.067064673 0.75520009
-0.024526792 -0.068674982 0.75688547
-0.024670457 -0.070310771 0.75861967
-0.024858968 -0.072090983 0.76089513
-0.017943142 0.084993839 0.68881339
-0.017648418 0.08266893 0.68506849
-0.017446835 0.080806404 0.68250716
-0.017481484 0.080046833 0.6829474
-0.017516334 0.079284519 0.6833902
-0.017551323 0.078519106 0.68383479
-0.017587105 0.077753544 0.68428946
-0.017623227 0.076985747 0.68474847
-0.0176595 0.076214701 0.68520933
-0.015599107 0.066501498 0.65902919
-0.015461703 0.065101951 0.65728331
-0.015496736 0.064433813 0.65772843
-0.015531928 0.063762665 0.65817559
-0.01556728 0.063088477 0.65862477
-0.015602743 0.06241098 0.65907538
-0.015638418 0.061730623 0.65952873
-0.01567426 0.061047137 0.65998411
-0.015710263 0.060360491 0.66044152
-0.015746431 0.059670746 0.66090119
-0.01578277 0.058977693 0.66136289
-0.015819222 0.058281362 0.66182601
-0.015855895 0.057581961 0.662292
-0.01589274 0.056879282 0.6627602
-0.015929755 0.056173384 0.66323054
-0.015966944 0.055464149 0.66370302
-0.016004305 0.054751575 0.66417783
-0.016041789 0.054035515 0.66465408
-0.016079504 0.053316295 0.6651333
-0.016117396 0.052593619 0.66561472
-0.016155466 0.051867604 0.66609848
-0.01619372 0.051138073 0.66658455
-0.016232152 0.050405115 0.66707289
-0.016270712 0.049668521 0.66756284
-0.016309513 0.048928559 0.66805589
-0.016348496 0.04818508 0.66855121
-0.016388008 0.047439009 0.66905326
-0.016427824 0.046689659 0.66955918
-0.016467834 0.045936584 0.67006761
-0.016507981 0.045179725 0.6705777
-0.016548382 0.044419348 0.67109108
-0.016588926 0.043655097 0.67160618
-0.016629724 0.042887181 0.67212462
-0.016670667 0.04211539 0.67264485
-0.01671187 0.041339904 0.67316836
-0.016753277 0.040560603 0.67369455
-0.016794831 0.039777249 0.67422253
-0.016836651 0.03899011 0.6747539
-0.01687862 0.038199008 0.67528719
-0.016920857 0.037404031 0.67582387
-0.016963247 0.036604911 0.67636251
-0.017005911 0.035801947 0.67690462
-0.017048791 0.03499487 0.67744946
-0.017091826 0.034183681 0.67799622
-0.01713514 0.033368438 0.67854661
-0.01717861 0.032548934 0.67909896
-0.017222365 0.031725436 0.67965496
-0.017266344 0.030897707 0.68021375
-0.017310485 0.030065626 0.68077463
-0.017354917 0.029229373 0.6813392
-0.017399512 0.028388679 0.68190587
-0.017444402 0.027543783 0.68247616
-0.017489459 0.026694477 0.68304873
-0.017534813 0.025840789 0.68362504
-0.017580405 0.024982691 0.68420434
-0.017626168 0.024120063 0.68478578
-0.017672237 0.023252994 0.68537116
-0.017718481 0.022381276 0.68595874
-0.017765032 0.021505088 0.68655026
-0.017811831 0.02062425 0.68714488
-0.017859412 0.019739389 0.68774951
-0.017907316 0.01884982 0.68835819
-0.017955478 0.017955482 0.68897021
-0.018003969 0.017056435 0.68958628
-0.018052651 0.016152382 0.69020486
-0.018101668 0.01524353 0.69082767
-0.018150883 0.014329672 0.69145304
-0.018200435 0.013410866 0.69208264
-0.018250188 0.012486994 0.69271481
-0.018300286 0.011558115 0.69335139
-0.018350586 0.010624021 0.69399059
-0.018401166 0.0096848309 0.69463331
-0.018452097 0.0087404847 0.69528043
-0.018503238 0.0077908635 0.69593018
-0.018554736 0.0068359673 0.69658458
-0.018606447 0.0058757365 0.69724166
-0.018658523 0.0049102008 0.69790328
-0.018710814 0.003939122 0.69856775
-0.018763475 0.0029627085 0.69923687
-0.018816359 0.0019806623 0.69990885
-0.018869618 0.00099316239 0.7005856
-0.018923104 2.9802322e-08 0.7012651
-0.018976968 -0.00099876523 0.7019496
-0.019031063 -0.0020032823 0.70263702
-0.019085469 -0.0030134618 0.70332825
-0.019140262 -0.0040294826 0.70402449
-0.019195683 -0.0050514638 0.70472872
-0.019252049 -0.0060795844 0.70544493
-0.019308826 -0.0071137547 0.70616633
-0.019365856 -0.0081540346 0.706891
-0.019423308 -0.0092004836 0.70762098
-0.0194811 -0.010253191 0.70835531
-0.019539157 -0.011312127 0.70909297
-0.019597642 -0.012377441 0.70983613
-0.019656396 -0.013449103 0.71058267
-0.019715585 -0.014527231 0.71133476
-0.019775052 -0.015611887 0.71209037
-0.019834958 -0.016703099 0.71285158
-0.019895228 -0.017800987 0.71361738
-0.019955784 -0.018905461 0.71438682
-0.020016793 -0.020016789 0.7151621
-0.020078093 -0.021134853 0.71594095
-0.020139853 -0.022259802 0.71672565
-0.020201908 -0.023391694 0.71751422
-0.020264434 -0.024530619 0.71830869
-0.020327348 -0.025676608 0.71910805
-0.020390566 -0.02682969 0.71991134
-0.020454267 -0.027990013 0.72072077
-0.020519963 -0.029159933 0.72155547
-0.02058599 -0.030337244 0.72239447
-0.020652536 -0.031522244 0.72324002
-0.020719511 -0.032715023 0.72409105
-0.020786924 -0.03391549 0.72494757
-0.020854684 -0.035123676 0.72580862
-0.020922979 -0.036339879 0.7266764
-0.020991726 -0.037564129 0.72754991
-0.021060923 -0.038796425 0.72842914
-0.021130485 -0.040036708 0.72931302
-0.021200603 -0.041285396 0.73020399
-0.021335153 -0.04267031 0.73191363
-0.02140847 -0.043943673 0.73284525
-0.021482486 -0.045226246 0.73378569
-0.021557016 -0.04651776 0.73473269
-0.021632064 -0.047818214 0.7356863
-0.02170754 -0.049127579 0.73664534
-0.021783642 -0.050446302 0.73761225
-0.021860279 -0.051774323 0.73858607
-0.021937458 -0.053111702 0.73956668
-0.022015184 -0.054458618 0.74055433
-0.022093359 -0.055814803 0.74154764
-0.022172611 -0.057181954 0.74255466
-0.022253785 -0.058562577 0.74358612
-0.022335555 -0.059953302 0.74462509
-0.022417933 -0.061354309 0.74567181
-0.022500915 -0.062765718 0.74672627
-0.022586342 -0.064192772 0.74781179
-0.022672743 -0.065631568 0.74890947
-0.022759808 -0.067081541 0.75001585
-0.022847982 -0.068543941 0.75113618
-0.022938171 -0.070021778 0.75228214
-0.023029078 -0.071511298 0.75343728
-0.023120705 -0.073012739 0.75460154
-0.023213064 -0.074526161 0.75577509
-0.023306163 -0.076051682 0.75695813
-0.023404047 -0.077602863 0.75820178
-0.023505196 -0.079175383 0.75948703
-0.016998766 0.084993839 0.68881339
-0.016917599 0.083648175 0.68772477
-0.01661432 0.081225604 0.68365711
-0.016644532 0.080448598 0.6840623
-0.016674856 0.07966879 0.68446904
-0.016705289 0.078886122 0.68487728
-0.016736332 0.078102887 0.68529361
-0.016768178 0.07731995 0.68572068
-0.016800206 0.076534301 0.68615031
-0.014778102 0.066501498 0.65902919
-0.014600627 0.064891726 0.65664887
-0.014633317 0.064224064 0.65708727
-0.014666153 0.063553363 0.65752769
-0.014699089 0.062879443 0.65796947
-0.014732221 0.062202752 0.65841389
-0.014765504 0.061522931 0.65886021
-0.014798937 0.06084007 0.65930867
-0.01483262 0.060154557 0.65976042
-0.014866651 0.05946663 0.66021687
-0.01490084 0.058775544 0.66067541
-0.014935187 0.058081269 0.66113609
-0.014969642 0.057383686 0.66159821
-0.015004307 0.056682974 0.66206312
-0.015039133 0.055978984 0.66253018
-0.015074121 0.055271804 0.66299951
-0.015109272 0.054561257 0.66347098
-0.015144587 0.053847402 0.6639446
-0.015180016 0.05313012 0.66441977
-0.015215664 0.0524095 0.66489792
-0.015251478 0.051685601 0.66537827
-0.015287463 0.050958186 0.66586089
-0.015323617 0.050227433 0.66634583
-0.015359942 0.049493134 0.66683304
-0.015396387 0.048755229 0.6673218
-0.01543306 0.048013985 0.66781366
-0.015469907 0.047269166 0.6683079
-0.015506929 0.046520799 0.66880441
-0.01554413 0.045768827 0.66930342
-0.015581511 0.045013249 0.66980475
-0.015619016 0.044253886 0.67030776
-0.015656758 0.043491036 0.67081404
-0.015694682 0.042724401 0.67132264
-0.015732789 0.0419541 0.67183375
-0.015771084 0.041180074 0.67234737
-0.015809564 0.040402263 0.67286348
-0.015848177 0.039620489 0.67338139
-0.015887035 0.038834989 0.67390257
-0.015926085 0.038045645 0.67442632
-0.015965328 0.037252426 0.67495263
-0.016004762 0.036455303 0.6754815
-0.016044393 0.035654217 0.67601311
-0.016084163 0.034849018 0.67654651
-0.016124189 0.034040004 0.67708331
-0.016164415 0.033226848 0.67762285
-0.01620484 0.032409698 0.67816508
-0.016245469 0.031588405 0.67870998
-0.016286302 0.03076303 0.67925763
-0.016327282 0.029933363 0.67980731
-0.016368531 0.029099613 0.6803605
-0.016410284 0.028262198 0.68092054
-0.016452432 0.027420729 0.68148577
-0.016494738 0.02657485 0.68205321
-0.01653732 0.025724769 0.68262434
-0.016580064 0.024870127 0.68319768
-0.016623089 0.024011165 0.68377471
-0.016666338 0.023147702 0.68435484
-0.016709752 0.02227968 0.68493712
-0.016753456 0.021407217 0.68552321
-0.016797325 0.020530105 0.68611163
-0.016841486 0.019648403 0.68670392
-0.016885819 0.018762022 0.68729854
-0.016930448 0.017871022 0.68789709
-0.01697525 0.016975284 0.68849802
-0.017020354 0.016074806 0.68910295
-0.017065698 0.015169531 0.68971109
-0.017111219 0.014259368 0.69032168
-0.017157052 0.013344407 0.69093639
-0.017203061 0.012424469 0.69155347
-0.017249387 0.011499584 0.69217479
-0.017295895 0.010569721 0.69279855
-0.01734272 0.0096348822 0.69342661
-0.0173898 0.008694917 0.69405806
-0.017437071 0.0077498257 0.69469213
-0.017484667 0.0067996383 0.69533044
-0.017532455 0.005844146 0.69597137
-0.017580573 0.004883498 0.69661677
-0.017628955 0.0039175749 0.69726574
-0.017677534 0.0029462576 0.69791722
-0.017726453 0.0019696057 0.69857335
-0.017775575 0.00098755956 0.69923222
-0.017825037 2.9802322e-08 0.69989562
-0.017875131 -0.00099304318 0.70056748
-0.017925793 -0.0019917488 0.70124698
-0.017976817 -0.0029961169 0.7019313
-0.018028056 -0.0040062368 0.70261854
-0.018079592 -0.0050220788 0.70330977
-0.018131495 -0.0060438216 0.70400584
-0.018183621 -0.0070713758 0.70470506
-0.018236123 -0.0081049204 0.70540929
-0.018288856 -0.0091444254 0.7061165
-0.01834197 -0.01018998 0.70682883
-0.018395316 -0.011241555 0.70754433
-0.018449049 -0.012299359 0.70826507
-0.018503023 -0.013363272 0.7089889
-0.018557312 -0.014433444 0.70971704
-0.018611997 -0.015509993 0.71045053
-0.018666929 -0.01659283 0.71118736
-0.018722264 -0.017682076 0.71192944
-0.018777849 -0.018777847 0.71267503
-0.018833844 -0.019880146 0.71342599
-0.018890094 -0.020988941 0.71418047
-0.018946761 -0.022104532 0.71494055
-0.019003691 -0.023226708 0.71570408
-0.019061042 -0.024355799 0.71647334
-0.019118661 -0.025491536 0.71724606
-0.01917671 -0.026634306 0.71802461
-0.019235525 -0.027784616 0.71881348
-0.019295279 -0.028942883 0.71961486
-0.019355489 -0.030108511 0.72042251
-0.019415991 -0.031281292 0.72123396
-0.019476959 -0.032461554 0.72205162
-0.019538309 -0.033649296 0.72287452
-0.019599963 -0.034844339 0.72370148
-0.019662092 -0.036047101 0.72453475
-0.019724531 -0.037257433 0.7253722
-0.019787455 -0.038475573 0.72621614
-0.019850692 -0.039701343 0.72706425
-0.019914424 -0.040935189 0.7279191
-0.019978477 -0.042176753 0.72877818
-0.020096075 -0.043541491 0.73035544
-0.020161213 -0.044802696 0.73122913
-0.020226687 -0.046071887 0.73210722
-0.020293865 -0.047352344 0.73300827
-0.020361584 -0.048641533 0.73391658
-0.020429941 -0.049939841 0.73483342
-0.020498758 -0.051246852 0.73575634
-0.020568138 -0.052562982 0.73668683
-0.02063789 -0.053887814 0.73762238
-0.020708119 -0.055221647 0.73856437
-0.020778827 -0.056564569 0.73951268
-0.02085002 -0.057916731 0.74046761
-0.020921702 -0.059278131 0.74142897
-0.020993879 -0.060648978 0.74239707
-0.021066556 -0.062029302 0.74337184
-0.021139836 -0.063419491 0.74435472
-0.021214228 -0.064821243 0.74535245
-0.021290051 -0.066235721 0.74636942
-0.02136652 -0.06766063 0.74739504
-0.021443438 -0.069095522 0.74842668
-0.021521015 -0.070541114 0.74946713
-0.021599051 -0.071996778 0.75051379
-0.021677654 -0.073463112 0.75156802
-0.021756938 -0.074940562 0.75263143
-0.021836802 -0.076428801 0.75370264
-0.021918111 -0.077931046 0.75479317
-0.022001209 -0.07944876 0.75590765
-0.022085588 -0.08098051 0.75703943
-0.01605439 0.084993839 0.68881339
-0.01603871 0.083967388 0.68859076
-0.016070284 0.083187342 0.68903911
-0.016102044 0.082404613 0.68949014
-0.016133929 0.081618696 0.68994296
-0.016165942 0.08082974 0.69039756
-0.016198019 0.080037296 0.69085312
-0.016230285 0.079242021 0.69131136
-0.016262557 0.078442931 0.69176966
-0.013957096 0.066501498 0.65902919
-0.013757454 0.064740986 0.65619397
-0.01378117 0.064041942 0.65653086
-0.013812006 0.063372761 0.65696877
-0.01384298 0.06270054 0.65740865
-0.01387405 0.06202516 0.65784985
-0.013905303 0.061346948 0.65829366
-0.013936698 0.060665667 0.65873951
-0.013968236 0.059981287 0.65918738
-0.013999916 0.059293777 0.65963733
-0.014031692 0.058602959 0.6600886
-0.014063662 0.05790922 0.66054261
-0.014095778 0.057212293 0.66099864
-0.014127992 0.056511998 0.66145611
-0.014160401 0.055808663 0.66191638
-0.01419296 0.05510211 0.66237879
-0.01422567 0.054392248 0.66284323
-0.01425853 0.053679168 0.66330993
-0.014291493 0.052962631 0.66377807
-0.014324659 0.052242875 0.66424906
-0.014357978 0.051519811 0.66472226
-0.014391404 0.050793231 0.6651969
-0.014425035 0.050063372 0.66567457
-0.014458824 0.049330115 0.66615433
-0.014492772 0.048593432 0.66663647
-0.014526878 0.047853261 0.66712081
-0.014561095 0.047109425 0.66760671
-0.014595525 0.046362281 0.66809565
-0.014630117 0.04561156 0.66858697
-0.014664824 0.044857144 0.66907978
-0.014699748 0.044099271 0.66957575
-0.014734836 0.043337762 0.67007411
-0.014770094 0.042572647 0.67057478
-0.014805521 0.041803837 0.67107791
-0.014841066 0.041031182 0.6715827
-0.014877093 0.040255666 0.67209435
-0.014913349 0.039476544 0.67260915
-0.014949782 0.038693577 0.67312658
-0.014986393 0.037906796 0.67364651
-0.015023185 0.03711611 0.674169
-0.015060158 0.03632158 0.67469406
-0.015097258 0.035522997 0.67522097
-0.015134597 0.03472057 0.67575115
-0.01517212 0.033914179 0.67628407
-0.01520983 0.033103764 0.67681956
-0.015247727 0.032289296 0.67735779
-0.015285814 0.031470835 0.67789865
-0.015324092 0.030648202 0.67844224
-0.015362562 0.029821426 0.67898858
-0.015401171 0.028990448 0.67953688
-0.015440029 0.028155357 0.68008876
-0.015479084 0.027316034 0.68064338
-0.015518338 0.026472479 0.6812008
-0.01555779 0.025624633 0.68176109
-0.015597444 0.024772465 0.68232417
-0.015637243 0.023915827 0.6828894
-0.015677305 0.023054898 0.68345833
-0.01571757 0.022189528 0.68403018
-0.015758045 0.021319747 0.68460494
-0.015798727 0.020445436 0.68518263
-0.01583962 0.019566596 0.68576336
-0.015880665 0.018683165 0.68634629
-0.015921986 0.017795175 0.6869331
-0.015963519 0.016902566 0.68752295
-0.016005272 0.016005307 0.68811584
-0.016047243 0.01510331 0.68871188
-0.016089434 0.014196575 0.68931103
-0.016131787 0.013285011 0.68991256
-0.016174424 0.012368709 0.69051802
-0.016217288 0.011447549 0.69112676
-0.01626038 0.010521472 0.69173872
-0.016303701 0.0095904469 0.69235396
-0.016347254 0.0086544454 0.69297248
-0.016390977 0.0077134371 0.69359338
-0.016435253 0.0067674816 0.69422209
-0.016480023 0.0058164895 0.69485795
-0.016524974 0.0048603117 0.69549626
-0.016570235 0.0038989186 0.69613904
-0.016615679 0.0029321909 0.69678444
-0.016661439 0.001960218 0.69743425
-0.016707387 0.00098282099 0.6980868
-0.016753653 2.9802322e-08 0.69874382
-0.016800111 -0.00098824501 0.69940358
-0.016846893 -0.0019819736 0.70006794
-0.016893938 -0.0029812455 0.70073605
-0.016941179 -0.0039861202 0.70140696
-0.016988752 -0.0049966872 0.70208251
-0.017036526 -0.0060128868 0.70276093
-0.017084636 -0.0070348084 0.70344418
-0.017132949 -0.0080625713 0.70413035
-0.017181607 -0.0090961158 0.70482129
-0.017230542 -0.010135591 0.70551628
-0.017279686 -0.011180967 0.70621419
-0.017329182 -0.012232333 0.70691705
-0.017378891 -0.01328972 0.707623
-0.017428957 -0.014353245 0.70833403
-0.017479243 -0.015422851 0.70904809
-0.017529888 -0.016498715 0.7097674
-0.017580759 -0.017580777 0.71048975
-0.017631996 -0.018669128 0.7112174
-0.017683534 -0.019763947 0.71194935
-0.017735301 -0.020864993 0.71268439
-0.017787445 -0.021972716 0.71342498
-0.017839823 -0.023086816 0.71416879
-0.017892733 -0.024207801 0.71492016
-0.017946491 -0.025336236 0.7156837
-0.018000649 -0.026471525 0.71645278
-0.018055057 -0.02761358 0.71722543
-0.018109873 -0.028762758 0.71800387
-0.018164944 -0.0299187 0.718786
-0.018220352 -0.031081766 0.71957278
-0.018276177 -0.032252073 0.72036552
-0.018332267 -0.033429384 0.72116208
-0.018388782 -0.034614146 0.72196466
-0.018445566 -0.03580606 0.72277105
-0.018502781 -0.037005544 0.72358364
-0.018560274 -0.038212299 0.72440004
-0.018618204 -0.039426774 0.72522277
-0.018676415 -0.040648609 0.72604942
-0.018735075 -0.041878372 0.72688252
-0.018794021 -0.043115675 0.72771966
-0.018898159 -0.044466227 0.72919846
-0.018957969 -0.045722157 0.73004794
-0.019018412 -0.046986639 0.73090625
-0.019080101 -0.048261404 0.73178232
-0.019142102 -0.049544245 0.7326628
-0.019204507 -0.05083546 0.73354906
-0.01926741 -0.052135319 0.73444235
-0.019330814 -0.053443968 0.73534268
-0.019394547 -0.054761022 0.73624778
-0.019458702 -0.056086808 0.73715889
-0.019523282 -0.057421386 0.73807609
-0.019588294 -0.058764875 0.73899925
-0.019653739 -0.060117304 0.73992866
-0.019719625 -0.061478794 0.7408644
-0.019785952 -0.062849462 0.74180621
-0.019852726 -0.064229429 0.74275458
-0.019919954 -0.065618664 0.74370921
-0.019987639 -0.067017406 0.74467051
-0.020055784 -0.068425626 0.74563825
-0.020124396 -0.069843501 0.74661267
-0.020194439 -0.071274489 0.74760729
-0.020265453 -0.07271716 0.74861574
-0.02033687 -0.074169755 0.74963003
-0.020408794 -0.075632602 0.75065142
-0.020481229 -0.07710579 0.75168008
-0.020554177 -0.078589499 0.75271606
-0.02062765 -0.080083787 0.75375938
-0.020701747 -0.081589222 0.75481176
-0.015117434 0.085035563 0.68892539
-0.015147466 0.084257841 0.6893785
-0.01517762 0.083476901 0.68983352
-0.015207892 0.082692951 0.69029027
-0.015238229 0.081905484 0.69074798
-0.015268745 0.081115216 0.69120848
-0.015299384 0.080321819 0.69167078
-0.015329969 0.079524249 0.69213229
-0.015360677 0.07872346 0.69259566
-0.013136091 0.066501498 0.65902919
-0.012948193 0.064740986 0.65619397
-0.012935806 0.063870549 0.65600717
-0.012964465 0.063201785 0.65643954
-0.012993248 0.062530041 0.65687388
-0.01302216 0.061855286 0.65731019
-0.013051202 0.061177522 0.65774834
-0.013080373 0.060496747 0.65818846
-0.013109676 0.059812903 0.65863067
-0.013139108 0.059126049 0.65907472
-0.013168676 0.058436036 0.65952086
-0.013198375 0.057742923 0.65996897
-0.013228252 0.057046831 0.66041982
-0.01325844 0.056348413 0.66087532
-0.013288768 0.055646718 0.66133291
-0.01331919 0.054941684 0.66179192
-0.013349795 0.054233551 0.66225374
-0.013380541 0.053522199 0.6627177
-0.013411429 0.05280751 0.66318375
-0.013442461 0.052089572 0.66365194
-0.013473591 0.051368058 0.66412175
-0.013504911 0.050643444 0.66459429
-0.013536377 0.049915403 0.66506904
-0.013567944 0.049183816 0.6655454
-0.013599706 0.04844898 0.66602457
-0.013631615 0.047710657 0.66650611
-0.013663675 0.046968907 0.6669898
-0.013695885 0.04622364 0.66747582
-0.013728202 0.045474678 0.66796345
-0.013760719 0.044722348 0.66845411
-0.013793389 0.043966442 0.6689471
-0.013826168 0.043206811 0.6694417
-0.01385915 0.042443693 0.66993934
-0.013892292 0.041676909 0.67043936
-0.01392559 0.040906459 0.67094183
-0.01395905 0.040132284 0.67144668
-0.013992621 0.039354265 0.67195326
-0.014026404 0.038572609 0.672463
-0.014060351 0.037787229 0.67297518
-0.014094461 0.036997974 0.67348993
-0.014128688 0.036204755 0.67400634
-0.014163132 0.035407841 0.67452604
-0.014197744 0.034607023 0.67504829
-0.014232526 0.033802271 0.67557311
-0.014267427 0.032993466 0.67609978
-0.014302552 0.032180756 0.67662978
-0.014337848 0.031364053 0.67716235
-0.014373322 0.030543327 0.6776976
-0.014408917 0.029718429 0.6782347
-0.014444742 0.028889507 0.67877519
-0.014480746 0.028056473 0.67931855
-0.01451693 0.027219266 0.67986447
-0.014553243 0.026377767 0.68041241
-0.014589789 0.025532126 0.68096381
-0.014626521 0.024682283 0.68151808
-0.014663439 0.023828089 0.68207514
-0.014700488 0.022969514 0.68263412
-0.01473778 0.022106677 0.68319684
-0.014775261 0.02123946 0.68376237
-0.014812933 0.020367831 0.68433082
-0.014850744 0.019491613 0.6849013
-0.014888913 0.018611193 0.68547726
-0.014927503 0.017726421 0.68605953
-0.014966292 0.01683709 0.68664479
-0.015005227 0.01594308 0.68723232
-0.015044423 0.015044421 0.68782371
-0.015083822 0.014141083 0.68841821
-0.01512343 0.013233036 0.68901581
-0.015163246 0.012320191 0.68961662
-0.015203272 0.011402488 0.69022059
-0.01524351 0.010479927 0.69082773
-0.015283903 0.009552449 0.69143724
-0.01532457 0.0086200535 0.69205081
-0.015365453 0.0076827407 0.69266766
-0.015406555 0.0067403913 0.69328785
-0.015447877 0.0057929754 0.69391137
-0.015489423 0.0048404634 0.69453824
-0.015531191 0.0038827956 0.6951685
-0.015573187 0.0029199719 0.69580215
-0.015615348 0.0019519329 0.69643831
-0.015657799 0.00097861886 0.69707882
-0.015700482 -0 0.69772291
-0.015743399 -0.00098395348 0.69837046
-0.015786553 -0.0019733012 0.69902158
-0.015829941 -0.0029680729 0.69967628
-0.015873568 -0.0039683878 0.70033455
-0.015917376 -0.0049741566 0.70099556
-0.015961487 -0.0059855282 0.70166117
-0.016005844 -0.0070025325 0.70233041
-0.016050449 -0.0080251992 0.70300353
-0.016095303 -0.0090536177 0.70368028
-0.016140409 -0.010087729 0.70436084
-0.016185701 -0.011127651 0.70504433
-0.016231315 -0.012173504 0.70573252
-0.016277187 -0.013225168 0.70642471
-0.016323321 -0.014282882 0.70712078
-0.016369713 -0.015346617 0.70782083
-0.016416373 -0.016416341 0.70852482
-0.016463432 -0.017492384 0.70923495
-0.016511105 -0.018574953 0.70995426
-0.016559122 -0.01966393 0.7106787
-0.016607352 -0.020759165 0.71140647
-0.016655929 -0.021860868 0.71213949
-0.016704796 -0.022969097 0.71287686
-0.016753877 -0.024083704 0.71361744
-0.016803319 -0.025204986 0.7143634
-0.016852982 -0.026332736 0.71511281
-0.016903013 -0.0274674 0.7158677
-0.016953267 -0.02860862 0.71662593
-0.017003896 -0.029756784 0.71738988
-0.017054753 -0.030911714 0.71815729
-0.017105989 -0.032073706 0.71893036
-0.017157534 -0.033242702 0.71970809
-0.017209316 -0.034418643 0.72048944
-0.017261488 -0.035601795 0.72127664
-0.017313901 -0.03679204 0.72206748
-0.017366709 -0.037989676 0.72286427
-0.017419763 -0.039194465 0.72366488
-0.017473219 -0.040406823 0.72447139
-0.017527005 -0.041626602 0.72528303
-0.017581046 -0.042853773 0.72609842
-0.017635498 -0.044088691 0.72692001
-0.017728915 -0.045430303 0.7283296
-0.017784921 -0.046685427 0.72917467
-0.017841201 -0.047948211 0.73002386
-0.017897841 -0.049219042 0.73087853
-0.017954841 -0.050497949 0.73173851
-0.018012285 -0.05178529 0.73260534
-0.018070018 -0.053080648 0.7334764
-0.018128119 -0.054384381 0.73435313
-0.018186681 -0.055696666 0.7352367
-0.018245537 -0.057017297 0.73612487
-0.018304776 -0.05834645 0.7370187
-0.018364485 -0.059684575 0.73791957
-0.018424502 -0.061031133 0.73882514
-0.018484909 -0.062386543 0.73973668
-0.018545803 -0.063751161 0.74065542
-0.018607184 -0.065125108 0.74158162
-0.018668972 -0.066508204 0.7425139
-0.018731086 -0.067900181 0.74345112
-0.0187937 -0.069301724 0.74439597
-0.018856648 -0.070712417 0.74534571
-0.018920107 -0.072132885 0.74630326
-0.018983904 -0.073562622 0.74726593
-0.019048225 -0.075002342 0.74823642
-0.019113896 -0.076455534 0.74922729
-0.019180022 -0.077918798 0.75022507
-0.019246697 -0.079392612 0.75123113
-0.019313745 -0.080876291 0.7522428
-0.019381357 -0.082370758 0.753263
-0.01421619 0.085297167 0.68962699
-0.014244897 0.084519744 0.69008905
-0.014273777 0.083739519 0.6905539
-0.014302719 0.082955807 0.69101965
-0.01433145 0.082167029 0.69148207
-0.014360242 0.081374705 0.69194549
-0.014389149 0.080579251 0.69241077
-0.014418174 0.079780579 0.69287789
-0.01444726 0.078978419 0.69334602
-0.01447652 0.07817319 0.69381696
-0.01213893 0.064740986 0.65619397
-0.01209866 0.06371966 0.65554589
-0.012125398 0.063052118 0.6559763
-0.012152256 0.062381625 0.65640855
-0.012179233 0.061708152 0.65684271
-0.01220633 0.061031699 0.65727878
-0.012233548 0.060352206 0.65771687
-0.012260888 0.059669673 0.65815687
-0.01228835 0.058984101 0.6585989
-0.012315935 0.058295459 0.65904289
-0.012343643 0.057603687 0.65948886
-0.012371478 0.056908816 0.65993679
-0.012399437 0.056210816 0.66038686
-0.012427524 0.055509627 0.6608389
-0.012455738 0.054805249 0.66129297
-0.012484081 0.054097712 0.66174918
-0.012512553 0.053386897 0.66220737
-0.012541154 0.052672863 0.66266775
-0.012569888 0.051955551 0.66313016
-0.012598753 0.051234961 0.66359478
-0.012627751 0.050511032 0.66406155
-0.012656882 0.049783736 0.66453034
-0.012686149 0.049053133 0.66500139
-0.012715551 0.048319131 0.66547459
-0.012745091 0.047581673 0.66595006
-0.012774766 0.046840847 0.66642767
-0.012804581 0.046096563 0.66690749
-0.012834536 0.045348704 0.66738963
-0.01286463 0.044597447 0.66787398
-0.012894867 0.043842554 0.66836059
-0.012925245 0.043084174 0.66884959
-0.012955767 0.042322189 0.66934085
-0.012986435 0.041556597 0.66983438
-0.013017246 0.040787399 0.67033029
-0.013048205 0.040014505 0.67082858
-0.013079312 0.039237916 0.67132926
-0.013110567 0.038457662 0.67183226
-0.013141972 0.037673682 0.67233777
-0.013173526 0.036885917 0.67284566
-0.013205234 0.036094338 0.67335594
-0.013237095 0.035298914 0.67386878
-0.013269204 0.034499973 0.67438555
-0.013301609 0.033697426 0.67490709
-0.013334174 0.032890975 0.67543119
-0.013366899 0.032080591 0.67595792
-0.013399736 0.031266093 0.67648643
-0.013432784 0.030447662 0.67701828
-0.013465995 0.029625207 0.67755282
-0.013499371 0.02879867 0.67808998
-0.013532864 0.02796793 0.67862904
-0.01356657 0.027133167 0.67917156
-0.013600448 0.026294231 0.67971683
-0.013634494 0.025451064 0.68026477
-0.013668661 0.024603635 0.68081468
-0.013703051 0.023752004 0.68136817
-0.013737612 0.022896081 0.6819244
-0.01377235 0.022035807 0.68248355
-0.013807213 0.021171063 0.68304461
-0.013842303 0.020302087 0.68360937
-0.013877573 0.019428611 0.68417704
-0.013913022 0.018550724 0.68474764
-0.013948602 0.017668247 0.68532026
-0.013984416 0.01678133 0.68589664
-0.014020414 0.015889853 0.68647611
-0.014056599 0.014993697 0.68705845
-0.014092917 0.014092922 0.68764299
-0.014129477 0.013187557 0.68823135
-0.014166227 0.012277424 0.68882287
-0.014203169 0.011362553 0.68941742
-0.014240249 0.010442883 0.69001424
-0.014277579 0.0095184147 0.69061506
-0.014315104 0.0085890591 0.69121897
-0.014352827 0.0076548755 0.69182616
-0.014390694 0.0067156851 0.69243562
-0.014428818 0.0057715178 0.69304925
-0.014467144 0.0048223734 0.6936661
-0.014505674 0.0038681924 0.69428617
-0.014544353 0.0029088855 0.69490874
-0.014583296 0.0019444823 0.69553542
-0.014622446 0.00097486377 0.69616568
-0.014661809 -0 0.69679916
-0.014701327 -0.00098010898 0.69743526
-0.014741117 -0.0019654334 0.69807559
-0.014781122 -0.0029562116 0.69871944
-0.014821344 -0.0039523244 0.69936681
-0.014861728 -0.0049539208 0.7000168
-0.014902391 -0.0059609413 0.70067126
-0.014943515 -0.0069735944 0.70133317
-0.014984988 -0.0079919696 0.70200062
-0.015026689 -0.0090160072 0.70267183
-0.015068625 -0.010045677 0.70334673
-0.015110795 -0.011081219 0.70402551
-0.015153141 -0.012122482 0.70470697
-0.015195785 -0.013169676 0.70539337
-0.015238671 -0.014222771 0.70608354
-0.015281799 -0.015281767 0.70677781
-0.015325174 -0.016346842 0.7074759
-0.015368793 -0.017417938 0.70817792
-0.015412661 -0.018495202 0.708884
-0.015456783 -0.019578576 0.70959407
-0.015501093 -0.020668119 0.71030724
-0.01554572 -0.02176398 0.71102554
-0.015590607 -0.022866189 0.71174794
-0.015635755 -0.023974806 0.71247458
-0.015681162 -0.02508983 0.71320546
-0.015726836 -0.026211381 0.7139405
-0.015772777 -0.027339458 0.7146799
-0.015818985 -0.028474122 0.71542358
-0.0158654 -0.029615402 0.71617067
-0.015912153 -0.030763507 0.71692312
-0.015959185 -0.031918377 0.71768016
-0.016006494 -0.033080041 0.71844149
-0.016054085 -0.03424871 0.71920753
-0.01610196 -0.035424292 0.71997809
-0.016150123 -0.036606938 0.72075313
-0.016198501 -0.037796497 0.72153187
-0.016247243 -0.038993329 0.72231627
-0.016296279 -0.040197492 0.72310555
-0.016345611 -0.041408837 0.72389948
-0.016395243 -0.042627603 0.72469831
-0.016445177 -0.04385379 0.72550201
-0.01653124 -0.045185387 0.72688723
-0.016582374 -0.046430647 0.72771013
-0.016633825 -0.047683626 0.72853827
-0.01668567 -0.048944652 0.72937274
-0.016737765 -0.050213277 0.7302112
-0.016790187 -0.05148989 0.73105484
-0.016842937 -0.052774489 0.73190391
-0.016896097 -0.054067492 0.73275948
-0.016949516 -0.055368394 0.73361921
-0.017003275 -0.05667758 0.73448449
-0.017057452 -0.057995349 0.73535645
-0.017111899 -0.059321225 0.73623276
-0.017166693 -0.060655653 0.73711467
-0.017221842 -0.061998606 0.73800218
-0.017277423 -0.063350558 0.73889685
-0.017333604 -0.064712107 0.73980105
-0.017390074 -0.066082239 0.74070996
-0.017446911 -0.067461371 0.74162471
-0.017504202 -0.068849862 0.7425468
-0.01756179 -0.070247144 0.74347359
-0.017619757 -0.071653634 0.74440658
-0.01767819 -0.073069811 0.74534708
-0.01773693 -0.074495077 0.74629247
-0.01779606 -0.075929821 0.74724424
-0.017855672 -0.077374548 0.74820364
-0.017915599 -0.078828603 0.7491681
-0.017976619 -0.080295563 0.75015026
-0.018037967 -0.081772089 0.75113755
-0.018099912 -0.083259583 0.75213462
-0.01325258 0.085195184 0.68935341
-0.01328354 0.084445357 0.6898874
-0.013313633 0.083685726 0.69040632
-0.013343305 0.082919151 0.69091797
-0.013373057 0.08214879 0.69143105
-0.013402995 0.08137536 0.69194722
-0.013432913 0.08059752 0.69246316
-0.013462341 0.079812467 0.69297063
-0.013491848 0.079023719 0.69347954
-0.013521538 0.078231752 0.69399148
-0.011329669 0.064740986 0.65619397
-0.011266981 0.06357798 0.65511304
-0.011291682 0.062910855 0.65553898
-0.011316489 0.06224072 0.65596676
-0.011341408 0.061567664 0.65639651
-0.011366435 0.060891598 0.65682811
-0.011391612 0.060212821 0.65726221
-0.011416861 0.059530824 0.65769762
-0.011442224 0.058845758 0.65813494
-0.011467699 0.058157623 0.65857434
-0.011493325 0.057466656 0.65901619
-0.011519029 0.056772381 0.65945941
-0.011544885 0.056075156 0.65990531
-0.011570973 0.055375397 0.66035521
-0.011597179 0.05467245 0.66080713
-0.011623504 0.053966284 0.66126108
-0.011649949 0.053256899 0.66171706
-0.011676514 0.052544296 0.66217518
-0.0117032 0.051828474 0.66263533
-0.01173001 0.051109374 0.66309768
-0.011756942 0.050386906 0.66356212
-0.011783998 0.04966113 0.66402864
-0.011811179 0.048932046 0.66449738
-0.011838445 0.048199385 0.66496754
-0.011865878 0.047463566 0.66544068
-0.011893438 0.04672423 0.66591591
-0.011921126 0.045981497 0.6663934
-0.011948945 0.045235306 0.6668731
-0.011976892 0.044485629 0.66735506
-0.012004972 0.043732405 0.66783923
-0.012033183 0.042975664 0.66832572
-0.012061527 0.042215377 0.66881448
-0.012090004 0.041451454 0.66930556
-0.012118616 0.040683955 0.66979897
-0.012147366 0.03991279 0.6702947
-0.01217625 0.039137989 0.67079282
-0.012205273 0.038359463 0.67129338
-0.012234434 0.037577182 0.67179614
-0.012263736 0.036791205 0.67230147
-0.012293178 0.036001474 0.67280912
-0.012322761 0.035207897 0.67331928
-0.012352486 0.034410536 0.67383188
-0.012382356 0.033609301 0.67434698
-0.012412372 0.032804161 0.67486465
-0.012442532 0.031995088 0.67538476
-0.01247284 0.03118211 0.67590731
-0.012503295 0.030365169 0.67643249
-0.0125339 0.029544204 0.67696023
-0.012564654 0.028719246 0.67749059
-0.012595561 0.027890205 0.67802358
-0.01262662 0.027057052 0.67855918
-0.012657831 0.026219845 0.67909741
-0.012689198 0.025378436 0.67963827
-0.012720722 0.024532855 0.68018186
-0.012752401 0.023683071 0.68072814
-0.012784239 0.022829056 0.68127716
-0.012816236 0.021970719 0.68182898
-0.012848393 0.021108091 0.68238354
-0.012880714 0.020241141 0.68294084
-0.012913195 0.019369811 0.68350101
-0.012945843 0.01849407 0.68406391
-0.012978654 0.017613918 0.6846298
-0.013011633 0.016729236 0.68519849
-0.013044782 0.015840083 0.68577015
-0.013078097 0.014946401 0.68634462
-0.013111585 0.014048129 0.68692207
-0.013145244 0.013145238 0.6875025
-0.013179027 0.012237668 0.68808508
-0.013213033 0.011325449 0.68867153
-0.013247215 0.010408551 0.68926096
-0.013281575 0.0094868839 0.68985349
-0.013316317 0.0085604787 0.69045258
-0.01335129 0.0076293349 0.69105566
-0.013386449 0.0066932142 0.69166189
-0.013421793 0.0057522357 0.69227147
-0.013457272 0.0048061907 0.69288325
-0.013492992 0.0038551688 0.69349921
-0.013528902 0.0028990805 0.69411844
-0.013565003 0.0019378662 0.69474101
-0.013601245 0.00097152591 0.69536602
-0.013637734 -0 0.69599521
-0.013674418 -0.00097671151 0.6966278
-0.013711302 -0.0019587278 0.69726384
-0.013748331 -0.002946049 0.69790232
-0.013785614 -0.0039387345 0.69854534
-0.0138231 -0.0049368143 0.69919169
-0.01386079 -0.0059403479 0.69984168
-0.013898632 -0.0069493055 0.70049423
-0.013936738 -0.0079638064 0.70115131
-0.013975049 -0.0089839399 0.70181197
-0.014013575 -0.010009676 0.70247632
-0.014052257 -0.011041045 0.70314342
-0.01409121 -0.012078136 0.7038151
-0.014130378 -0.013121039 0.70449054
-0.014169767 -0.014169753 0.7051698
-0.014209315 -0.015224248 0.70585173
-0.014249145 -0.016284734 0.70653856
-0.014289198 -0.017351151 0.70722926
-0.014329477 -0.018423557 0.70792383
-0.014369925 -0.019502044 0.70862138
-0.014410661 -0.02058664 0.70932388
-0.014451629 -0.021677405 0.71003032
-0.014492828 -0.022774428 0.7107408
-0.014534206 -0.023877591 0.71145433
-0.014575879 -0.024987191 0.71217293
-0.014617794 -0.026103169 0.71289575
-0.01465995 -0.027225643 0.71362269
-0.014702287 -0.028354377 0.71435279
-0.014744933 -0.029489845 0.71508819
-0.014787825 -0.0306319 0.71582782
-0.014830968 -0.031780601 0.71657175
-0.014874301 -0.032935977 0.71731913
-0.014917951 -0.034098148 0.71807176
-0.014961922 -0.035267353 0.71882999
-0.015006474 -0.036444277 0.71959829
-0.015051229 -0.037628055 0.72037005
-0.015096315 -0.038819075 0.72114754
-0.015141672 -0.040017247 0.72192967
-0.015187304 -0.041222662 0.72271657
-0.015233211 -0.042435348 0.72350818
-0.015279396 -0.043655396 0.72430468
-0.015325863 -0.044882864 0.725106
-0.015403508 -0.046210498 0.7264449
-0.015450529 -0.047455192 0.72725576
-0.015497906 -0.048707634 0.7280727
-0.015545506 -0.049967676 0.72889352
-0.015593468 -0.051235646 0.72972059
-0.015641728 -0.052511483 0.73055285
-0.015690217 -0.05379501 0.73138905
-0.015739078 -0.055086762 0.73223162
-0.015788171 -0.056386292 0.73307818
-0.015837647 -0.057694227 0.7339313
-0.015887359 -0.059010148 0.73478866
-0.015937459 -0.060334653 0.73565251
-0.015987946 -0.0616678 0.73652321
-0.016038902 -0.063009948 0.73740184
-0.016090259 -0.064361036 0.73828745
-0.016141945 -0.065720767 0.73917878
-0.016193889 -0.067088962 0.74007452
-0.016246244 -0.068466276 0.74097729
-0.016298862 -0.069852233 0.74188471
-0.016351901 -0.071247518 0.74279928
-0.016405206 -0.072651625 0.74371856
-0.01645894 -0.074065208 0.74464518
-0.016513025 -0.075488061 0.74557781
-0.016567389 -0.076919973 0.74651527
-0.016622191 -0.07836175 0.74746031
-0.016677277 -0.079812646 0.74841028
-0.016732968 -0.08127439 0.74937057
-0.016789114 -0.082746327 0.75033879
-0.016845882 -0.08422941 0.75131774
-0.012485341 0.087397397 0.69268459
-0.01227684 0.084993511 0.68881255
-0.012264064 0.083961725 0.68857527
-0.012290805 0.083199352 0.68907189
-0.012317665 0.082433611 0.68957067
-0.012344641 0.081664562 0.6900717
-0.012371737 0.080892146 0.69057488
-0.012398903 0.080116034 0.69107938
-0.012426238 0.079336733 0.69158697
-0.012453835 0.078554988 0.69209957
-0.012481796 0.077771217 0.69261873
-0.010520373 0.064740807 0.65619338
-0.01044191 0.063454688 0.65473628
-0.010464756 0.062788546 0.65516055
-0.010487703 0.062119484 0.65558672
-0.010510751 0.061447471 0.65601474
-0.0105339 0.060772508 0.65644467
-0.010557186 0.060094804 0.65687704
-0.01058054 0.059413821 0.65731078
-0.010603999 0.058729857 0.65774643
-0.01062756 0.058042824 0.65818399
-0.010651262 0.05735299 0.65862411
-0.010675035 0.056659847 0.65906566
-0.010698915 0.055963576 0.65950912
-0.010722902 0.055264205 0.65995455
-0.010746996 0.054561675 0.660402
-0.010771235 0.053856194 0.66085213
-0.010795547 0.053147316 0.66130364
-0.010819969 0.052435249 0.66175723
-0.010844502 0.051719964 0.66221273
-0.010869146 0.05100143 0.66267049
-0.010893939 0.050279766 0.66313088
-0.010918809 0.049554616 0.66359276
-0.010943793 0.048826188 0.66405666
-0.010968892 0.048094392 0.66452277
-0.010994143 0.047359377 0.66499174
-0.011019473 0.046620816 0.66546214
-0.011044919 0.045878947 0.66593474
-0.011070484 0.045133531 0.66640949
-0.011096167 0.044384688 0.66688645
-0.011122009 0.043632507 0.66736639
-0.011147932 0.042876691 0.66784775
-0.011173977 0.042117327 0.66833138
-0.011200144 0.041354388 0.6688174
-0.011226432 0.040587872 0.66930556
-0.011252885 0.039817929 0.66979682
-0.011279423 0.039044172 0.67028964
-0.011306086 0.038266778 0.67078483
-0.011332875 0.037485689 0.67128235
-0.011359792 0.036700875 0.6717822
-0.011386878 0.035912484 0.6722852
-0.011414051 0.035120189 0.67278981
-0.011441356 0.03432411 0.67329687
-0.01146879 0.033524156 0.67380643
-0.011496399 0.032720536 0.67431909
-0.0115241 0.031912893 0.67483348
-0.011551932 0.031101376 0.67535043
-0.011579943 0.030286014 0.67587054
-0.011608213 0.029467016 0.6763956
-0.011636622 0.028644025 0.67692316
-0.011665172 0.027816951 0.67745328
-0.011693859 0.026985854 0.67798609
-0.01172269 0.026150644 0.67852145
-0.01175162 0.025311202 0.67905873
-0.011780736 0.024467707 0.67959946
-0.011809996 0.023620009 0.68014288
-0.011839403 0.02276811 0.68068892
-0.011868956 0.021911919 0.68123782
-0.011898656 0.021051526 0.68178934
-0.011928507 0.020186722 0.68234372
-0.011958507 0.019317597 0.68290085
-0.011988659 0.018444121 0.68346083
-0.012018963 0.017566174 0.68402356
-0.012049421 0.016683817 0.68458915
-0.012080033 0.015796989 0.68515766
-0.0121108 0.014905602 0.68572903
-0.012141726 0.014009744 0.68630338
-0.012172811 0.013109177 0.68688065
-0.012204053 0.012204051 0.68746084
-0.012235457 0.011294276 0.68804407
-0.012267023 0.010379791 0.68863028
-0.012298753 0.0094605684 0.68921947
-0.012330647 0.008536607 0.68981183
-0.012362706 0.0076078475 0.69040716
-0.012394934 0.0066742003 0.69100565
-0.012427329 0.0057356954 0.6916073
-0.012459894 0.0047923028 0.69221205
-0.012492631 0.0038439333 0.69281995
-0.01252554 0.0028905571 0.69343114
-0.012558622 0.0019321144 0.69404548
-0.01259188 0.00096863508 0.69466317
-0.012625314 2.9802322e-08 0.69528401
-0.012658928 -0.00097376108 0.69590831
-0.012692719 -0.0019527078 0.69653583
-0.012726692 -0.0029368997 0.69716668
-0.012760847 -0.0039263964 0.69780099
-0.012795187 -0.0049212277 0.6984387
-0.012829711 -0.0059213936 0.69907987
-0.012864422 -0.0069269538 0.69972444
-0.012899321 -0.0079380274 0.70037258
-0.01293441 -0.0089545846 0.70102417
-0.01296969 -0.009976685 0.70167941
-0.013005164 -0.011004359 0.70233816
-0.013040781 -0.012037635 0.70299959
-0.013076645 -0.013076603 0.70366561
-0.013112707 -0.014121324 0.70433533
-0.013148968 -0.015171885 0.70500875
-0.013185431 -0.016228199 0.70568579
-0.013222096 -0.017290443 0.70636684
-0.013258967 -0.018358529 0.70705146
-0.013296044 -0.019432664 0.70774007
-0.013333381 -0.020512909 0.70843345
-0.013371095 -0.021599442 0.7091338
-0.013409078 -0.022692263 0.70983922
-0.013447278 -0.023791313 0.71054858
-0.013485695 -0.024896652 0.71126205
-0.013524278 -0.026008248 0.71197861
-0.013563138 -0.027126253 0.71270025
-0.01360222 -0.028250754 0.71342599
-0.013641531 -0.029381722 0.71415603
-0.01368101 -0.030519158 0.71488917
-0.013720776 -0.031663328 0.71562767
-0.013760776 -0.032814145 0.71637052
-0.013801008 -0.033971697 0.71711767
-0.013841419 -0.035135895 0.71786809
-0.013882125 -0.036307037 0.718624
-0.01392307 -0.037485152 0.71938449
-0.013964259 -0.038670242 0.7201494
-0.014005632 -0.039862186 0.7209177
-0.014047312 -0.041061342 0.72169173
-0.01408924 -0.04226771 0.7224704
-0.014131418 -0.043481261 0.72325373
-0.01417379 -0.044701964 0.72404063
-0.014243311 -0.046016812 0.72533166
-0.014286294 -0.047254622 0.72612983
-0.014329536 -0.048499972 0.72693294
-0.014372978 -0.049752593 0.72773969
-0.014416748 -0.051013052 0.72855246
-0.014460786 -0.05228129 0.72937036
-0.014505029 -0.053557009 0.73019195
-0.014549607 -0.054840803 0.73101979
-0.014594462 -0.056132525 0.73185283
-0.014639658 -0.057432473 0.73269212
-0.014685337 -0.058741331 0.73354042
-0.014731299 -0.060058355 0.73439401
-0.01477755 -0.061383665 0.73525286
-0.014824093 -0.062717319 0.73611724
-0.01487093 -0.064059377 0.73698705
-0.014917997 -0.06540966 0.73786116
-0.01496543 -0.066768825 0.73874199
-0.015013166 -0.068136662 0.73962849
-0.015061206 -0.069513291 0.74052066
-0.015109558 -0.070898682 0.74141854
-0.015158217 -0.072293043 0.74232227
-0.015207194 -0.073696405 0.74323177
-0.015256487 -0.075108826 0.74414718
-0.015306029 -0.076530129 0.74506724
-0.015355966 -0.077961057 0.74599463
-0.015406376 -0.079402059 0.74693078
-0.015457044 -0.08085224 0.74787176
-0.015508122 -0.082312346 0.7488203
-0.015559612 -0.083782524 0.74977648
-0.015611595 -0.085263312 0.75074184
-0.011524931 0.087397397 0.69268459
-0.011332511 0.084993839 0.68881339
-0.011312995 0.083904713 0.68842077
-0.011336491 0.083134264 0.6888935
-0.011360041 0.082360327 0.68936729
-0.011383733 0.081583411 0.68984389
-0.011407524 0.080803305 0.69032258
-0.011431413 0.080019921 0.69080317
-0.011455404 0.079233199 0.69128585
-0.011479451 0.078442931 0.69176966
-0.011503645 0.077649623 0.69225639
-0.0097111128 0.064740807 0.65619338
-0.0096207391 0.063336551 0.6543752
-0.0096416576 0.062670767 0.65479606
-0.0096626971 0.062002331 0.65521932
-0.0096837981 0.061330736 0.65564388
-0.0097049912 0.06065619 0.65607023
-0.0097262776 0.059978753 0.65649849
-0.0097476887 0.059298456 0.65692925
-0.0097691631 0.058614969 0.65736127
-0.0097907316 0.057928503 0.65779519
-0.0098125245 0.057239741 0.65823364
-0.0098343818 0.056547701 0.65867341
-0.0098563377 0.055852592 0.65911514
-0.0098783914 0.055154324 0.65955883
-0.0099005438 0.054453045 0.66000444
-0.0099228285 0.053748667 0.66045278
-0.0099451812 0.053040981 0.6609025
-0.0099676345 0.052330106 0.66135418
-0.0099901892 0.051615983 0.66180801
-0.01001288 0.05089882 0.66226453
-0.010035641 0.05017823 0.66272235
-0.010058505 0.049454331 0.66318238
-0.010081473 0.048727125 0.66364449
-0.010104547 0.04799664 0.66410869
-0.01012776 0.047262907 0.6645757
-0.010151047 0.046525627 0.66504419
