# .PCD v0.7 - Point Cloud Data file format
VERSION 0.7
FIELDS x y z
SIZE 4 4 4
TYPE F F F
COUNT 1 1 1
WIDTH 667
HEIGHT 1
VIEWPOINT 0 0 0 1 0 0 0
POINTS 667
DATA ascii
0.023859678 -0.073346436 0.67416298
0.023859678 -0.073346436 0.67416298
0.021281293 -0.070937634 0.67489415
0.037243847 -0.069167137 0.67490327
0.028475985 -0.07118994 0.67565566
0.032866322 -0.068397492 0.67527044
0.033839185 -0.065897346 0.67580777
0.019651683 -0.07592693 0.67647254
0.018745642 -0.072304577 0.67632556
0.02684078 -0.06620723 0.67681879
0.02684078 -0.06620723 0.67681879
0.030332018 -0.065570518 0.67619729
0.036601767 -0.064276248 0.6763441
0.018791907 -0.063534528 0.67685747
0.030394332 -0.063470513 0.6766398
0.034468822 -0.061775208 0.67696381
0.016158208 -0.063735127 0.67753965
0.029563237 -0.06181404 0.67709959
0.035598461 -0.060427468 0.67748249
0.045061242 -0.064437136 0.67839587
0.045061242 -0.064437136 0.67839587
0.014448131 -0.063210547 0.67882633
0.022508748 -0.063024461 0.67818463
0.042352416 -0.062176943 0.6783694
0.041537479 -0.060500205 0.67882162
0.018465595 -0.059449196 0.67828017
0.022588579 -0.059633821 0.67895555
0.024358099 -0.058639854 0.67861968
0.032400236 -0.057600409 0.67810178
0.028832262 -0.0567635 0.67834353
0.033412945 -0.055537432 0.67883712
0.046285976 -0.06262219 0.67992723
0.037548311 -0.0565487 0.67925453
0.013583415 -0.054333657 0.67944264
0.029823277 -0.054224133 0.67900199
0.019122196 -0.077399358 0.68065453
0.016352659 -0.053600371 0.68014759
0.037286039 -0.053655535 0.68037331
0.019142052 -0.052868515 0.68088281
0.024614168 -0.047405064 0.68090934
0.024614168 -0.047405064 0.68090934
0.018321579 -0.079698861 0.68198192
0.017389901 -0.07413587 0.68178368
0.010971094 -0.057598203 0.68154228
0.0091588777 -0.052205592 0.68193579
0.016466809 -0.050315261 0.68167865
0.009145787 -0.049387246 0.68161976
0.022805439 -0.047435284 0.6810497
0.030114273 -0.047452807 0.68113089
0.030114273 -0.047452807 0.68113089
0.026463091 -0.046538532 0.68112278
0.027378708 -0.046543777 0.68114775
0.010076758 -0.044887334 0.68197948
0.049525935 -0.062365949 0.68223977
0.014677903 -0.047703177 0.68229336
0.0073534036 -0.04687795 0.68272954
0.033933688 -0.046773463 0.68223488
0.029345151 -0.044017702 0.68221295
0.024744371 -0.043073535 0.68207347
0.024744371 -0.043073535 0.68207347
0.036883801 -0.046565309 0.68343431
0.012895415 -0.044212848 0.68319434
0.016574021 -0.042355806 0.68311661
0.0073624379 -0.041413695 0.68300217
0.02947415 -0.041448057 0.68318617
0.032344643 -0.041585952 0.68392622
0.0064625549 -0.038775295 0.6837064
0.01661996 -0.038779914 0.68373275
0.02770832 -0.038791627 0.68380022
0.023528032 -0.037829265 0.68357205
0.019395465 -0.036943734 0.68379617
0.022163628 -0.036939383 0.68376976
0.015766982 -0.078834891 0.68473184
0.014857028 -0.076142251 0.68499613
0.014822368 -0.074111819 0.68447322
0.052760653 -0.062479377 0.68428671
0.004642304 -0.043637604 0.68497115
0.035223734 -0.042639226 0.68460411
0.03331973 -0.04164961 0.68426794
0.030524114 -0.039773792 0.68412918
0.014828133 -0.036143541 0.68456012
0.013050857 -0.071779698 0.68587488
0.054854717 -0.059503406 0.6852802
0.051264349 -0.056856811 0.68584466
0.046506748 -0.053947777 0.68537533
0.012077161 -0.037160486 0.68510437
0.0037149598 -0.034363329 0.68503857
0.0046577053 -0.031672359 0.68571484
0.024221601 -0.031674385 0.68572909
0.017679861 -0.030707121 0.68546808
0.020478578 -0.03071788 0.6855467
0.052399851 -0.054271251 0.68672162
0.043023746 -0.047700226 0.68662208
0.0037388611 -0.042996883 0.68648112
0.00093436969 -0.032702923 0.68639767
0.006540685 -0.031769007 0.68640107
0.0084246499 -0.031826437 0.68680871
0.013062783 -0.029857755 0.68608057
0.0018696859 -0.028512463 0.68651199
0.021536108 -0.027154207 0.68687642
0.016861917 -0.025292814 0.68697792
0.015026294 -0.082644567 0.68755013
0.012186448 -0.072181255 0.68713391
0.0093778102 -0.060955733 0.68722123
0.051681209 -0.051681191 0.68767446
0.037587747 -0.039467096 0.68768299
0.027196873 -0.030010343 0.68723148
0.0028106563 -0.027169675 0.68700504
0.0047004279 -0.027262479 0.68777764
0.0018750841 -0.026251167 0.68716353
0.010316557 -0.026260316 0.68724251
0.0084617566 -0.025385261 0.6878041
0.014067189 -0.024383128 0.68722892
0.020674115 -0.024433047 0.6876924
0.00047046354 -0.023516715 0.68791842
0.010341175 -0.023502648 0.68778276
0.012209735 -0.023480237 0.68756634
0.010367237 -0.068800688 0.68835473
0.0094219567 -0.065011501 0.68828708
0.04848589 -0.048485875 0.68811381
0.045259994 -0.047145814 0.68846107
0.047197416 -0.046253443 0.68871021
0.027406041 -0.026460975 0.68897271
0.0047157379 -0.025464982 0.68851686
0.022596274 -0.02447927 0.68812186
-0.0028303391 -0.023586124 0.68858904
0.0075489944 -0.021703362 0.68863189
0.0085060941 -0.018902421 0.68899345
0.011344072 -0.073736429 0.68904597
0.0075670332 -0.060536236 0.68917632
0.005679612 -0.053009689 0.68935084
0.043561824 -0.043561786 0.68944597
0.03875877 -0.038758755 0.68904519
0.036055595 -0.034157902 0.68988907
0.025574801 -0.023680359 0.68949884
0.026572924 -0.023725837 0.68993777
0.0028374977 -0.022699952 0.68916506
-0.0037829585 -0.02175197 0.68914264
-0.0037829727 -0.020806313 0.68914354
-0.0028417262 -0.017523721 0.6895054
0.010430223 -0.0151712 0.6897372
0.0018989593 -0.03987813 0.69004554
0.041879565 -0.03949967 0.69060779
0.044743415 -0.039507106 0.69065106
0.026686508 -0.021921068 0.69091707
0.021853209 -0.019002765 0.69020486
0.022817798 -0.01948975 0.69035023
0.0038016988 -0.017107636 0.6902737
0.019970374 -0.017117441 0.69040537
-0.0057061464 -0.01521638 0.69041848
0.0085452199 -0.014241993 0.69004297
0.016176948 -0.014273763 0.6905539
0.011419108 -0.012370676 0.69055563
0.0076208841 -0.011431307 0.69080144
0.012391674 -0.011438429 0.69094515
0.044845268 -0.038166165 0.69117421
0.040121164 -0.036300093 0.69144249
0.036373571 -0.031587571 0.69190925
0.033425625 -0.028650522 0.69138265
0.033425625 -0.028650522 0.69138265
0.022977002 -0.016275376 0.69195175
-0.0057320767 -0.010508776 0.69146186
-0.0047803447 -0.010516763 0.69163638
0.0028765614 -0.051778078 0.69230866
0.0028765614 -0.051778078 0.69230866
0.000958057 -0.043112546 0.69211626
-0.00096145167 -0.037496626 0.69293582
0.042194419 -0.033563733 0.69233531
0.043217327 -0.033613473 0.69267833
0.043217327 -0.033613473 0.69267833
0.0076722712 -0.0057541728 0.69235218
0.0086333239 -0.0057555139 0.69240636
0.038513571 -0.029848009 0.69327092
0.033721957 -0.02601409 0.69342667
-0.010583453 -0.0076970458 0.69310009
-0.010583453 -0.0076970458 0.69310009
-0.00096335093 -0.0048167408 0.69339442
0.0057803062 -0.0019267499 0.69340241
0.027078826 -0.016440719 0.6942997
-0.01256998 -0.0029007196 0.69425642
0.012561872 -0.0028988421 0.69410586
-0.01258735 0.00048430264 0.69457901
-0.011613768 0.00048418343 0.69447184
0.0048336363 0.00096678734 0.69420952
0.0077387267 0.00048406422 0.69435763
0.033056241 -0.021389335 0.69554102
0.026241671 -0.013606787 0.69546163
-0.0048501287 -0.00097000599 0.69500583
-0.0048501287 -0.00097000599 0.69500583
0.010695788 0.0019447207 0.69556558
0.0048526875 0.0038821697 0.69512939
0.0048526875 0.0038821697 0.69512939
0.008760497 0.003893584 0.69581765
-0.0029169538 0.0048615932 0.69555926
0.0029209952 0.0068157017 0.69588441
-0.0029247059 -0.040945858 0.69618303
0.035139743 -0.018545985 0.69647324
0.03125057 -0.017578423 0.69658822
0.017578512 -0.0019531548 0.69658911
-0.016619315 0.0029328167 0.69683605
0.012701443 0.002931118 0.69669783
-0.0068263086 0.0039007664 0.69625187
-0.0068302755 0.0048787892 0.69638866
-0.0058521712 0.0058521926 0.69629413
-0.0039089913 0.0097725093 0.69674939
-0.0029305529 0.0097685158 0.6966536
-0.0039271386 -0.04123494 0.69784474
-0.0088142008 -0.0195871 0.69725829
0.034297321 -0.015678763 0.69739538
-0.010806501 -0.013753712 0.69799548
0.030450977 -0.012769729 0.69796658
0.024549725 -0.0078558922 0.69789398
0.018648347 -0.00098145008 0.69777399
-0.011739631 0.0068481266 0.69700408
-0.017623849 0.0078328252 0.6971972
-0.013698164 0.0088059902 0.69703728
0.0019626759 0.012757391 0.69773686
-0.0078724427 -0.028537601 0.69839287
0.034453321 -0.013781309 0.69847143
0.028511701 -0.011797905 0.69817722
0.031516921 -0.010833919 0.69859767
0.028586518 -0.0098574162 0.69880003
-0.012814142 0.011828482 0.69879073
0.0068926979 0.011816084 0.69854152
-0.019688156 0.013781697 0.69847798
-0.018679785 0.013764113 0.69817346
-0.0049122004 0.014736593 0.69800293
-0.0029503673 0.015735358 0.69824815
-0.018740101 0.016767472 0.69893992
-0.0078914082 0.017755717 0.69896525
-0.0019757189 -0.049392968 0.69931126
0.018799022 0.0019788444 0.69968861
0.015850626 0.0059439838 0.69998837
-0.02176436 0.014839381 0.69965643
-0.015788108 0.014801353 0.69904506
-0.011849495 0.014811903 0.69921428
0.0039586592 0.016824335 0.69974715
-0.021762639 0.017805815 0.69963753
-0.0088823168 0.017764688 0.69908547
-0.003947759 0.01875186 0.69908929
0.00049484218 0.01879558 0.69964468
-0.0019808027 0.020798445 0.69992495
-0.011892867 -0.017839283 0.70008695
-0.013882712 -0.0089246035 0.70021969
0.03273664 -0.0089281797 0.70031559
-0.014914236 -0.006959945 0.70086193
0.027747387 -0.0049548745 0.70006418
0.028756704 -0.0049580336 0.70021689
-0.016908916 2.9802322e-08 0.70094877
-0.014889029 0.01786685 0.7004562
0.0039657657 0.017845988 0.700176
-0.022807492 0.019832581 0.7002216
-0.0029736173 0.021806538 0.70011914
-0.0069399802 0.02280277 0.70017231
-0.0089740064 -0.031907529 0.701545
-0.011943208 -0.020900577 0.70109975
0.027877133 -0.0019912124 0.70118296
0.0049846852 0.019938767 0.7015028
-0.017915169 0.020901024 0.70110452
-0.021914363 0.024902701 0.70130253
-0.017042123 -0.0060148537 0.70284045
0.031040119 -0.0040051639 0.7025547
0.026004819 0.0020003617 0.70228696
0.015018933 0.011013895 0.70254695
-0.016990516 0.024986088 0.70210755
-0.018010536 0.025014669 0.70238358
-0.00099929841 0.025981754 0.70207286
-0.0010029359 0.028082252 0.70295107
-0.027053891 0.02905789 0.70272416
-0.0030065298 0.029063135 0.70276773
-0.0070137749 0.031061023 0.70271736
-0.011037605 -0.028095722 0.7030676
-0.011037605 -0.028095722 0.7030676
0.02207884 0.0060214996 0.70310748
0.020099975 0.0070350468 0.70344907
0.0060209464 0.022076845 0.70308506
0.0010061506 0.028172255 0.70372713
-0.0070244092 0.032111585 0.70308411
-0.015058466 0.033128649 0.70318323
-0.013071809 0.035193324 0.70357585
-0.016176544 -0.015165478 0.70490605
-0.021221336 0.0050527155 0.70478684
0.011083302 0.018136322 0.70407057
0.0050409916 0.025204986 0.70422149
-0.0010088162 0.031273305 0.70437068
-0.023232376 0.033333451 0.7046814
-0.02015974 0.033263594 0.70417047
-0.025213085 0.034289807 0.70429999
-0.02021586 0.037399381 0.70484793
-0.015121086 0.037298709 0.70419109
0.02225768 0.011128843 0.70506996
0.019247839 0.014182657 0.70539141
0.0030459161 0.030459195 0.70593727
0 0.03241244 0.7053538
-0.0020307754 0.035538614 0.70595717
-0.0050709499 0.037525058 0.70566803
-0.022298258 0.03851518 0.70551527
-0.0080981879 0.038466424 0.70520538
-0.012148315 0.040494412 0.70522606
-0.020300506 0.04263106 0.70586967
-0.013191902 0.042620003 0.70580608
-0.015230569 0.043660998 0.70595324
-0.015230569 0.043660998 0.70595324
0.016298529 0.019354552 0.70674676
0.0040624249 0.029452562 0.70600992
-0.0050914036 0.039712965 0.70665562
-0.023450619 0.043842465 0.70697224
-0.012203078 0.043727696 0.70632792
-0.016264357 0.044726998 0.70623112
-0.020388186 0.045873433 0.70692813
-0.012248084 -0.029599518 0.70723331
-0.018364333 -0.012242854 0.70712882
-0.024570648 0.0071664453 0.70798254
0.013257669 0.020396411 0.70702744
0.013257669 0.020396411 0.70702744
0.0071613402 0.028645396 0.70780665
-0.0010198831 0.036715835 0.70704246
-0.023548219 0.049144119 0.70799673
-0.020455033 0.049092084 0.707735
0.011270541 0.024590313 0.70817995
0.0040960298 0.032768279 0.70803821
-0.027727304 0.048266053 0.70874548
-0.026686016 0.049266547 0.7086122
-0.015360614 0.049153984 0.70804626
-0.018484415 0.052372515 0.7087394
-0.023641974 0.053451478 0.7089808
-0.024702771 0.004117161 0.7093116
0.012338795 0.027762294 0.70905828
0.011337169 0.029888928 0.70964223
-0.0041283555 0.045411944 0.70998919
-0.010298244 0.049431592 0.7094425
-0.0092842411 0.049515992 0.70986694
-0.029896166 0.050514221 0.70970273
-0.02674637 0.052464038 0.70917261
-0.025771495 0.055666476 0.70969248
-0.019585852 0.055665046 0.70968634
-0.030036893 0.019679368 0.71087432
-0.030036893 0.019679368 0.71087432
-0.032029241 0.046494097 0.71025777
-0.032029241 0.046494097 0.71025777
-0.032103352 0.0538508 0.71083498
-0.023779441 0.058931708 0.71042371
-0.023779441 0.058931708 0.71042371
-0.023779441 0.058931708 0.71042371
0.0083038816 0.036329538 0.71141267
0.0072753448 0.037416101 0.71173859
-0.033163518 0.050781637 0.71102035
-0.033163518 0.050781637 0.71102035
-0.032195177 0.059197605 0.71155006
-0.017635506 0.059130818 0.71126723
-0.029022528 0.060118109 0.71105868
-0.028200639 0.0083557665 0.71297783
0.0083298711 0.038525671 0.71219707
0.0062671495 0.041781038 0.71299148
-0.035411239 0.044784814 0.71226293
-0.035401218 0.053101838 0.71219176
-0.0073080738 0.053244561 0.71286732
-0.011452286 0.056220293 0.71216875
-0.019805538 0.063586205 0.7124778
-0.0020966919 0.049272299 0.71391398
-0.0020966919 0.049272299 0.71391398
-0.037687548 0.058625132 0.71355915
-0.037687548 0.058625132 0.71355915
-0.012551539 0.059619814 0.71333838
-0.013630153 0.061859965 0.71394473
-0.035534911 0.063753843 0.71314108
-0.034492504 0.065849334 0.71316111
-0.024048569 0.067963392 0.71324867
-0.028225267 0.068995148 0.71319807
-0.025251193 -0.0021042526 0.71482831
-0.034699526 0.026287526 0.71467561
-0.037831448 0.042034954 0.71452427
0.0063046855 0.045183569 0.71450186
-0.038934 0.046299934 0.71486145
0.0010491416 0.046162248 0.71410614
-0.040005453 0.053691536 0.71498328
-0.039994683 0.054729581 0.71491486
-0.022075949 0.070432782 0.71461165
-0.036795877 0.071489155 0.71462977
-0.035773426 0.073651195 0.71483469
-0.033667978 0.074700862 0.71482617
-0.014786264 0.066538215 0.71580094
-0.040064968 0.069586575 0.71536142
-0.040082369 0.070671558 0.71547198
-0.029503524 0.075866252 0.71520597
-0.039096139 0.076079011 0.71591938
-0.028508423 0.077078372 0.71572989
-0.033880994 0.020116866 0.71643323
-0.041371599 0.047736466 0.71692318
-0.043504842 0.061543435 0.7169916
-0.043476261 0.066805005 0.71682328
-0.043488055 0.070005178 0.71689278
-0.023272403 0.075106382 0.71620518
-0.041309591 0.076263845 0.71653932
-0.025463549 0.078512639 0.71696442
-0.031767465 0.080477595 0.71646571
-0.037102714 0.081625968 0.71674627
-0.03496952 0.08159557 0.7166509
-0.042554203 0.050001234 0.71765828
-0.043629564 0.055335075 0.71772599
-0.043629564 0.055335075 0.71772599
-0.0084971469 0.061604321 0.71724498
-0.044700164 0.062793106 0.71776313
-0.014863444 0.069008857 0.71713179
-0.044698264 0.075561404 0.71775222
-0.042533409 0.080813497 0.71753269
-0.040426321 0.084044218 0.71765715
-0.037230656 0.085098684 0.71762872
-0.03840461 0.03200385 0.71836793
-0.047051724 0.07806313 0.71898663
-0.044786666 0.081042558 0.71826035
-0.047060978 0.069521934 0.71903735
-0.01499183 0.072817504 0.71934575
-0.048249155 0.080415279 0.71967369
-0.021433504 0.080375642 0.7195462
-0.0010750092 0.054825515 0.7203511
-0.026865186 0.087043256 0.72025406
0 0.053936571 0.7212497
-0.04993622 0.061877519 0.72290063
-0.052035108 0.073716402 0.72253728
-0.022742203 0.086636961 0.72227108
-0.022742203 0.086636961 0.72227108
-0.025974672 0.089829087 0.72210586
-0.050103843 0.059906781 0.72378039
-0.0065292856 0.066381127 0.72353905
-0.0065292856 0.066381127 0.72353905
-0.053235434 0.077137083 0.72311008
-0.0021830376 0.06003356 0.72433686
-0.011997703 0.075258315 0.72413921
-0.017451128 0.082892895 0.72413808
-0.0098668467 0.073453188 0.7254951
-0.019730061 0.087689221 0.72544634
-0.050617088 0.056118965 0.72647411
-0.016523233 0.084819257 0.72675836
-0.019804858 0.089121848 0.72644955
-0.050813094 0.055231661 0.72750276
-0.053425267 0.060103476 0.72952926
0.023213929 -0.072958082 0.67432034
0.027172398 -0.071272105 0.6759035
0.028945848 -0.069025055 0.67584229
0.030893659 -0.068900242 0.67545366
0.018721459 -0.069091067 0.67604756
0.022951834 -0.066767342 0.67670405
0.024795761 -0.065075696 0.67752045
0.019254858 -0.063137315 0.67703038
0.032698657 -0.061141331 0.67709911
0.027425006 -0.059346184 0.67790341
0.014892953 -0.057089712 0.67873073
0.036554776 -0.054982923 0.67962492
0.031301249 -0.051714957 0.67985773
0.039969247 -0.05632031 0.68012613
0.0091588777 -0.052205592 0.68193579
0.0091588777 -0.052205592 0.68193579
0.016815251 -0.050992586 0.68144619
0.025025079 -0.048912141 0.68051547
0.025025079 -0.048912141 0.68051547
0.029345151 -0.044017702 0.68221295
0.02893354 -0.042825207 0.6825707
0.017044278 -0.040998675 0.6832478
0.0055426974 -0.039260641 0.68384182
0.039771345 -0.048095524 0.68411511
0.010698097 -0.036745548 0.68540883
0.010698097 -0.036745548 0.68540883
0.01435982 -0.07929761 0.68693364
0.0087448331 -0.056846481 0.68704122
0.052864172 -0.0548511 0.68670452
0.052864172 -0.0548511 0.68670452
0.051052406 -0.052925408 0.68696964
0.0065853503 -0.050801277 0.68794149
0.043930396 -0.049070477 0.68647486
0.049357589 -0.049827501 0.68779135
0.033184975 -0.036923096 0.68649554
0.00081689615 -0.031324308 0.68656021
0.015249655 -0.028165188 0.68622571
0.015249655 -0.028165188 0.68622571
0.010812738 -0.023035869 0.68781698
0.019273249 -0.02350378 0.68779349
0.010376804 -0.06933631 0.68856472
0.0056773145 -0.052515343 0.6892584
0.046707299 -0.046707094 0.68862194
0.043090984 -0.043090194 0.68945843
0.0028382381 -0.041627496 0.68922466
0.0051983274 -0.023157068 0.68901074
0.00023698137 -0.019423209 0.68956435
0.010750081 -0.014860302 0.68982029
0.048850905 -0.043130189 0.6909399
0.039962318 -0.038059354 0.69052941
0.036373571 -0.031587571 0.69190925
-0.0038042134 -0.026629478 0.69042552
0.027282787 -0.023158183 0.69058561
0.016647937 -0.014744729 0.69048458
0.0071350122 -0.012842961 0.6904965
0.0033481005 -0.0090879202 0.69177544
0.009074728 -0.0090744123 0.69143414
0.014359857 -0.0095732212 0.69193929
0.04612096 -0.036991909 0.6927914
-0.0038572655 -0.027965158 0.69362748
0.02439807 -0.015087873 0.69332665
0 -0.012449026 0.692011
0.0052691102 -0.0067061782 0.69210923
-0.0091327755 -0.0052871108 0.69290805
0.013031173 -0.0038609803 0.69385302
-0.00097036711 -0.045122489 0.69508821
0.035287768 -0.026103094 0.69422269
0.039176635 -0.026600786 0.69435197
0.029948294 -0.020287544 0.6940518
0.029045926 -0.018395752 0.69456452
0.018782239 -0.005504807 0.69535744
-0.0053256415 -0.0033887699 0.69458985
-0.0090245204 -0.0012889504 0.69425666
0.0053214394 0.0014516264 0.69440055
-0.00535302 0.0034064949 0.69577962
0.003408601 0.0068170279 0.69593108
0.036672227 -0.019068539 0.69690883
-0.0094724363 -0.01730917 0.6973629
-0.0094724363 -0.01730917 0.6973629
0.011263679 0.0053872839 0.6972726
-0.0034249485 0.011253469 0.69706142
-0.0014709429 0.013239071 0.6975705
-0.0092070037 -0.024987102 0.69894624
0.034880698 -0.013491134 0.69914401
-0.011821917 -0.011821896 0.69865948
0.023069283 -0.0036248169 0.69950509
0.023069283 -0.0036248169 0.69950509
-0.013328824 0.013329208 0.69918215
-0.011339097 0.013310924 0.69885814
-0.0013112463 0.015406689 0.6982317
-0.0013112463 0.015406689 0.6982317
-0.017460233 0.017131239 0.69942391
-0.0069675017 -0.037326708 0.70112139
-0.0089614699 -0.031365812 0.70120871
0.026943067 -0 0.70173323
0.0039657657 0.017845988 0.700176
0.005461032 0.017375216 0.70051366
-0.0074403686 0.023313433 0.70032257
-0.024933711 0.025432572 0.7016021
-0.003494293 0.026957661 0.70186353
0.030109925 -0.0020073056 0.70312685
0.019983254 0.0039967 0.70204014
0.016996967 0.0079985857 0.7021991
0.014093534 0.014093548 0.70385516
-0.022391669 0.028742116 0.70287532
-0.0085284123 0.032609433 0.7030524
-0.018119602 0.034225911 0.7038464
-0.012585228 0.03624557 0.70388901
-0.017151307 -0.010593876 0.704391
-0.020720098 0.0025264546 0.70481986
0.018277127 0.016246349 0.7059592
0.0025267932 0.02879931 0.70477265
0.004051799 0.028362632 0.70536864
-0.02921832 0.030225903 0.70405972
-0.0025229692 0.03280434 0.7044993
-0.0010152477 0.034518391 0.70592344
-0.016702339 0.040996879 0.70520222
0.0020460719 0.034783274 0.70780361
-0.010884083 0.045237452 0.70716405
-0.01278514 0.047050282 0.70775425
-0.023681466 0.00051420927 0.70939529
-0.025690585 0.0087344199 0.70891112
-0.025690585 0.0087344199 0.70891112
-0.027237918 0.014902748 0.70895255
-0.027237918 0.014902748 0.70895255
0.0087501593 0.029337928 0.70933551
0.0025729132 0.036533073 0.70926869
-0.027172411 0.046654128 0.70836508
-0.027172411 0.046654128 0.70836508
-0.027284974 0.05302529 0.70939147
-0.021107435 0.055085734 0.7093963
-0.025811272 0.0061947405 0.71007663
-0.031037383 0.025346979 0.71059048
0.0092903702 0.030967921 0.71003133
-0.0020653536 0.043372422 0.71013111
-0.0031137234 0.046705872 0.71139395
-0.032488551 0.055299096 0.71114075
-0.030373514 0.057295263 0.71080184
-0.028159378 0.0088642538 0.71260887
-0.032321051 0.023458436 0.71253031
-0.03455887 0.028798684 0.71364665
0.0046972111 0.041231871 0.71282536
-0.035396356 0.047368646 0.71215725
-0.034980118 0.063172609 0.71290642
-0.032814138 0.063023679 0.71231198
-0.019278206 0.063046388 0.71240151
-0.032966778 0.069072917 0.71348262
-0.0052726842 0.054835916 0.71540862
-0.0052726842 0.054835916 0.71540862
-0.039399948 0.05726023 0.71446931
-0.040767185 0.065015659 0.71535414
-0.038979664 0.071111724 0.71515936
-0.028880063 0.072988383 0.71435845
-0.026805026 0.073057733 0.71459925
-0.044661216 0.070713654 0.71753925
-0.044661216 0.070713654 0.71753925
-0.018409384 0.072930962 0.71723366
-0.035418939 0.079296038 0.71607083
-0.03139114 0.08406499 0.71772051
-0.036248457 0.024521023 0.71820772
-0.024541302 0.081093013 0.71842062
-0.03659261 0.022601336 0.72065139
-0.045308813 0.049084038 0.72126174
-0.046760965 0.049478889 0.72335804
0.001083506 0.053091794 0.72240239
-0.0010888347 0.057708263 0.72368884
-0.017011568 0.080718093 0.722978
-0.025434341 0.089290828 0.72211438
-0.025434341 0.089290828 0.72211438
-0.041575484 0.032822758 0.72495806
-0.050389349 0.057508871 0.72527885
-0.054004192 0.066127598 0.72689772
-0.010990422 0.075833917 0.72615314
-0.014317551 0.081499934 0.72671032
-0.017668737 0.087239414 0.72742158
-0.053310249 0.060528189 0.72895074
-0.012192788 0.079807341 0.72842085
-0.016648114 0.087126672 0.72876823
-0.018820051 0.089672029 0.72808927
0.025640661 -0.062143147 0.67778349
0.041955322 -0.062196933 0.6782515
0.017909687 -0.053931337 0.68050724
0.0094644306 -0.049947262 0.68167055
0.01812247 -0.046026383 0.68217504
0.010844412 -0.065931037 0.68686175
0.049887076 -0.050773542 0.6875869
0.013567015 -0.081701383 0.68990892
0.052694533 -0.049961314 0.6900419
0.0050319051 -0.0471811 0.68863642
0.042200562 -0.037787713 0.69106078
0.045740709 -0.038508892 0.69151688
0.033559371 -0.030193165 0.690539
0.0034565737 -0.024822921 0.68839693
0.029819397 -0.026276624 0.69035858
0.016742449 -0.011480317 0.69178736
0.00015967617 -0.041861616 0.69270337
-0.0064490382 -0.022234797 0.69425237
0.0022872277 -0.0024071019 0.69338614
-0.0103859 0.0021109646 0.69536
0.019489611 -0.0048723817 0.69608128
-0.015166454 -0.002445437 0.69703454
0.0023239811 0.010272592 0.69697392
-0.014512985 0.018358428 0.70038259
-0.0060902829 0.033134859 0.70363325
-0.015149482 -0.017928697 0.70464814
-0.022269657 0.0056361975 0.70578718
0.018316377 0.010251259 0.70423573
0.017713808 0.013666466 0.70518732
0.017713808 0.013666466 0.70518732
0.016618822 0.021733403 0.70772266
0.008834837 0.025141148 0.70687819
-0.021667296 0.031241253 0.70412099
-0.017667694 0.037859201 0.70454687
-0.017838256 0.046125431 0.70690763
-0.0096540516 0.046994213 0.70835704
-0.0054936064 0.046032198 0.70960933
-0.033047181 0.022157308 0.71408242
0.0019322336 0.049516272 0.71516156
-0.010718985 0.061329111 0.71536529
-0.040681086 0.065985113 0.71536505
-0.02975902 0.06625253 0.71253705
-0.022857234 0.07314378 0.71550936
-0.022857234 0.07314378 0.71550936
-0.048281074 0.070543818 0.71984494
-0.03012291 0.0064549446 0.72054642
-0.03673755 0.02214846 0.72168058
-0.0010750092 0.054825515 0.7203511
-0.047286395 0.060719803 0.72027421
-0.050483085 0.074103989 0.72123098
-0.018621957 0.081643216 0.72223002
