# .PCD v0.7 - Point Cloud Data file format
VERSION 0.7
FIELDS x y z
SIZE 4 4 4
TYPE F F F
COUNT 1 1 1
WIDTH 605
HEIGHT 1
VIEWPOINT 0 0 0 1 0 0 0
POINTS 605
DATA ascii
-0.017509075 -0.025369726 0.63335508
-0.015394053 -0.025776595 0.63368261
-0.023602124 -0.022528842 0.63348925
-0.019371718 -0.024394006 0.63403374
-0.028847924 -0.023078322 0.63493353
-0.028847924 -0.023078322 0.63493353
-0.028427359 -0.020150602 0.63456339
-0.02668733 -0.019474536 0.63495314
-0.005422011 -0.035421953 0.63534367
-0.005063904 -0.032553643 0.63546872
-0.021667862 -0.023112327 0.63519037
-0.02062222 -0.023154974 0.63551164
-0.0021858057 -0.036430091 0.63672096
-0.0276656 -0.026209503 0.63658583
-0.00073365931 -0.038883924 0.63794196
-0.001466308 -0.036657691 0.63781995
-0.0029201307 -0.034311503 0.63706636
-0.031455107 -0.025602967 0.63742399
-0.014672413 -0.022742212 0.63793266
-0.019394435 -0.021956071 0.63751006
-0.01831672 -0.021980077 0.63770282
-0.00073619169 -0.042699099 0.63855332
-0.0066234064 -0.03090921 0.63849109
-0.03460101 -0.025766671 0.63855332
-0.0025956556 -0.043750286 0.63984221
0.004438282 -0.043643087 0.63940358
0.0037076783 -0.04152596 0.63984346
-0.0081318496 -0.032527357 0.63929379
-0.036305759 -0.026673585 0.63969815
-0.034139074 -0.023748904 0.63999271
-0.033254568 -0.023647696 0.639229
-0.013310281 -0.022183806 0.63934237
-0.013310281 -0.022183806 0.63934237
0.0026076636 -0.047688469 0.6407119
0.0014895437 -0.039472878 0.64062476
-0.002970977 -0.03045249 0.64013523
-0.02045621 -0.019340903 0.64040995
-0.038841106 -0.027636945 0.64114922
-0.017303294 -0.018807918 0.64244628
-0.042379029 -0.029513955 0.64352095
-0.010617174 -0.019717604 0.64390755
-0.0022807156 -0.026608318 0.64435875
-0.033466563 -0.021296889 0.64444685
-0.013680636 -0.018240839 0.64430964
-0.016732976 -0.017493546 0.64444351
-0.021326924 -0.013710141 0.64470571
-0.021326924 -0.013710141 0.64470571
0.0033138141 -0.036451779 0.6454441
-0.010712645 -0.018364519 0.64555383
-0.013373507 -0.017576903 0.64531863
0.0046152156 -0.036152512 0.64652288
0.0046152156 -0.036152512 0.64652288
-0.042531323 -0.035571665 0.64751124
-0.042531323 -0.035571665 0.64751124
-0.041003235 -0.034040421 0.64759558
-0.041716121 -0.033218354 0.64732391
-0.041716121 -0.033218354 0.64732391
0.0023149531 -0.033180982 0.64711392
0.00038715219 -0.027443886 0.64745176
-0.023553353 -0.011583447 0.64725411
-0.0023260952 -0.053500205 0.64801061
-0.00465756 -0.052785665 0.64822662
-0.0015526791 -0.023290157 0.64824587
-0.0015579875 -0.022590786 0.64888662
-0.018688228 -0.012458831 0.64880997
-0.024833541 -0.011640698 0.64817548
-0.045231353 -0.036653012 0.64909363
-0.03447032 -0.019585371 0.64995432
-0.010532328 -0.015603974 0.64917767
-0.017158486 -0.014038771 0.64911294
0.0062854579 -0.0337843 0.65050137
0.0031447734 -0.029875308 0.65062475
0 -0.02281186 0.6507268
-0.0094328085 -0.014935255 0.65059435
-0.04743395 -0.03952828 0.65168035
0.003159079 -0.028431714 0.65148818
-0.037083939 -0.021303505 0.65130723
-0.0055626305 -0.06198357 0.65266919
-0.0055434904 -0.060978398 0.65200901
-0.031724185 -0.016655177 0.65229332
-0.012682718 -0.012682706 0.65218842
-0.0083922315 -0.058348939 0.65378922
-0.043461092 -0.043461084 0.65334278
-0.014397566 -0.011198074 0.6539253
-0.019550931 -0.0075799227 0.65346718
-0.019550931 -0.0075799227 0.65346718
-0.0056258356 -0.058669388 0.65484899
-0.044010151 -0.044810325 0.65400255
-0.043356001 -0.041348204 0.65465546
0.0032087022 -0.024065197 0.6544832
-0.02967374 -0.014435828 0.65443915
-0.048495483 -0.045262456 0.65595162
0.0056480444 -0.029047042 0.65561497
0.0024205982 -0.020978481 0.65561557
0.0089180693 -0.030401707 0.65654927
0.0016211144 -0.018642813 0.65650678
-0.014622198 -0.0089357793 0.6569382
-0.017015364 -0.0064820349 0.65643388
-0.019584628 -0.062425867 0.65782702
-0.043268647 -0.048983365 0.65791482
-0.043268647 -0.048983365 0.65791482
-0.043090206 -0.039025068 0.65710199
-0.0097611267 -0.0097611248 0.65719962
-0.01793634 -0.0048916936 0.65764886
-0.0065663857 -0.054993451 0.65897918
-0.0065663857 -0.054993451 0.65897918
-0.016491171 -0.067613766 0.65988696
-0.015638573 -0.067492768 0.65953064
-0.041528918 -0.054274917 0.6593532
-0.041088711 -0.039445132 0.65921474
0.0065930136 -0.025547922 0.65978271
-0.011545608 -0.0074221492 0.65991783
-0.014842445 -0.0057720542 0.6598922
-0.021515533 -0.066201642 0.66060203
-0.027357403 -0.063833907 0.66096216
0.0024779635 -0.015693754 0.66023201
-0.021593243 -0.067271233 0.66132361
-0.025792282 -0.065728709 0.66168571
-0.014990073 -0.059960276 0.66187221
-0.039864447 -0.058135629 0.66132355
0.0049893004 -0.018294096 0.66157484
0.001660765 -0.014946878 0.66129303
-0.0066514937 -0.0074829161 0.66154748
-0.013302591 -0.0058198571 0.66154146
-0.028339675 -0.062513977 0.66205043
-0.025500294 -0.062705979 0.66266847
-0.041776486 -0.045954108 0.66253561
-0.039339397 -0.039339393 0.66289264
0.0050199516 -0.01673317 0.66280818
-0.028384499 -0.010018051 0.66236871
-0.025947176 -0.0083700418 0.66289198
-0.0050090961 -0.0075136125 0.66237134
-0.0066847731 -0.0066847503 0.66255176
-0.015075736 -0.058627814 0.66302115
-0.014293174 -0.058854222 0.66380191
-0.036955103 -0.055432618 0.66358799
-0.028657619 -0.060686707 0.66430807
-0.018547101 -0.058170438 0.66435122
-0.039694984 -0.04940702 0.6647191
-0.024486821 -0.0067549348 0.66467059
-0.030521356 -0.058499247 0.66550165
0.0076401257 -0.018675834 0.66576421
-0.027192019 -0.0076477528 0.66596889
-0.02642367 -0.059666306 0.66660285
-0.013615803 -0.057016164 0.66626751
-0.037446771 -0.049361646 0.66628569
-0.038284417 -0.037433654 0.66621369
-0.038333174 -0.035777599 0.66647524
0.0059499922 -0.014449984 0.66602874
0.0059499922 -0.014449984 0.66602874
-0.0055307867 -0.0042547584 0.66625929
-0.010254617 -0.0025636256 0.66712785
-0.02327851 -0.058627367 0.66896647
-0.038724385 -0.046469241 0.66857409
-0.038724385 -0.046469241 0.66857409
-0.011201609 -0.00086164474 0.66884452
-0.014652245 0.0025856793 0.66890121
-0.015549551 -0.054423422 0.66937613
0.0060546789 -0.010379463 0.66963929
-0.025163533 -0.057268709 0.67030418
-0.016531922 -0.053946257 0.67088193
-0.032967761 -0.052921951 0.67027146
0.01213104 -0.020796031 0.67001319
0.01213104 -0.020796031 0.67001319
0.0034674169 -0.010402232 0.67009801
-0.023427062 -0.0034706593 0.6702947
-0.03747613 -0.045319945 0.67122877
-0.038341794 -0.043570191 0.67119658
0.0078473128 -0.011334985 0.67132187
-0.012222736 0.0034922361 0.67159444
-0.027239824 -0.054479629 0.67295879
-0.011372344 -0.054237306 0.67201531
-0.011372344 -0.054237306 0.67201531
-0.017576981 -0.053609788 0.67299384
-0.016624782 -0.05337429 0.6720618
-0.032637339 -0.044104517 0.67377639
0.012309941 -0.018464893 0.67309821
0.012309941 -0.018464893 0.67309821
-0.02037731 -0.054930091 0.67471296
-0.0017721974 0.00088614225 0.67474401
-0.0017721974 0.00088614225 0.67474401
-0.0061862357 0.0017675161 0.67417657
-0.024479225 -0.05340986 0.6757257
-0.0097921379 -0.052521467 0.67573285
-0.013310479 -0.050579816 0.67504978
-0.01157195 -0.049848408 0.67572212
-0.01069329 0.0062377751 0.67595327
0.012528475 -0.015213162 0.67686677
0.00714191 -0.0044636726 0.67634714
-0.0035696558 0.0026772618 0.6762687
-0.027845411 -0.047606617 0.67767501
-0.027845411 -0.047606617 0.67767501
-0.031345744 -0.04209283 0.67703611
0.010749305 -0.009853512 0.67708021
0.010749305 -0.009853512 0.67708021
-0.026086865 -0.0017990768 0.67799079
-0.025200004 -0.051299959 0.67810017
-0.017142368 -0.051427096 0.67863846
-0.01353057 -0.048710018 0.67859215
-0.018116269 -0.051631331 0.67950368
-0.034352504 -0.040680557 0.67906904
0.0099507254 -0.0054276884 0.67921346
-0.022792311 0.0018234253 0.68092293
-0.0072702244 0.0063614547 0.68021935
-0.024712054 -0.048508823 0.68178451
-0.02559978 -0.047542453 0.68154705
-0.035592191 -0.035592198 0.68114698
0.015573 -0.012824804 0.68197703
0.015573 -0.012824804 0.68197703
-0.0073041599 0.0073041916 0.68124342
-0.019296233 -0.04961887 0.68265533
-0.017466579 -0.049641818 0.68275803
-0.0027595642 0.0073588192 0.68289351
-0.020286482 -0.048871964 0.6834386
-0.030450372 -0.03783226 0.6835897
0.00092127069 0.0064488947 0.68323535
-0.0082959263 0.011061281 0.68335581
-0.0092843324 0.012998074 0.68496454
-0.019551225 -0.047481507 0.68558675
-0.028890144 -0.041937321 0.68581116
0.013055771 -0.0027976632 0.68595964
-0.020545313 -0.046693861 0.68627894
-0.014939257 -0.046685159 0.68623692
-0.023325091 -0.04571718 0.68606794
-0.025202284 -0.04200381 0.6861679
-0.0253106 -0.041246891 0.68713641
0.015950048 -0.0084441006 0.68733162
0.016954541 -0.0084772706 0.68822032
-0.01882959 0.0075318515 0.68811417
0.0037736574 0.0094341338 0.68858129
0.013241757 0.00094583631 0.68916684
-0.020514932 -0.042939022 0.69118536
-0.027730875 -0.037293226 0.69167697
0.020980598 -0.0095365942 0.69105566
0.019223714 -0.005767107 0.69287169
-0.017333442 -0.042370617 0.69330215
0.013502407 0.0057867765 0.69366157
0.013502407 0.0057867765 0.69366157
0.00048267355 0.014472112 0.69374561
-0.0048157903 0.017336845 0.69334787
0.019327525 -0.0048318505 0.69412476
0.022334062 -0.0067973137 0.69525218
0.022334062 -0.0067973137 0.69525218
-0.020434957 0.0097309351 0.69574636
0.019532597 -0.0029298365 0.6966002
0.017604351 0.0019560456 0.69693571
0.0058852113 0.015693903 0.69762355
0.0069238464 0.016815066 0.69961584
-0.0019762416 0.019762427 0.69937432
-0.0069369292 0.022792786 0.70006704
-0.0099528711 -0.036825567 0.70110446
-0.00099779584 0.020953774 0.7017101
-0.0049839504 0.02392298 0.70146734
-0.0010051037 0.023117393 0.7034744
-0.011112931 -0.035359323 0.7047208
-0.015123826 0.017140359 0.70423526
-0.018212818 0.015177339 0.70509666
0.0030395386 0.022289962 0.70542407
-0.0010131589 0.025328964 0.70541918
0.0071353996 0.022425562 0.70691204
0.0071353996 0.022425562 0.70691204
0.018402908 0.0143134 0.70764619
-0.012291712 -0.032777905 0.70811105
-0.0030824437 0.028769493 0.70887685
0.025717346 0.0041148067 0.70916957
-0.010333506 0.022733748 0.71029383
-0.010333506 0.022733748 0.71029383
0.0020888229 0.029243559 0.71296412
-0.0094272522 -0.029329211 0.7137031
0.020902453 0.016721964 0.71313584
-0.0031428121 0.031428158 0.71373487
0.018934973 0.019986928 0.71478236
-0.012639524 -0.027385622 0.71510851
0.027414605 0.0084352493 0.71537751
-0.0084511498 0.026409864 0.71585691
0.012777618 0.028749645 0.71788675
-0.0063931355 -0.026638061 0.71806079
-0.0063931355 -0.026638061 0.71806079
0.027722122 0.010662347 0.71823293
0.023440598 0.018113196 0.71805096
-0.0085482094 0.027781695 0.71878594
0.025792906 0.015045881 0.72027755
0.025792906 0.015045881 0.72027755
0.0086195562 0.03232336 0.72093898
0.001077347 0.036629826 0.72091544
-0.0075718835 -0.023797333 0.72196585
-0.008655902 0.029213697 0.72203583
-0.0087734135 0.030706972 0.72558212
0.010957449 0.035063893 0.72535717
-0.0077243447 -0.019862592 0.72722399
0.0077388855 0.037588894 0.72772557
0.033280484 0.014421552 0.72864163
0.027977511 0.025739342 0.73099566
0.032521121 0.019064099 0.7315551
0.026970245 0.029217809 0.73212057
-0.0045236507 -0.015832722 0.73384738
-0.0022668156 -0.01586771 0.73444974
-0.0022668156 -0.01586771 0.73444974
0.033986684 0.02039203 0.73432463
-0.003415185 -0.014799148 0.73565376
-0.0068386476 0.036472768 0.73598689
0.01946957 0.041229725 0.73731327
0.012624136 0.043610692 0.73788786
0.013788356 0.043663114 0.73822123
-0.0034652164 0.040427566 0.73967999
-0.0034869828 -0.010460913 0.74143159
-0.0023284089 -0.010477811 0.74188471
-0.0023284089 -0.010477811 0.74188471
0.014038723 0.046795756 0.74325824
0.030588737 0.037647694 0.74485075
0.023508571 0.04466635 0.74459445
0.024726169 0.042387754 0.74507928
0.011794072 0.048355728 0.74555498
0.028430687 0.04264605 0.74681157
0.0011880096 -0.0071280301 0.74763185
0.029799722 0.042911619 0.7485925
0.034659162 0.034659177 0.74935412
0 0.046628654 0.74946576
0 0.046628654 0.74946576
0.024147775 0.05071032 0.75231034
0.021761669 0.051986217 0.7526949
0.0048461603 -0.0036346316 0.75331253
0.015734706 0.053255975 0.75302815
0.0036538008 -0.002435863 0.75485611
0.024317238 0.052282065 0.75435597
0.0097377338 0.053557545 0.75468302
0.030481583 0.048770577 0.75517708
0.0036751274 -0.0012249947 0.75657231
0.035814013 0.045693785 0.75896806
0.013579129 0.056785464 0.75884748
0.016018659 0.056681454 0.75830138
0.033526126 0.050910085 0.7605958
0.017405255 0.058431953 0.7609638
0.0062470199 0.0024988353 0.76245373
0.0075033568 0.0025011599 0.76273268
0.0087434268 0.0024981201 0.76237094
0.0075490158 0.0037745237 0.76456982
0.021537375 0.062078357 0.76667869
0.035823442 0.057573408 0.76969743
0.028134907 0.062664121 0.76956487
0.0089778071 0.0076952279 0.77045441
0.033531968 0.061905205 0.77217984
0.020842316 0.06773752 0.77530712
0.023441747 0.067720622 0.77522856
0.015761899 0.068301588 0.77792585
0.0078843441 0.064388841 0.77806234
0.010655909 0.01598388 0.78239137
0.010655909 0.01598388 0.78239137
0.019507604 0.025081217 0.79721749
0.019927358 0.029891044 0.80445588
-0.005551347 -0.03162102 0.6356461
-0.029197622 -0.022800203 0.63486606
-0.023256525 -0.021181695 0.63515455
-0.0065568625 -0.031327218 0.63670611
-0.016942317 -0.022954091 0.63675153
-0.02530054 -0.017600402 0.63786745
0.00061270868 -0.043155666 0.63841164
-0.0047997143 -0.029168203 0.63910174
-0.032754801 -0.02339524 0.63919002
0.0049806722 -0.042698026 0.64113986
0.0028057203 -0.039460286 0.6414206
-0.020513225 -0.018772062 0.64091349
-0.020513225 -0.018772062 0.64091349
0.00050156732 -0.046358906 0.64231646
0.00075503963 -0.034919441 0.6431036
-0.039188601 -0.029047102 0.64217985
0.0022943236 -0.035561398 0.64545381
-0.033144988 -0.020953462 0.64477658
-0.033144988 -0.020953462 0.64477658
-0.020762336 -0.014685472 0.64420646
-0.0011570138 -0.025089212 0.64719689
-0.015013566 -0.016168609 0.64669949
-0.015013566 -0.016168609 0.64669949
-0.046918344 -0.039033279 0.65119082
-0.039418302 -0.033111364 0.65114927
-0.030081427 -0.015832275 0.65193403
-0.0052886223 -0.061612882 0.65233886
0.0039609149 -0.030102938 0.65207082
0.0039609149 -0.030102938 0.65207082
0.0039609149 -0.030102938 0.65207082
-0.043629304 -0.039589524 0.65587729
-0.016315704 -0.064447016 0.65776896
-0.0089294016 -0.056822389 0.65679896
-0.045131028 -0.047290377 0.65654713
0.0040771333 -0.021608219 0.65768236
-0.020884395 -0.06296026 0.65854305
-0.020997841 -0.061756209 0.65961111
-0.041990347 -0.037873626 0.65959275
0.010659641 -0.030952729 0.65877974
-0.015390778 -0.059692718 0.66167289
-0.015390778 -0.059692718 0.66167289
-0.021497685 -0.0041341782 0.66043633
-0.033050071 -0.057209183 0.66282326
-0.0058903936 -0.0058903992 0.66397333
-0.023144543 -0.061189901 0.66493791
-0.0075756819 -0.053029746 0.6640355
0.0053520957 -0.014927338 0.66480994
-0.014618001 -0.0011240046 0.66442621
-0.023404634 -0.060426489 0.66628921
-0.014883277 -0.056131765 0.66614532
-0.037737541 -0.036022186 0.66788113
-0.038600862 -0.034761839 0.66676891
-0.0086187292 -0.055589527 0.66889548
0.010771822 -0.021110713 0.66885418
0.0077386526 -0.015046716 0.66840714
-0.022445194 -0.0034530759 0.66923434
-0.01062773 -0.0011481445 0.66885585
-0.035366483 -0.046381824 0.67077917
0.0052004405 -0.0086673796 0.67007047
-0.02083857 -0.056153484 0.6726436
-0.027333617 -0.053785503 0.67368925
-0.015529633 -0.052444767 0.67302656
0.009636906 -0.014017284 0.67232591
0.0043780813 -0.0087561309 0.67221332
-0.0092170509 0.0013179556 0.67275351
-0.031808522 -0.050363481 0.6741336
-0.031808522 -0.050363481 0.6741336
-0.017329847 0.004886955 0.67536515
-0.022914262 -0.052986827 0.67691249
-0.014766278 -0.050113961 0.67686707
0.010766332 -0.0094198138 0.67742276
-0.019166635 -0.052312046 0.67856658
-0.0099683255 -0.047575295 0.67959964
-0.036267336 -0.035360634 0.67971361
-0.021224687 0.0018062592 0.67885476
-0.025623679 -0.047128841 0.68175316
0.013390442 -0.0111075 0.68121469
-0.0081777247 0.0072690845 0.68018508
-0.014669994 -0.047677487 0.68217397
-0.027130019 -0.044143438 0.68284535
-0.030756664 -0.038560048 0.68246907
-0.02306268 0.0027675331 0.68353379
-0.0085799852 0.010725915 0.68276423
-0.015728207 -0.0481098 0.68418121
-0.022748394 -0.046889372 0.6849857
-0.027566133 -0.043051928 0.68514866
-0.0055959146 0.010259181 0.68598312
0.012790293 -0.0012476544 0.68674386
-0.022505395 0.0046886504 0.6872077
0.0094629051 0.0018926263 0.68927562
-0.017019328 0.0089821965 0.68908614
-0.010844845 0.015087306 0.68847084
-0.016633198 -0.044672474 0.69028687
0.021010637 -0.0090720505 0.69138527
0.016219825 -0.0033386946 0.69116271
-0.0096911266 -0.038764477 0.69478542
0.022226743 -0.0091804415 0.69412565
-0.01708686 -0.040032744 0.69654691
0.001231448 0.017722964 0.69852626
0.0052639167 0.017109346 0.69910705
0.0069238464 0.016815066 0.69961584
0.01289252 0.0089255869 0.70024627
-0.019814381 0.011888653 0.7000016
-0.011187678 -0.036570244 0.70271462
0.016409032 0.012390117 0.7033481
0.020429142 0.010214597 0.70742244
-0.0092352321 -0.032836407 0.7085523
0.025017146 0.0044559836 0.70902467
0.025017146 0.0044559836 0.70902467
0.01742503 0.016400069 0.70827818
0.0023982106 0.025013587 0.7089805
-0.01088628 0.022805929 0.71108603
0.010394818 0.024947584 0.71177405
-0.0026155254 0.031375885 0.71331429
-0.0031656653 -0.025325269 0.71557397
0.027274709 0.0073432326 0.71407849
0.028682945 0.0090310276 0.7172904
0.028682945 0.0090310276 0.7172904
0.0021284977 0.034055978 0.71775329
0.0021284977 0.034055978 0.71775329
-0.01076837 -0.023690403 0.72079235
0.027019311 0.014050037 0.72174245
0.009163755 0.032341614 0.72108591
-0.0048874333 -0.023348846 0.72302109
0.011396509 0.033109263 0.72288513
0.024622142 0.024620533 0.72500372
0.019824825 0.024230331 0.72671735
0.00661929 0.038612545 0.72716057
0.02724744 0.025020599 0.72930205
0.030257264 0.020171553 0.73136723
0.030257264 0.020171553 0.73136723
0.0089842714 0.040429264 0.73194528
-0.0050851 -0.015821502 0.7336539
-0.0011338496 -0.015873879 0.73455644
0.026687896 0.032931656 0.73497272
0.010209783 0.041973591 0.73469418
-0.0028622716 -0.013740629 0.73726147
0.029710615 0.02971068 0.73669696
0.016608924 0.042379856 0.73734522
0.0080144238 0.046941668 0.73722845
-0.0011595209 -0.01159519 0.74075401
0.032983594 0.032983631 0.74521172
0.026087651 0.045060515 0.74709892
0.0053819604 -0.0053806901 0.74952471
0.0053819604 -0.0053806901 0.74952471
0.032836765 0.038804263 0.74908209
0.027410127 0.045286328 0.74853349
0.0024182904 0.049574971 0.75273442
0.016953105 0.053281218 0.75316674
0.030481583 0.048770577 0.75517708
0.02129589 0.053542361 0.75459969
0.0049050455 -0.0012262464 0.75686657
0.0098423176 0.055363059 0.75783914
0.0099069187 0.0024766922 0.75978863
0.039908979 0.033673227 0.76191086
0.031044867 0.053397208 0.76061666
0.031044867 0.053397208 0.76061666
0.016787054 0.058444291 0.76102722
0.0068751881 0.0024999976 0.76259321
0.0087463958 0.057476312 0.76247334
0.0063580582 0.0063580573 0.76781511
0.038108446 0.052081555 0.76749408
0.029077988 0.059420288 0.76604033
0.023023941 0.063955426 0.76962483
0.0091041019 0.06372872 0.77481019
0.027447719 0.067965806 0.77636689
0.013272471 0.014599741 0.78124672
0.012682419 0.016019449 0.78310704
0.017714616 0.020439982 0.78979683
0.010912 0.021824032 0.79011971
0.015284923 0.025011718 0.79628515
0.023146933 0.028758243 0.79949331
0.015573039 0.02973038 0.80260861
-0.0018710063 -0.041921645 0.63843
-0.0084654903 -0.033698931 0.63772416
-0.033446938 -0.023572072 0.63959134
-0.02938005 -0.022909723 0.63708806
-0.018280236 -0.018513521 0.64247292
-0.0048282724 -0.053785365 0.64731681
-0.034266442 -0.028174609 0.64465761
-0.00095035939 -0.028709091 0.64442837
-0.00095035939 -0.028709091 0.64442837
-0.0078754732 -0.015356258 0.65095162
-0.049021423 -0.042262197 0.6542381
-0.023345632 -0.0083792433 0.65350771
-0.016927037 -0.065357082 0.65856004
-0.033738308 -0.061937816 0.66182965
-0.010919726 -0.059357673 0.66360766
-0.041398462 -0.049909852 0.66151166
-0.041398462 -0.049909852 0.66151166
-0.041021518 -0.037547667 0.66107732
-0.033397552 -0.014273122 0.66156173
-0.033397552 -0.014273122 0.66156173
-0.013621099 -0.0054490697 0.66141856
-0.020640191 -0.0025062463 0.66284919
-0.033932991 -0.056484103 0.66435039
-0.013818436 -0.057657436 0.6656968
0.0085533792 -0.019029796 0.66731775
0.0058668191 -0.014064847 0.66628486
-0.025827479 -0.0068003982 0.66609514
-0.019269828 -0.056655787 0.66911662
-0.0058088526 -0.0017739641 0.66947174
-0.01753857 0.0026009381 0.66991746
-0.036586657 -0.04060182 0.67625505
-0.036586657 -0.04060182 0.67625505
0.010986587 -0.0097873053 0.67759693
-0.016275942 0.0072337687 0.67911869
-0.015304891 -0.048652001 0.68140137
-0.021736445 -0.046302121 0.68617916
0.018842615 -0.013084594 0.68542939
0.012910854 -0.0023715745 0.68609464
0.0020882781 0.007191509 0.68482757
0.0047686184 0.010969177 0.6910702
-0.014243808 0.014738478 0.69799387
-0.014243808 0.014738478 0.69799387
-0.014062771 -0.036824167 0.70193231
-0.014062771 -0.036824167 0.70193231
-0.00099311816 0.019862384 0.70058084
-0.01754366 0.017545801 0.70997798
0.025194636 0.0094212769 0.71468592
0.005701785 0.028596211 0.71494067
0.016930107 0.017988265 0.71627653
0.02285102 0.018422347 0.71739715
-0.0064070793 0.028831899 0.71862191
-0.005920046 -0.02475404 0.72065389
-0.0067624343 0.030306496 0.722103
0.013584799 0.032601729 0.72317898
0.00055083021 -0.018148988 0.7263819
-0.0063896226 -0.0182009 0.7298907
0.02687083 0.026645785 0.72998184
-0.0033363479 0.035587728 0.72930944
0.010079003 0.041897029 0.73418814
0.0067997379 0.044954553 0.73442113
0.0011463121 -0.013011321 0.73800445
-0.0051884521 -0.0115311 0.73920727
0.036695763 0.025045633 0.74206018
0.027383288 0.03729184 0.74216592
0.013985366 0.046038926 0.742194
0.0320241 0.037954539 0.74716544
-0.0020971349 0.045145079 0.74954271
0.0011936268 0.047186866 0.74922681
0.0084717143 -0.0012102127 0.7529999
0.0084717143 -0.0012102127 0.7529999
0.024968937 0.052371681 0.75485909
0.024968937 0.052371681 0.75485909
0.038001847 0.034937799 0.75677115
0.040146537 0.040146559 0.76370311
0.014526634 0.061054528 0.76577157
0.040998481 0.049327597 0.77013057
0.03854882 0.053898439 0.7697255
0.0064829662 0.061630681 0.7740742
0.044695888 0.050285287 0.77818978
0.01839108 0.068952829 0.7778908
0.0093599996 0.01738289 0.78363574
0.01799079 0.017990798 0.78254068
