# .PCD v0.7 - Point Cloud Data file format
VERSION 0.7
FIELDS x y z
SIZE 4 4 4
TYPE F F F
COUNT 1 1 1
WIDTH 1352
HEIGHT 1
VIEWPOINT 0 0 0 1 0 0 0
POINTS 1352
DATA ascii
0.016171413 -0.016171396 0.69047523
0.01639439 -0.01735875 0.69364178
0.01653686 -0.018482357 0.69566512
0.016596681 -0.019525498 0.69651467
0.016648199 -0.02056542 0.69724625
0.016731178 -0.021652102 0.69842464
0.016918266 -0.022889376 0.70108157
0.017549057 0.035098135 0.69619405
0.017476592 0.033982277 0.69522214
0.016611807 0.031377882 0.68362343
0.016333206 0.029944241 0.6798867
0.016158672 0.028726548 0.67754585
0.016026864 0.027601838 0.67577797
0.015921693 0.026536167 0.67436737
0.015834358 0.025510937 0.67319602
0.015759824 0.024515271 0.67219633
0.015694682 0.023542047 0.67132264
0.015640335 0.022591621 0.67059374
0.015592786 0.021656632 0.66995597
0.015549605 0.02073282 0.66937685
0.015514837 0.019824564 0.6689105
0.015483096 0.018923789 0.66848481
0.015456419 0.018032521 0.668127
0.015422488 0.017136127 0.66767192
0.01533186 0.016183645 0.66645634
0.015124545 0.015124559 0.66367579
0.015049889 0.0142138 0.66267449
0.015014462 0.013346225 0.66219938
0.01499936 0.012499481 0.66199672
0.01499936 0.011666179 0.66199672
0.015018369 0.010846615 0.66225171
0.015048329 0.010032237 0.66265357
0.015090892 0.0092222393 0.6632244
0.015156922 0.008420527 0.66411006
0.015251116 0.0076255798 0.66537344
0.015349576 0.0068220198 0.66669399
0.015410033 0.0059928298 0.66750485
0.015443433 0.0051478148 0.66795278
0.01546693 0.0042963922 0.66826797
0.015490393 0.0034423172 0.66858268
0.015517296 0.0025862455 0.66894352
0.015547457 0.0017275214 0.669348
0.015578815 0.00086551905 0.66976857
0.015615982 5.9604645e-08 0.67026711
0.015653329 -0.00086960196 0.67076802
0.015697144 -0.0017440915 0.67135566
0.015742138 -0.0026236773 0.67195916
0.015792597 -0.0035094619 0.67263597
0.015845891 -0.0044016242 0.67335069
0.015904374 -0.0053014159 0.67413509
0.015967138 -0.0062094629 0.67497694
0.016035652 -0.0071268976 0.67589581
0.016108962 -0.0080544651 0.67687911
0.016190974 -0.0089949667 0.67797905
0.016277296 -0.0099472106 0.67913681
0.016376328 -0.010917544 0.6804651
0.016484411 -0.011905372 0.68191475
0.016603721 -0.012913972 0.68351495
0.016740812 -0.013950646 0.6853537
0.016901853 -0.015023828 0.68751359
0.017094851 -0.01614514 0.69010216
0.01733491 -0.017334878 0.69332182
0.017455185 -0.018424898 0.69493502
0.017511524 -0.019457191 0.69569063
0.01756857 -0.020496637 0.69645578
0.017670043 -0.0215967 0.69781679
0.018528048 0.036080986 0.69624543
0.018416066 0.034893632 0.69482255
0.018319258 0.033746004 0.69359255
0.017317487 0.0309892 0.68086356
0.017084574 0.029673219 0.67790413
0.016924955 0.028505176 0.6758759
0.016800232 0.027410895 0.67429113
0.016697427 0.026364386 0.67298496
0.016612114 0.025355369 0.67190087
0.016540149 0.024374962 0.67098647
0.016476853 0.023414493 0.67018217
0.016420389 0.022470027 0.66946471
0.016374515 0.02154547 0.66888183
0.016332824 0.020630985 0.66835207
0.016296484 0.019727349 0.66789037
0.016266368 0.01883477 0.66750771
0.016238473 0.017947793 0.66715324
0.016193276 0.017045617 0.66657895
0.016017573 0.016017616 0.6643464
0.01585944 0.015024751 0.66233712
0.015800869 0.014137655 0.6615929
0.015775541 0.013284713 0.66127098
0.015768161 0.012448579 0.66117728
0.015773864 0.011622876 0.66124976
0.015795251 0.010807276 0.66152149
0.015833817 0.010000348 0.6620115
0.015886737 0.0091975927 0.66268396
0.015960403 0.0084002614 0.66361994
0.016067276 0.0076108277 0.66497797
0.016157281 0.0068030655 0.6661216
0.016211392 0.0059726238 0.66680914
0.016242525 0.0051292479 0.66720474
0.016267093 0.0042808652 0.66751689
0.01629168 0.0034298599 0.66782928
0.016321832 0.0025771558 0.66821241
0.016353447 0.0017214119 0.66861415
0.01638829 0.00086256862 0.66905689
0.016427314 2.9802322e-08 0.66955268
0.016467547 -0.00086668134 0.67006397
0.016514461 -0.0017383397 0.67066008
0.016561644 -0.002614975 0.67125958
0.016616702 -0.0034982562 0.67195916
0.016672596 -0.0043874979 0.67266935
0.016736289 -0.005285114 0.6734786
0.016802073 -0.0061902106 0.6743145
0.016876461 -0.0071058571 0.67525977
0.016953386 -0.0080305338 0.67623717
0.017042128 -0.0089695454 0.67736477
0.017135818 -0.0099207163 0.67855525
0.017239792 -0.010888249 0.67987639
0.017356882 -0.011875749 0.68136418
0.0174865 -0.012884766 0.68301117
0.017633557 -0.013921231 0.68487972
0.017806625 -0.014995039 0.68707883
0.018021168 -0.016124189 0.68980485
0.018260494 -0.017299414 0.69284576
0.018364696 -0.018364668 0.69416982
0.018420348 -0.019389808 0.69487691
0.018487621 -0.020433694 0.69573176
0.018606082 -0.02154386 0.69723701
0.019352343 0.035801858 0.69442433
0.01927392 0.034693062 0.69347775
0.018382091 0.032168657 0.68271238
0.018037898 0.030664474 0.67855757
0.017838543 0.029433578 0.67615122
0.017688269 0.028301269 0.67433715
0.017568527 0.027231276 0.67289174
0.017469099 0.026203692 0.67169154
0.01738425 0.025207192 0.67066729
0.01731159 0.024236262 0.66979027
0.017250653 0.023288399 0.66905475
0.01719605 0.022354871 0.66839558
0.017148195 0.021435261 0.66781795
0.017108385 0.020530075 0.66733742
0.017071495 0.01963225 0.66689205
0.017042246 0.018746495 0.66653901
0.017009338 0.017859846 0.66614181
0.016938915 0.016938955 0.66529173
0.016705072 0.015869796 0.66246897
0.016604841 0.014944345 0.66125906
0.016555393 0.01407209 0.66066217
0.016530672 0.013224542 0.66036379
0.016530726 0.012398034 0.66036439
0.016544173 0.011580974 0.66052675
0.016569264 0.010770023 0.66082966
0.016614379 0.0099686384 0.66137421
0.016678344 0.009173125 0.66214633
0.016767489 0.0083837807 0.66322243
0.016878234 0.0075952113 0.66455925
0.016959183 0.0067836642 0.66553634
0.017006334 0.005952239 0.66610551
0.017035807 0.0051107705 0.66646123
0.017061422 0.0042653978 0.66677046
0.017087875 0.0034175813 0.66708982
0.017120736 0.0025681555 0.66748643
0.017153781 0.0017153621 0.66788536
0.017192328 0.00085961819 0.66835064
0.017233066 -0 0.66884243
0.017277339 -0.00086385012 0.66937685
0.017326398 -0.0017326176 0.66996902
0.017377425 -0.0026066005 0.67058504
0.017435556 -0.0034870505 0.6712867
0.017494751 -0.0043736696 0.67200124
0.017563038 -0.0052689016 0.67282552
0.017632542 -0.0061713755 0.67366451
0.017712312 -0.0070849359 0.67462742
0.017795527 -0.0080079436 0.67563194
0.017888481 -0.0089442134 0.67675394
0.017989777 -0.009894371 0.67797673
0.018098576 -0.010859102 0.67929006
0.018224949 -0.011846185 0.68081546
0.018365223 -0.012855649 0.68250877
0.018524941 -0.013893694 0.68443674
0.018713811 -0.014971018 0.68671656
0.018949248 -0.016106844 0.68955857
0.019174283 -0.017256826 0.69227499
0.01926598 -0.018302649 0.69338179
0.019322822 -0.019322813 0.69406801
0.019401042 -0.02037105 0.69501221
0.019537553 -0.021491289 0.69666004
0.020350263 0.036824286 0.69477272
0.020202519 0.03559494 0.69307423
0.020115191 0.034483224 0.69207025
0.019036625 0.031727731 0.67967081
0.018769415 0.030388594 0.67659891
0.018582731 0.029201448 0.67445278
0.018440802 0.028100312 0.67282104
0.018326748 0.027053803 0.67150986
0.018231481 0.026044995 0.67041463
0.018149728 0.025063872 0.66947484
0.018077971 0.024103969 0.66864985
0.018016102 0.023163617 0.66793859
0.017963802 0.022240967 0.6673373
0.01791596 0.021328539 0.66678733
0.017876396 0.020430177 0.66633248
0.017841307 0.019540489 0.6659292
0.017810946 0.018659115 0.66558009
0.017770762 0.017770797 0.6651181
0.017649394 0.016808987 0.66372287
0.017423691 0.015764326 0.6611281
0.017342309 0.014864862 0.66019249
0.017303582 0.014007688 0.6597473
0.017287072 0.013171107 0.65955746
0.017287128 0.012347996 0.65955818
0.017308941 0.01153931 0.65980887
0.01734288 0.010736078 0.66019905
0.017390586 0.009937495 0.66074753
0.017465802 0.0091488063 0.66161215
0.017571358 0.0083673298 0.6628257
0.017685039 0.0075792968 0.66413265
0.017756227 0.0067642927 0.66495103
0.017795863 0.0059320033 0.66540664
0.017823331 0.0050924122 0.66572249
0.017850038 0.0042500496 0.66602945
0.017879803 0.0034056902 0.6663717
0.017914068 0.002559185 0.66676557
0.017948644 0.0017094016 0.66716313
0.017990932 0.00085675716 0.66764921
0.018033417 2.9802322e-08 0.66813767
0.018081829 -0.0008610189 0.66869426
0.018133003 -0.0017269552 0.66928256
0.01818856 -0.0025983453 0.66992122
0.018249214 -0.0034759939 0.67061853
0.018313462 -0.0043603182 0.67135715
0.018384788 -0.0052527487 0.67217714
0.018459981 -0.0061533153 0.67304158
0.018543184 -0.0070640743 0.67399806
0.018633019 -0.0079855621 0.67503083
0.01873007 -0.0089190602 0.67614657
0.01883921 -0.009868145 0.6774013
0.018956468 -0.01083225 0.67874932
0.019088777 -0.011816829 0.68027037
0.019239984 -0.012826622 0.68200862
0.019412881 -0.013866335 0.68399638
0.019618098 -0.014947116 0.68635559
0.019875258 -0.016089469 0.68931198
0.020077372 -0.017209172 0.69163549
0.020159727 -0.018239707 0.69258225
0.020219158 -0.019256324 0.69326556
0.020308806 -0.020308793 0.69429612
0.020473819 -0.021448791 0.69619316
0.021141618 0.036517352 0.69282258
0.021043329 0.035391062 0.69174403
0.020172721 0.033009917 0.68219024
0.019731503 0.031391025 0.67734849
0.019496933 0.030131608 0.67477441
0.019327551 0.028991342 0.67291564
0.01919269 0.02791664 0.67143565
0.019080842 0.026886672 0.67020828
0.01898534 0.025889128 0.66916025
0.01890656 0.024922311 0.6682958
0.018837515 0.023975044 0.66753811
0.018775569 0.023042798 0.66685832
0.018723704 0.022128016 0.66628915
0.018678082 0.021225095 0.66578853
0.018636972 0.020331264 0.66533744
0.018604025 0.019449651 0.66497588
0.018572323 0.01857236 0.66462797
0.018514844 0.017673284 0.66399729
0.018300854 0.016637146 0.66164899
0.018138196 0.015664846 0.65986395
0.01807292 0.014786959 0.65914768
0.018045012 0.013943881 0.65884137
0.018037383 0.013118118 0.65875769
0.018044064 0.012302786 0.658831
0.018068232 0.011497974 0.65909624
0.018111635 0.010702342 0.65957248
0.018170711 0.0099113286 0.6602208
0.018252302 0.0091261864 0.66111612
0.018372571 0.008351177 0.66243601
0.018477675 0.0075590909 0.6635893
0.018541291 0.0067422986 0.66428745
0.018577525 0.0059110522 0.66468501
0.018605283 0.0050741732 0.66498965
0.01863306 0.0042347908 0.66529453
0.018666236 0.0033938885 0.66565853
0.018701881 0.0025502741 0.66604972
0.018740151 0.0017036796 0.66646969
0.018784154 0.00085386634 0.66695255
0.018828364 2.9802322e-08 0.66743773
0.018881069 -0.00085821748 0.66801608
0.018934332 -0.0017212927 0.66860056
0.018994644 -0.0025901794 0.66926241
0.019057717 -0.0034650266 0.66995454
0.019127259 -0.004347086 0.67071766
0.019201461 -0.0052367449 0.67153192
0.019282522 -0.0061353445 0.67242146
0.019369245 -0.0070433319 0.6733731
0.019465836 -0.0079632699 0.67443311
0.019567009 -0.0088941157 0.67554337
0.019684084 -0.0098420084 0.67682803
0.019810336 -0.010805607 0.67821354
0.019948987 -0.011788011 0.67973506
0.020110806 -0.012797773 0.68151081
0.020297254 -0.013839036 0.6835568
0.020519499 -0.014923245 0.6859957
0.020799354 -0.016072214 0.68906677
0.020971406 -0.017158419 0.6909548
0.02104542 -0.018175572 0.69176698
0.021109346 -0.019190311 0.69246846
0.021211118 -0.020246983 0.69358534
0.021429054 -0.021429032 0.69597691
0.02219031 0.037627041 0.69374329
0.021962393 0.036285698 0.69135094
0.021872481 0.035186201 0.69040716
0.020757874 0.032490611 0.6787076
0.020434117 0.031095415 0.67530924
0.020223403 0.029895484 0.67309749
0.020063546 0.028786838 0.6714195
0.01993523 0.027736008 0.67007267
0.019828202 0.026724964 0.66894925
0.019736322 0.025743067 0.66798472
0.01965569 0.024783254 0.66713846
0.019588975 0.023847461 0.6664381
0.019529605 0.022926092 0.66581494
0.019475995 0.022016346 0.66525227
0.019432781 0.021122634 0.66479862
0.019392438 0.020235598 0.66437519
0.019359685 0.019359708 0.66403139
0.019321006 0.018480986 0.66362542
0.01923652 0.01756382 0.66273856
0.018971037 0.016496569 0.65995193
0.018862456 0.015582055 0.65881217
0.018808631 0.014719844 0.65824723
0.018781679 0.01388213 0.65796435
0.018781679 0.013065547 0.65796429
0.018797018 0.012258947 0.65812528
0.018824998 0.011458725 0.65841901
0.018875634 0.010668874 0.65895051
0.018946674 0.0098852217 0.65969616
0.019044941 0.009108454 0.66072768
0.019169297 0.0083344579 0.66203296
0.019263119 0.0075377226 0.66301781
0.019318672 0.0067195892 0.66360086
0.019352848 0.0058900118 0.66395962
0.019381594 0.0050560534 0.6642614
0.019410428 0.004219681 0.66456407
0.01944723 0.0033821762 0.66495031
0.019484239 0.0025414526 0.66533881
0.01952629 0.0016979873 0.66578019
0.019571984 0.00085100532 0.66625983
0.019620167 -0 0.66676557
0.019675113 -0.00085541606 0.66734231
0.019730434 -0.0017156899 0.66792303
0.019795597 -0.0025820434 0.668607
0.019861121 -0.0034540892 0.66929483
0.019936059 -0.0043339133 0.67008132
0.020013163 -0.0052208006 0.67089069
0.02010034 -0.0061174631 0.67180574
0.020190477 -0.0070227385 0.67275184
0.020293944 -0.007941097 0.6738379
0.020402817 -0.0088708103 0.6749807
0.020524571 -0.0098160803 0.67625868
0.020660091 -0.010779113 0.67768121
0.020809298 -0.011761785 0.67924738
0.020977715 -0.012769014 0.68101525
0.021178229 -0.013811857 0.68311989
0.021418029 -0.014899492 0.685637
0.021713762 -0.016049296 0.68874115
0.02185761 -0.017105937 0.69025111
0.021926574 -0.018113256 0.69097501
0.021995217 -0.019126266 0.69169545
0.022116024 -0.020192862 0.6929636
0.022462223 -0.021485567 0.6965974
0.022907836 0.037225246 0.69125593
0.02278656 0.036078751 0.69003606
0.022045551 0.033986926 0.68258202
0.02140961 0.032114416 0.67618495
0.02113425 0.030820817 0.67341506
0.020945149 0.029672295 0.67151284
0.020794703 0.028592706 0.66999948
0.020670069 0.027560085 0.66874576
0.020566557 0.026565164 0.66770446
0.020478874 0.025598645 0.66682249
0.020401428 0.024651736 0.66604346
0.020332551 0.023721337 0.66535056
0.020276111 0.022810668 0.66478282
0.02022434 0.021909744 0.66426206
0.020180227 0.021021068 0.66381836
0.020142181 0.020142198 0.66343564
0.020108318 0.019270509 0.663095
0.020061757 0.01838997 0.66262656
0.019906187 0.017417967 0.6610617
0.019665802 0.016388148 0.6586436
0.019579101 0.015500158 0.65777147
0.019537628 0.014653236 0.6573543
0.019520033 0.013826728 0.65717727
0.019520033 0.013013363 0.65717727
0.019544687 0.012215465 0.65742528
0.019582294 0.011422992 0.6578036
0.019634806 0.010635555 0.65833175
0.019718567 0.0098592937 0.65917438
0.019834578 0.0090908706 0.66034132
0.019962179 0.0083175898 0.66162491
0.020044077 0.0075165629 0.66244876
0.020090824 0.0066969693 0.66291898
0.020122604 0.0058691204 0.66323864
0.02015239 0.0050381124 0.66353834
0.020184569 0.0042051673 0.66386193
0.020222843 0.0033704638 0.66424698
0.020261195 0.002532661 0.6646328
0.020307245 0.0016922951 0.66509598
0.020354606 0.00084814429 0.6655724
0.020406974 2.9802322e-08 0.66609925
0.020464009 -0.00085264444 0.66667289
0.020523956 -0.0017102957 0.66727597
0.020591525 -0.0025739074 0.66795564
0.020660611 -0.0034434199 0.66865063
0.02074004 -0.0043208003 0.66944957
0.020820733 -0.0052051544 0.67026126
0.020913415 -0.0060997307 0.6711936
0.02100957 -0.0070031881 0.67216086
0.021117525 -0.0079190731 0.6732468
0.021234253 -0.0088475645 0.67442101
0.021360559 -0.0097902119 0.67569155
0.021505617 -0.010752797 0.67715073
0.021665784 -0.011735588 0.67876184
0.021847179 -0.012744159 0.68058658
0.02206013 -0.013787568 0.68272865
0.022323571 -0.014882356 0.68537873
0.022609886 -0.016015351 0.68825883
0.022734879 -0.017051131 0.68951613
0.022802224 -0.018051714 0.69019353
0.02288243 -0.019068688 0.6910004
0.023022374 -0.020144552 0.69240814
0.023696341 0.036966324 0.68965304
0.023601023 0.035873562 0.68873256
0.022463961 0.033246666 0.67775208
0.022079036 0.031793803 0.67403495
0.021843465 0.030580878 0.67176008
0.021664973 0.029464364 0.67003644
0.021521913 0.028408945 0.66865492
0.02140275 0.027395517 0.66750419
0.021300415 0.026412547 0.66651589
0.021213142 0.025455803 0.66567314
0.021139223 0.02452153 0.66495925
0.021072559 0.023601294 0.66431558
0.021015137 0.022696376 0.66376102
0.020966036 0.02180472 0.66328686
0.020920523 0.020920545 0.66284734
0.020885102 0.020049721 0.66250527
0.020848764 0.019180864 0.66215438
0.02077846 0.018285066 0.66147548
0.020524401 0.017240524 0.65902203
0.020361632 0.016289324 0.65745026
0.020291083 0.015421242 0.65676892
0.020260124 0.014587313 0.65646994
0.020252515 0.013771743 0.65639651
0.020260191 0.012966543 0.65647066
0.020287003 0.012172222 0.65672952
0.020334888 0.011387557 0.65719199
0.020399621 0.010607868 0.65781707
0.020488231 0.009834379 0.65867269
0.020621167 0.0090733171 0.65995651
0.020741457 0.0082965791 0.66111815
0.020814765 0.0074932873 0.66182601
0.020856202 0.0066740215 0.6622262
0.020886919 0.0058483481 0.66252279
0.020917723 0.0050202906 0.66282028
0.020953532 0.004190743 0.66316611
0.020993128 0.0033589303 0.66354847
0.021034218 0.0025241077 0.66394526
0.021083001 0.0016866624 0.66441637
0.021132009 0.00084528327 0.66488963
0.021188781 -0 0.66543782
0.021247806 -0.00084987283 0.66600788
0.021312535 -0.0017049909 0.66663295
0.021382483 -0.0025658607 0.66730845
0.021456938 -0.0034331083 0.66802746
0.021539107 -0.0043078065 0.66882098
0.021625796 -0.0051901639 0.66965806
0.021721708 -0.006082058 0.67058426
0.021824714 -0.0069838762 0.671579
0.021936549 -0.0078971386 0.67265898
0.022061357 -0.0088245273 0.67386425
0.022194758 -0.0097656548 0.67515248
0.022347016 -0.010726541 0.67662275
0.022518473 -0.011709601 0.67827857
0.022713346 -0.012719452 0.6801604
0.022943223 -0.013765901 0.68238026
0.023229105 -0.01486662 0.68514097
0.023494989 -0.015976578 0.68770862
0.023603695 -0.016994625 0.68875837
0.023671947 -0.017990649 0.68941742
0.02376432 -0.019011408 0.69030946
0.023924308 -0.020096391 0.69185448
0.024650266 0.037923485 0.68970937
0.024504654 0.036756992 0.68835735
0.024386967 0.035642505 0.68726456
0.023069697 0.03283 0.67503309
0.022759968 0.03151384 0.67215717
0.022541644 0.030344546 0.6701299
0.022375012 0.029259652 0.66858268
0.02223991 0.028227627 0.66732818
0.02212666 0.027232856 0.66627663
0.022029018 0.026265353 0.66536999
0.021942889 0.025318742 0.66457021
0.021869263 0.024392664 0.66388655
0.02180592 0.023483336 0.66329843
0.02174774 0.02258423 0.66275811
0.021700652 0.02170065 0.66232097
0.021657374 0.020824403 0.66191906
0.021621235 0.019958049 0.66158354
0.021576626 0.019087017 0.66116929
0.021477455 0.018173248 0.66024846
0.021181064 0.017107785 0.65749633
0.021065548 0.016204298 0.65642375
0.02100799 0.015352011 0.65588927
0.020979127 0.014524043 0.65562129
0.020979194 0.013717175 0.65562189
0.020996395 0.012920856 0.65578163
0.021027006 0.012130976 0.65606582
0.021082891 0.01135233 0.65658474
0.021160459 0.010580242 0.657305
0.021267004 0.0098155439 0.65829432
0.021404307 0.0090557039 0.65956926
0.021511123 0.0082735419 0.66056108
0.021575194 0.0074683428 0.66115606
0.021614194 0.0066505373 0.6615181
0.021645915 0.0058277547 0.66181266
0.021677727 0.0050025582 0.66210806
0.021717245 0.0041763783 0.66247499
0.021758143 0.0033474267 0.66285473
0.021803143 0.002515763 0.66327262
0.021853613 0.0016811192 0.66374123
0.021904981 0.00084254146 0.66421819
0.021965563 2.9802322e-08 0.66478074
0.022026556 -0.00084716082 0.6653471
0.022096217 -0.0016996861 0.66599393
0.022168512 -0.0025579035 0.6666652
0.02224843 -0.0034228265 0.66740727
0.022333374 -0.0042948723 0.66819602
0.022426158 -0.0051752627 0.66905761
0.022525409 -0.0060645044 0.66997921
0.022635385 -0.0069646835 0.6710003
0.022751054 -0.0078753531 0.67207438
0.02288408 -0.0088015497 0.67330956
0.023026738 -0.0097420812 0.67463422
0.023184404 -0.010700494 0.67609823
0.023367386 -0.011683643 0.67779732
0.023576245 -0.012694895 0.67973661
0.023823548 -0.013744295 0.68203294
0.024132818 -0.014850944 0.68490463
0.024367416 -0.01593253 0.68708301
0.024465116 -0.016937375 0.68799025
0.024535805 -0.017930001 0.68864661
0.024640927 -0.018954545 0.6896227
0.024821935 -0.020048469 0.69130343
0.025404936 0.037636966 0.68797994
0.025304627 0.036551148 0.68708301
0.024184812 0.034037888 0.67707014
0.023709103 0.032490283 0.67281657
0.023443159 0.03125757 0.67043865
0.023245424 0.030132949 0.66867059
0.023087319 0.02907294 0.66725695
0.022955585 0.02805686 0.66607898
0.022842482 0.027072608 0.66506767
0.022749549 0.026119888 0.66423672
0.02266733 0.025185943 0.66350162
0.022593105 0.02426669 0.66283786
0.022531986 0.023366541 0.66229135
0.022476729 0.022476763 0.66179729
0.022428295 0.021597654 0.6613642
0.022387782 0.020729452 0.66100192
0.022350594 0.019867212 0.66066945
0.022297254 0.018993944 0.66019255
0.022103682 0.018010437 0.65846169
0.021852974 0.016996741 0.65621996
0.021762151 0.016120136 0.65540791
0.02171856 0.015283465 0.65501809
0.021700071 0.014466703 0.65485281
0.02170014 0.013663083 0.6548534
0.021727432 0.012875527 0.65509742
0.021768535 0.012093633 0.65546495
0.021826211 0.011317313 0.65598065
0.021917356 0.010552824 0.65679562
0.022042735 0.0097967982 0.65791667
0.022183023 0.0090375245 0.6591711
0.022276517 0.0082505941 0.66000706
0.022330571 0.0074435472 0.66049039
0.022366803 0.006627202 0.6608144
0.022399511 0.0058073103 0.66110682
0.022433806 0.0049853027 0.66141355
0.022475757 0.0041621923 0.66178858
0.02251794 0.0033360124 0.66216576
0.022567064 0.0025074482 0.66260505
0.022619056 0.0016755164 0.66306984
0.022674788 0.00083985925 0.6635682
0.022737375 2.9802322e-08 0.66412783
0.022800999 -0.00084447861 0.66469675
0.022875126 -0.0016944408 0.6653595
0.022949656 -0.0025499463 0.666026
0.023035198 -0.0034125745 0.66679084
0.023122963 -0.0042819977 0.6675756
0.023222011 -0.0051603913 0.66846126
0.023324488 -0.0060470998 0.66937757
0.023441615 -0.0069456398 0.67042482
0.023564277 -0.0078547597 0.67152166
0.023702612 -0.0087787211 0.67275858
0.023854706 -0.0097185671 0.67411852
0.0240214 -0.010676205 0.67560899
0.02421255 -0.011657894 0.67731822
0.024435731 -0.012670338 0.67931378
0.024701118 -0.013722837 0.68168676
0.025034066 -0.01483497 0.68466377
0.025231466 -0.015886456 0.6864289
0.025318474 -0.016878963 0.68720686
0.025393859 -0.017869711 0.68788081
0.025512211 -0.018897891 0.68893909
0.025752159 -0.020029426 0.69108462
0.026381778 0.038630486 0.68828964
0.026197769 0.037425369 0.68670309
0.026090631 0.036340535 0.68577933
0.024724856 0.03355521 0.67400336
0.024367239 0.032199621 0.6709199
0.024124714 0.031017482 0.66882885
0.023939706 0.029924661 0.66723359
0.02379051 0.028888464 0.66594726
0.023665372 0.027891368 0.6648683
0.023557454 0.026922822 0.66393775
0.023462376 0.025976211 0.663118
0.02338421 0.025054574 0.66244406
0.023313623 0.024146229 0.66183543
0.023250867 0.023250878 0.66129434
0.023198813 0.022370309 0.66084546
0.023149975 0.021496415 0.66042447
0.023111634 0.020635426 0.66009384
0.023069847 0.019774169 0.65973353
0.02298665 0.018881917 0.65901619
0.022690531 0.017828286 0.65646303
0.022531791 0.01689887 0.65509433
0.022456666 0.016040504 0.6544466
0.022422811 0.015215516 0.65415466
0.02241542 0.014409959 0.65409094
0.022424031 0.013614595 0.65416521
0.022453429 0.012830526 0.65441871
0.022505512 0.01205653 0.65486777
0.022575358 0.011287689 0.65546995
0.022670338 0.010525525 0.65628886
0.022815501 0.0097781122 0.65754056
0.022950802 0.0090163946 0.65870714
0.023033815 0.0082263649 0.65942287
0.023080491 0.0074187517 0.65982533
0.023114152 0.0066040754 0.66011554
0.023147834 0.0057869852 0.66040599
0.023185914 0.0049684048 0.6607343
0.023229122 0.0041480958 0.66110688
0.023272648 0.0033247173 0.66148216
0.023325965 0.0024992228 0.66194189
0.023379527 0.0016700029 0.6624037
0.023439767 0.00083714724 0.66292304
0.023504257 -0 0.66347909
0.023572752 -0.000841856 0.66406971
0.023649152 -0.0016891956 0.6647284
0.023727655 -0.0025422573 0.66540533
0.023817368 -0.0034024417 0.66617876
0.023908574 -0.0042693615 0.66696525
0.024013316 -0.005145669 0.66786832
0.024121474 -0.0060303807 0.66880083
0.024243442 -0.0069266558 0.6698525
0.024374193 -0.0078345239 0.67097986
0.024516826 -0.0087559819 0.67220962
0.024678776 -0.0096951723 0.67360604
0.024856631 -0.010652781 0.67513955
0.025056859 -0.011633486 0.67686594
0.02529199 -0.01264596 0.67889327
0.025576787 -0.013701826 0.68134886
0.025923304 -0.014813304 0.68433666
0.026087327 -0.015838742 0.6857509
0.026167823 -0.016822159 0.68644488
0.026246553 -0.017810136 0.68712372
0.026383664 -0.018845439 0.68830597
0.026682038 -0.020011485 0.69087851
0.02710573 0.038321912 0.68647271
0.02698194 0.037216485 0.68544215
0.025916707 0.034853518 0.67657423
0.025331344 0.033192813 0.67170113
0.025022937 0.031925857 0.66913372
0.024805462 0.030793011 0.66732323
0.024631724 0.029727966 0.66587692
0.024487071 0.028709024 0.66467267
0.024366915 0.027727872 0.66367239
0.024264639 0.026774794 0.66282094
0.024173766 0.025840908 0.66206449
0.024093729 0.024924576 0.66139817
0.024027023 0.02402702 0.6608429
0.023965437 0.02313906 0.66033018
0.02391417 0.022264928 0.65990335
0.023868304 0.0213992 0.65952146
0.02382895 0.020542234 0.65919393
0.023778342 0.019678622 0.65877259
0.023660012 0.018764853 0.6577875
0.023337247 0.017704129 0.65510052
0.023216119 0.016811669 0.65409219
0.023155509 0.015969306 0.65358764
0.023125028 0.015150905 0.65333384
0.023125101 0.014353544 0.65333444
0.023144061 0.013567239 0.65349227
0.023177184 0.012787431 0.65376806
0.023238055 0.012019694 0.65427482
0.023321642 0.011258781 0.65497065
0.023435548 0.010505587 0.65591884
0.023585172 0.0097593963 0.65716451
0.023705155 0.0089916289 0.65816331
0.023778031 0.0081993341 0.65877002
0.023821751 0.0073929727 0.65913397
0.023856374 0.006581068 0.65942222
0.023891017 0.005766809 0.65971065
0.023932945 0.0049516559 0.66005969
0.023977393 0.0041340292 0.66042972
0.024024954 0.0033138096 0.66082567
0.024079895 0.0024910569 0.66128302
0.024135007 0.0016645491 0.66174179
0.024199892 0.00083449483 0.66228193
0.024266262 2.9802322e-08 0.66283453
0.024339776 -0.000839293 0.66344649
0.024418419 -0.00168401 0.66410112
0.024502451 -0.0025347173 0.66480076
0.024594817 -0.0033923686 0.66556966
0.024692165 -0.004257232 0.66638005
0.024800032 -0.0051310062 0.66727805
0.024915263 -0.0060140193 0.66823733
0.0250409 -0.0069077909 0.66928327
0.025179865 -0.0078144372 0.67044014
0.025327895 -0.0087337494 0.67167246
0.025498804 -0.0096719563 0.67309529
0.025688216 -0.010629565 0.67467207
0.025902364 -0.011611342 0.67645478
0.026153162 -0.012625605 0.67854267
0.026462704 -0.013687611 0.68111962
0.026790347 -0.014780819 0.68384713
0.02693416 -0.015788972 0.68504441
0.027012177 -0.016766161 0.68569392
0.027103703 -0.017757624 0.68645585
0.027261764 -0.018801212 0.68777168
0.028145246 0.039403379 0.68731636
0.027866442 0.038084179 0.68507266
0.027755247 0.037007004 0.68417794
0.026377333 0.034290552 0.67308927
0.025955802 0.032877386 0.66969705
0.025688225 0.031682134 0.66754377
0.025484554 0.030581474 0.66590476
0.025320513 0.029540598 0.6645847
0.025183132 0.028540879 0.66347909
0.025064636 0.027571112 0.66252553
0.024963927 0.026628226 0.66171503
0.024877787 0.025707036 0.66102183
0.024799695 0.024799734 0.66039342
0.024733415 0.023909003 0.65986007
0.024675274 0.023030251 0.65939218
0.024622736 0.02216047 0.6589694
0.024580158 0.021302819 0.65862679
0.024539813 0.020449877 0.65830207
0.02447699 0.019581616 0.65779656
0.02424179 0.018585384 0.65590376
0.023987278 0.017590702 0.65385556
0.023893427 0.016725451 0.65310031
0.023848254 0.015898824 0.65273678
0.023829171 0.015091836 0.65258324
0.023829248 0.014297575 0.65258384
0.023859169 0.013520241 0.6528247
0.023903472 0.012748539 0.6531812
0.023966061 0.011983067 0.65368491
0.024064032 0.011229903 0.6544733
0.024197944 0.010485739 0.65555096
0.024350168 0.0097400844 0.65677595
0.024455378 0.0089670122 0.65762264
0.024517206 0.0081724226 0.65812016
0.024557881 0.0073674023 0.65844744
0.024593368 0.0065582395 0.65873307
0.024629362 0.0057468712 0.65902269
0.02467495 0.0049350262 0.65938956
0.024720626 0.0041201413 0.65975714
0.024772435 0.003303051 0.66017407
0.024828818 0.0024829209 0.66062778
0.024887437 0.0016592145 0.66109955
0.024955211 0.00083187222 0.66164494
0.025023436 -0 0.66219401
0.025102109 -0.0008367002 0.66282707
0.025182964 -0.0016788542 0.66347778
0.025272766 -0.0025272369 0.66420043
0.025367755 -0.003382355 0.66496485
0.025471408 -0.0042452514 0.66579896
0.025582364 -0.0051164627 0.6666919
0.025704764 -0.0059977472 0.66767693
0.02583403 -0.0068890452 0.66871709
0.025981501 -0.0077944398 0.66990387
0.026138946 -0.0087129772 0.67117095
0.026314998 -0.0096487999 0.67258769
0.026516186 -0.010606438 0.67420667
0.026744561 -0.011589319 0.67604452
0.027013317 -0.012606233 0.67820728
0.027346885 -0.013673395 0.68089163
0.027648402 -0.014745802 0.68331808
0.027772298 -0.015737593 0.68431509
0.02785093 -0.01671055 0.68494791
0.02795581 -0.017705351 0.68579191
0.028135752 -0.018757135 0.68723994
0.028784741 0.038998693 0.68499029
0.028635418 0.037872672 0.6838274
0.028478639 0.036746651 0.68260646
0.026936507 0.033887893 0.67059666
0.026589546 0.032593638 0.6678946
0.0263454 0.03144455 0.66599321
0.026155615 0.030374259 0.66451526
0.026000673 0.029355586 0.66330862
0.025871007 0.028374702 0.66229874
0.025758702 0.02742058 0.66142416
0.025658991 0.026486695 0.66064763
0.025574634 0.025574654 0.65999067
0.025500717 0.024678141 0.65941501
0.025432898 0.023792058 0.65888685
0.025378469 0.022922486 0.658463
0.025327004 0.022059023 0.65806222
0.025285549 0.021207243 0.65773934
0.025238236 0.020353436 0.65737092
0.025141368 0.019464284 0.65661651
0.024804611 0.018403441 0.6539939
0.024650637 0.017494023 0.65279478
0.024571521 0.016645223 0.65217865
0.024534833 0.015828937 0.6518929
0.024527848 0.015033215 0.65183854
0.024537548 0.014247626 0.65191412
0.024569264 0.013473481 0.65216106
0.024625354 0.012709886 0.6525979
0.024699938 0.011951596 0.65317875
0.024802629 0.011201203 0.65397847
0.024957391 0.010466009 0.65518367
0.025107589 0.0097190738 0.65635347
0.025199939 0.0089419484 0.65707266
0.025251547 0.00814569 0.65747452
0.02528885 0.0073419213 0.65776503
0.025325265 0.0065355599 0.65804863
0.025365187 0.0057276189 0.65835959
0.025411982 0.0049184859 0.65872395
0.025458861 0.0041062832 0.65908909
0.025515065 0.0032922626 0.65952677
0.025572946 0.0024748445 0.65997756
0.02563609 0.0016539395 0.66046929
0.02570577 0.00082921982 0.66101193
0.025777366 2.9802322e-08 0.66156954
0.025859877 -0.000834167 0.66221207
0.025942836 -0.0016737282 0.66285819
0.026038473 -0.002519846 0.66360295
0.02613605 -0.0033723712 0.66436285
0.026246255 -0.0042332709 0.6652211
0.026360175 -0.0051019192 0.66610831
0.026490007 -0.0059815943 0.66711938
0.026625238 -0.0068710148 0.66817254
0.026779044 -0.0077745616 0.66937035
0.026946146 -0.0086922646 0.6706717
0.027128246 -0.0096261203 0.67208987
0.027340654 -0.01058346 0.67374408
0.027583659 -0.011567295 0.67563653
0.027870826 -0.012586832 0.67787296
0.028229136 -0.013659239 0.68066335
0.028491508 -0.014705271 0.68270665
0.028603207 -0.015685588 0.68357652
0.028684137 -0.016655266 0.68420678
0.028802916 -0.017653376 0.68513185
0.029005758 -0.018713385 0.68671149
0.029511198 0.038733482 0.68346572
0.02939547 0.037662983 0.68259257
0.028015701 0.035019606 0.67218304
0.027525978 0.033547282 0.66848838
0.027232625 0.032338738 0.6662752
0.02700964 0.031229943 0.66459292
0.026830319 0.03018415 0.66324008
0.026680369 0.029181689 0.66210872
0.026551003 0.028210461 0.66113275
0.026445141 0.027271599 0.66033411
0.02635044 0.026350439 0.65961957
0.026264597 0.025443852 0.65897197
0.026194902 0.024557739 0.65844619
0.02613035 0.023680627 0.65795916
0.026075115 0.022815704 0.65754247
0.026027132 0.021960407 0.65718049
0.025984725 0.021112591 0.65686053
0.025928004 0.020256251 0.65643257
0.025776982 0.019332737 0.65529323
0.025441531 0.018286109 0.65276241
0.025316106 0.017404854 0.65181619
0.02525294 0.016572267 0.65133959
0.025221119 0.015763223 0.65109956
0.025221119 0.014975041 0.65109956
0.025241954 0.014198661 0.65125668
0.025277341 0.013428628 0.65152371
0.025342954 0.0126715 0.65201873
0.025431996 0.011921227 0.65269053
0.025552621 0.011179298 0.65360057
0.025713895 0.01044628 0.65481722
0.025847141 0.0096926987 0.65582252
0.025929011 0.0089131296 0.6564402
0.025977558 0.0081180334 0.65680641
0.026014786 0.0073166788 0.65708733
0.026052203 0.0065130293 0.65736961
0.026096109 0.0057085454 0.65770084
0.026144087 0.004902035 0.65806282
0.026193786 0.0040927827 0.65843773
0.026252884 0.0032816529 0.65888357
0.026312247 0.0024667978 0.65933144
0.026380135 0.0016487539 0.65984368
0.026451608 0.00082662702 0.66038287
0.026528303 2.9802322e-08 0.66096151
0.026612962 -0.00083163381 0.66160017
0.026700299 -0.0016687214 0.6622591
0.026799692 -0.002512455 0.66300899
0.026900731 -0.0033625662 0.66377127
0.027016658 -0.00422135 0.66464585
0.027135979 -0.0050880015 0.66554606
0.02727103 -0.0059655011 0.66656494
0.027414564 -0.0068536401 0.66764784
0.027572431 -0.0077547133 0.66883886
0.027749527 -0.0086717308 0.67017496
0.027943142 -0.0096054375 0.67163563
0.028161455 -0.010560542 0.67328268
0.028419478 -0.01154536 0.67522931
0.028725704 -0.01256749 0.67753959
0.029108072 -0.013644397 0.68042439
0.029327199 -0.014663547 0.68207747
0.029426048 -0.01563254 0.68282324
0.02951185 -0.01660043 0.68347067
0.029645065 -0.017601728 0.68447566
0.029899046 -0.018686861 0.68639177
0.030441727 0.039666504 0.68352646
0.030265627 0.038519919 0.68223816
0.030133396 0.037438452 0.68127078
0.028525041 0.03457582 0.6695044
0.028142614 0.033259451 0.66670662
0.027872216 0.032095283 0.6647284
0.027664779 0.031018078 0.66321087
0.02749672 0.029996455 0.66198134
0.027354958 0.029012859 0.66094422
0.027232245 0.028057486 0.66004652
0.027124075 0.027124107 0.65925515
0.027034897 0.026215672 0.65860277
0.02695352 0.025319993 0.65800744
0.026882255 0.024438441 0.65748602
0.026821734 0.023570627 0.65704334
0.0267653 0.022709966 0.65663046
0.026721034 0.021862715 0.65630656
0.02667743 0.021018624 0.65598762
0.026601013 0.020152301 0.65542853
0.026327023 0.019146949 0.65342408
0.026070466 0.018170327 0.65154719
0.025974827 0.01731655 0.65084749
0.025928492 0.016499966 0.65050852
0.025909046 0.015702456 0.65036631
0.025909046 0.014917344 0.65036625
0.025941527 0.014149934 0.65060389
0.025988892 0.013388246 0.65095037
0.026056148 0.012633294 0.65144247
0.026160428 0.011891156 0.65220535
0.026301945 0.011158466 0.65324062
0.026465598 0.010425836 0.6544379
0.026582684 0.0096664727 0.65529442
0.026652452 0.0088841617 0.65580487
0.026697701 0.008090198 0.65613592
0.026735829 0.007291615 0.65641487
0.026774066 0.0064907074 0.65669459
0.026822168 0.0056895614 0.6570465
0.02687132 0.0048857033 0.65740609
0.026925303 0.0040796101 0.65780103
0.026985854 0.0032710433 0.65824395
0.027046766 0.0024588108 0.65868962
0.027119529 0.0016436577 0.65922195
0.027192777 0.00082403421 0.65975779
0.027274705 -0 0.66035718
0.027361484 -0.00082913041 0.66099203
0.027454566 -0.0016639233 0.66167301
0.027556557 -0.0025051534 0.6624192
0.027663855 -0.0033531785 0.66320407
0.027782829 -0.0042094886 0.66407448
0.02790934 -0.0050743818 0.66499996
0.028047865 -0.0059494972 0.66601342
0.028199811 -0.0068362951 0.66712499
0.028361883 -0.0077350438 0.66831076
0.028549211 -0.0086512566 0.66968119
0.028754542 -0.0095848143 0.67118335
0.02898532 -0.010540098 0.67287165
0.029253792 -0.0115242 0.6748358
0.029582409 -0.012550086 0.67723989
0.029972147 -0.013623685 0.68009108
0.03015431 -0.014620245 0.68142378
0.030245336 -0.015580893 0.68208969
0.030334128 -0.016545862 0.68273926
0.030483315 -0.017550945 0.68383068
0.03080624 -0.01867041 0.68619311
0.031133005 0.039374113 0.68188483
0.031012686 0.038309813 0.68103045
0.029699748 0.035814404 0.67170781
0.029093008 0.034227073 0.66739953
0.028758092 0.032987267 0.66502136
0.028515337 0.031870097 0.66329771
0.028320426 0.030819297 0.66191375
0.028157491 0.029813826 0.66075677
0.028021876 0.028846055 0.65979385
0.027906042 0.02790606 0.65897131
0.027802607 0.0269849 0.65823686
0.0277123 0.026082188 0.65759563
0.027635768 0.025197357 0.65705222
0.027564572 0.024321675 0.65654671
0.027506722 0.02346167 0.65613592
0.027453102 0.022608459 0.65575516
0.027408695 0.021765739 0.65543985
0.027355632 0.020919025 0.65506309
0.027244443 0.020032674 0.65427357
0.026879493 0.018973798 0.6516822
0.026719827 0.018075168 0.65054846
0.026637321 0.017235905 0.64996266
0.026598092 0.016428262 0.64968407
0.02659169 0.015642196 0.64963853
0.026602335 0.014866024 0.64971417
0.026636405 0.014101654 0.64995611
0.026696177 0.013348103 0.65038055
0.026775086 0.012600034 0.65094084
0.026885102 0.011861086 0.65172195
0.027048474 0.011137605 0.6528821
0.027212543 0.010404825 0.65404701
0.027313992 0.0096402466 0.65476745
0.0273713 0.0088554621 0.65517437
0.027412845 0.0080626011 0.6554693
0.02745186 0.0072667003 0.65574634
0.027493386 0.0064690411 0.65604126
0.02754342 0.0056706965 0.65639651
0.027593724 0.0048694909 0.65675366
0.027652211 0.0040664971 0.65716898
0.027714197 0.0032604933 0.65760911
0.027779726 0.0024511516 0.65807444
0.027854322 0.0016385019 0.65860403
0.027929315 0.00082144141 0.65913659
0.028016616 2.9802322e-08 0.65975648
0.028105486 -0.00082665682 0.66038752
0.028204547 -0.0016590655 0.66109091
0.028308928 -0.002497822 0.66183209
0.028422818 -0.0033438206 0.66264075
0.028544717 -0.0041977167 0.66350627
0.028678585 -0.0050609112 0.66445684
0.028820548 -0.0059336424 0.66546488
0.028981198 -0.0068190694 0.66660559
0.029151933 -0.0077166557 0.66781795
0.02934503 -0.0086309016 0.6691891
0.029562568 -0.0095643401 0.67073375
0.029807884 -0.010520399 0.67247558
0.030094631 -0.011506736 0.67451167
0.030447751 -0.012537301 0.67701906
0.030811826 -0.013593465 0.67960423
0.030972373 -0.014575213 0.68074417
0.031060135 -0.01553005 0.6813674
0.031161519 -0.016497284 0.68208724
0.031334858 -0.017510653 0.68331808
0.032088026 0.040339261 0.68215615
0.031872764 0.039157987 0.68067139
0.031746574 0.038095921 0.67980093
0.03012591 0.03529039 0.66862202
0.029677965 0.033917695 0.66553217
0.029382391 0.032740414 0.66349339
0.029156195 0.031655312 0.66193312
0.028973185 0.03062883 0.66067076
0.028819088 0.029642493 0.65960783
0.028685682 0.028685689 0.65868771
0.028572608 0.027756274 0.65790772
0.02847486 0.02684778 0.65723348
0.028385876 0.025952816 0.65661967
0.028311349 0.025075793 0.65610564
0.028244501 0.024209589 0.65564448
0.028185407 0.023353666 0.65523684
0.028135687 0.022508591 0.65489388
0.028090376 0.021669716 0.65458137
0.028027346 0.02082032 0.65414661
0.027838973 0.019885033 0.65284723
0.027495772 0.01885426 0.65047991
0.027367124 0.017984122 0.64959252
0.027302016 0.01716128 0.64914352
0.027269028 0.016361445 0.64891595
0.027269114 0.015582323 0.64891654
0.027291637 0.01481548 0.64907187
0.027329201 0.014055043 0.64933097
0.027399324 0.013308257 0.64981467
0.02749344 0.012568444 0.65046388
0.027619882 0.011837065 0.65133607
0.027792407 0.011116982 0.65252608
0.027938904 0.010377347 0.65353656
0.028029861 0.0096102655 0.65416396
0.028083349 0.008826226 0.65453291
0.028123125 0.008035183 0.65480733
0.028163016 0.0072419345 0.6550824
0.028208742 0.0064477324 0.65539783
0.028259909 0.0056520104 0.65575075
0.028311349 0.0048533678 0.65610558
0.028374469 0.0040535331 0.65654099
0.02843787 0.0032500625 0.65697831
0.028508235 0.0024435818 0.65746367
0.028584547 0.0016334355 0.65799004
0.028663803 0.00081896782 0.65853673
0.02875407 -0 0.65915942
0.028845005 -0.00082409382 0.65978658
0.028950099 -0.0016542673 0.66051149
0.029057024 -0.0024905801 0.66124904
0.029177474 -0.003334552 0.66207993
0.029302258 -0.0041860044 0.66294062
0.029443746 -0.0050474405 0.66391659
0.029590413 -0.0059180856 0.66492826
0.029758656 -0.0068019629 0.66608876
0.029939264 -0.0076986551 0.6673345
0.030137211 -0.0086105764 0.66869992
0.030367043 -0.0095439255 0.67028528
0.030627275 -0.010500789 0.67208028
0.030932928 -0.011489362 0.67418855
0.031311445 -0.012524575 0.67679954
0.031643666 -0.013561577 0.6790911
0.031781487 -0.014528692 0.68004173
0.031869631 -0.015479475 0.68064976
0.031985465 -0.01644963 0.68144876
0.032182373 -0.017470419 0.68280697
0.032752059 0.04003033 0.68046105
0.032605033 0.03894487 0.67947513
0.031444047 0.036684752 0.67168939
0.030646399 0.034902841 0.66634023
0.030267593 0.033630699 0.66379988
0.030002017 0.032502204 0.6620189
0.029791035 0.031446129 0.660604
0.029617924 0.030440688 0.65944314
0.029473215 0.029473245 0.65847266
0.02934712 0.028531969 0.65762705
0.029234715 0.02761057 0.65687323
0.029140407 0.02671206 0.65624082
0.029056454 0.025827974 0.65567786
0.028980536 0.024955451 0.65516871
0.028918099 0.024098426 0.65474999
0.028858611 0.023247212 0.65435106
0.028812267 0.022409588 0.65404022
0.028763499 0.021572649 0.65371323
0.028674209 0.020709127 0.65311444
0.028359909 0.019694388 0.65100664
0.028105121 0.01873675 0.64929807
0.028007934 0.01789397 0.6486463
0.027960893 0.017087251 0.64833081
0.027941288 0.016299099 0.64819932
0.027941374 0.015522987 0.64819992
0.027976353 0.014765322 0.64843446
0.028026497 0.014013231 0.64877081
0.028098196 0.01326862 0.64925158
0.0282082 0.012537003 0.64998925
0.028356696 0.01181528 0.65098512
0.028531235 0.011095524 0.65215564
0.028660158 0.010349512 0.6530202
0.028738258 0.0095794499 0.65354395
0.028788045 0.0087963343 0.65387785
0.028828681 0.0080079734 0.65415037
0.028869435 0.0072173476 0.65442365
0.028919399 0.0064265728 0.65475869
0.028971681 0.0056334138 0.65510929
0.02902752 0.0048379302 0.65548378
0.02909212 0.0040405989 0.65591699
0.029156916 0.0032396615 0.65635151
0.029232247 0.0024360418 0.65685666
0.029310256 0.0016283691 0.65737981
0.02939482 0.00081655383 0.65794694
0.029487209 2.9802322e-08 0.65856653
0.029583 -0.00082173944 0.65920889
0.029691448 -0.0016495287 0.65993619
0.029801583 -0.0024834573 0.66067475
0.029928043 -0.0033253431 0.66152281
0.030057587 -0.0041746497 0.6623916
0.03020486 -0.0050341487 0.66337919
0.030360032 -0.0059033036 0.66441983
0.030532219 -0.0067849159 0.66557449
0.030722922 -0.0076807141 0.66685337
0.030930355 -0.0085917711 0.66824448
0.031168088 -0.0095236003 0.66983879
0.031443719 -0.010481209 0.67168719
0.031768691 -0.011472017 0.67386651
0.032173384 -0.012511849 0.67658037
0.032459088 -0.013524592 0.67849636
0.032583684 -0.014481604 0.67933196
0.032673877 -0.015429288 0.67993677
0.032804668 -0.016402334 0.68081385
0.033026006 -0.017430365 0.68229818
0.033780381 0.04108426 0.68123454
0.033457436 0.039787263 0.67912734
0.033327222 0.038731635 0.67827773
0.031714272 0.036000013 0.66775346
0.031195899 0.034568459 0.66437107
0.030874386 0.033377737 0.66227317
0.030628897 0.032284498 0.66067147
0.030430537 0.03125301 0.65937722
0.030263793 0.030263841 0.65828913
0.030119821 0.029305786 0.65734977
0.030001506 0.028379828 0.65657783
0.029895118 0.027471185 0.65588361
0.029799167 0.026577652 0.65525752
0.029720521 0.025704294 0.65474433
0.029647034 0.024839431 0.65426487
0.029585538 0.023988307 0.65386361
0.029530136 0.023145229 0.65350217
0.02948292 0.022311389 0.65319407
0.029423971 0.02147159 0.65280938
0.029297875 0.020587713 0.65198666
0.028905304 0.019530624 0.64942515
0.028741241 0.018642962 0.64835465
0.028655915 0.017813206 0.64779794
0.028614193 0.017013848 0.64752573
0.028608445 0.016237259 0.64748818
0.02862021 0.015470386 0.64756495
0.028656358 0.014715403 0.6478008
0.028719751 0.013971806 0.64821446
0.028802412 0.013233572 0.64875382
0.028919483 0.01250574 0.64951766
0.02909071 0.011793554 0.65063494
0.029267214 0.011074066 0.65178657
0.029377654 0.010321915 0.65250719
0.029442126 0.0095488131 0.65292788
0.029487899 0.008766681 0.65322655
0.029529382 0.0079809129 0.65349722
0.029572118 0.0071932077 0.65377605
0.029625403 0.0064055324 0.65412372
0.029678784 0.0056149364 0.65447205
0.029739235 0.0048226118 0.65486646
0.029805116 0.0040277541 0.65529633
0.029872637 0.0032294691 0.65573692
0.029951803 0.0024285614 0.65625346
0.030031485 0.0016233325 0.65677345
0.030121487 0.00081411004 0.65736067
0.03021588 2.9802322e-08 0.65797651
0.030317614 -0.00081938505 0.65864038
0.030428438 -0.0016447902 0.65936351
0.03054511 -0.0024766326 0.66012472
0.030674471 -0.003316164 0.66096878
0.03081139 -0.0041636825 0.66186219
0.030961957 -0.0050208271 0.6628446
0.031125726 -0.0058886707 0.66391325
0.031301811 -0.0067679584 0.66506219
0.03150294 -0.0076628625 0.66637444
0.031722534 -0.0085736215 0.66780734
0.031967495 -0.0095038414 0.66940564
0.032257017 -0.010461718 0.67129481
0.032601934 -0.011454672 0.6735453
0.033029094 -0.012497485 0.67633247
0.03326793 -0.013486981 0.67789084
0.033377573 -0.014433533 0.67860627
0.033472922 -0.015379429 0.67922843
0.033619173 -0.016355246 0.6801827
0.033880286 -0.01739794 0.68188643
0.034350514 0.040678293 0.67905641
0.034175906 0.03957212 0.67794704
0.034003917 0.038478136 0.67685437
0.032183833 0.035571635 0.66529101
0.03176944 0.034277588 0.66265833
0.031474825 0.033131421 0.66078657
0.031247541 0.032069862 0.65934259
0.031062335 0.031062365 0.65816593
0.030905411 0.03009212 0.65716898
0.030768776 0.029149383 0.6563009
0.030648949 0.028229326 0.65553963
0.030548986 0.027333349 0.65490454
0.030457377 0.026449889 0.6543225
0.030378351 0.025581807 0.65382046
0.030309489 0.024726182 0.65338296
0.030246904 0.023879141 0.65298533
0.030195698 0.023044109 0.65266001
0.030147629 0.022214085 0.6523546
0.030078284 0.021371454 0.65191406
0.029849645 0.020423442 0.65046144
0.02950182 0.01940915 0.64825165
0.029371023 0.018550128 0.6474207
0.029304393 0.017736882 0.64699733
0.029270556 0.016946137 0.6467824
0.029270556 0.016175866 0.6467824
0.029294912 0.01541841 0.64693713
0.029334411 0.014667183 0.64718813
0.029408822 0.013930529 0.64766085
0.029507589 0.01320079 0.64828831
0.029639231 0.012479693 0.64912468
0.029822303 0.011771977 0.65028781
0.029982097 0.011046082 0.65130299
0.030082475 0.010291427 0.65194064
0.030140841 0.0095181763 0.6523115
0.030183043 0.0087372065 0.65257967
0.030225364 0.0079540908 0.65284848
0.030272428 0.0071697831 0.65314752
0.030326797 0.0063845813 0.65349293
0.030381262 0.0055965781 0.65383899
0.030446453 0.004807353 0.65425307
0.030513689 0.0040149987 0.65468025
0.030586137 0.0032196045 0.65514058
0.030666944 0.0024210811 0.65565395
0.030748276 0.0016183257 0.65617067
0.030843846 0.00081169605 0.65677786
0.030940212 2.9802322e-08 0.65739012
0.03104803 -0.00081703067 0.65807503
0.031161299 -0.0016400516 0.65879464
0.03128466 -0.0024698079 0.65957838
0.031416684 -0.0033069849 0.6604172
0.031561241 -0.0041527748 0.66133559
0.031715069 -0.0050076246 0.66231287
0.031887721 -0.0058740079 0.66340977
0.032070268 -0.0067515969 0.6645695
0.032279447 -0.0076451302 0.6658985
0.032511268 -0.0085555613 0.66737127
0.032771155 -0.0094863772 0.66902238
0.03307293 -0.010444045 0.67093962
0.033441495 -0.011440486 0.67328119
0.03386993 -0.012478352 0.6760031
0.034067765 -0.013447791 0.67726004
0.034168538 -0.014386743 0.6779002
0.034266818 -0.015329897 0.67852461
0.034429014 -0.016308486 0.67955512
0.034766063 -0.017383009 0.68169641
0.035019878 0.040407568 0.67760414
0.034885902 0.039358497 0.6767748
0.033315897 0.036732942 0.66705602
0.032704387 0.035220146 0.66327053
0.032348629 0.034007579 0.66106832
0.032083236 0.032905906 0.65942544
0.031869248 0.031869262 0.65810084
0.031689458 0.030876935 0.65698791
0.031539693 0.029922277 0.65606081
0.031411245 0.028994977 0.65526569
0.031295985 0.028086156 0.65455216
0.031196222 0.027196705 0.6539346
0.031110182 0.026324004 0.65340197
0.031029943 0.025460482 0.65290529
0.03096593 0.024614006 0.65250903
0.030904628 0.023772776 0.65212953
0.030855568 0.022943914 0.65182579
0.030801408 0.022113889 0.65149057
0.030698586 0.021252871 0.65085411
0.030342305 0.020228207 0.64864862
0.030097362 0.019293189 0.64713234
0.029994475 0.018458158 0.64649546
0.029947245 0.017661214 0.6462031
0.029927682 0.0168823 0.64608198
0.029927682 0.01611492 0.64608192
0.02996509 0.015366733 0.64631355
0.030017914 0.014624119 0.64664054
0.030093834 0.013889462 0.64711046
0.030209186 0.013168156 0.64782453
0.030363739 0.012456954 0.6487813
0.030548645 0.011749476 0.64992595
0.030689703 0.011016816 0.65079916
0.030776244 0.010258764 0.65133482
0.03083051 0.0094863474 0.65167075
0.03087363 0.0087079406 0.65193766
0.030916771 0.007927388 0.65220475
0.030968191 0.0071465373 0.65252298
