# .PCD v0.7 - Point Cloud Data file format
VERSION 0.7
FIELDS x y z
SIZE 4 4 4
TYPE F F F
COUNT 1 1 1
WIDTH 698
HEIGHT 1
VIEWPOINT 0 0 0 1 0 0 0
POINTS 698
DATA ascii
0.010663066 -0.069720045 0.6588434
0.0032882311 -0.07069698 0.65928322
0.0041071652 -0.069410928 0.65913236
0.016490681 -0.06843628 0.65988106
0 -0.071860462 0.6602307
0.014458704 -0.066508919 0.66028386
0.0066273324 -0.064616457 0.66081834
0.0066273324 -0.064616457 0.66081834
0.0095719015 -0.062425271 0.66176486
-0.0050162049 -0.071480595 0.66265738
0.021692041 -0.068413317 0.66224098
-0.00083357538 -0.066686004 0.66206378
0.015430513 -0.063389331 0.66218328
0.016743978 -0.062789887 0.66293859
0.0091714067 -0.061698556 0.66210938
-0.0050424468 -0.068913415 0.66371328
-0.003364898 -0.06561549 0.66391051
0.0025195137 -0.060468316 0.66357577
-0.0025340174 -0.062505752 0.66474289
-0.0016860262 -0.062382936 0.66434228
0.015209856 -0.058304429 0.66482002
0.0042208829 -0.057404011 0.66462314
-0.0084930928 -0.076437786 0.66586232
-0.0084930928 -0.076437786 0.66586232
-0.0093748318 -0.072441846 0.66657412
-0.0085079381 -0.070615858 0.66622066
0.026388157 -0.068098471 0.66632622
0.026388157 -0.068098471 0.66632622
0.02555893 -0.066453204 0.66650325
0.02303198 -0.062271655 0.66676211
0.02044596 -0.05963403 0.66649139
-0.0017079068 -0.0563609 0.66698349
-0.00085255952 -0.05626893 0.66664696
0.0025583759 -0.053725898 0.6667031
0.0042577339 -0.053647399 0.66640246
-0.0085732061 -0.066442043 0.66779643
0.025742674 -0.064356655 0.66798192
0.017525682 -0.055568069 0.66721046
0.012860353 -0.051441371 0.66780519
0.025806403 -0.063655764 0.66849482
0.02149174 -0.057597846 0.66836351
0.010317162 -0.049435988 0.66838616
0.010317162 -0.049435988 0.66838616
-0.010390298 -0.078793079 0.6698575
-0.0094899861 -0.065567166 0.66910142
-0.007794477 -0.058891594 0.66990459
-0.0034563628 -0.05270952 0.66943091
-0.0025873391 -0.052609235 0.66903389
0.015548746 -0.050101489 0.66936529
0.0034504279 -0.048305959 0.66907263
-0.011283766 -0.068570554 0.67037034
0.028635863 -0.066382498 0.67031509
0.01908361 -0.051612005 0.67023867
0.01908361 -0.051612005 0.67023867
0.014754467 -0.047735035 0.67035294
0.0034812524 -0.04438594 0.67093307
0.0078256847 -0.044345558 0.67074174
0.0078256847 -0.044345558 0.67074174
0.027947532 -0.062881947 0.67166877
0.026998395 -0.061834991 0.67107862
-0.004368132 -0.048485875 0.6717329
-0.00087129814 -0.046178788 0.67117089
0.016611302 -0.0463368 0.67189056
0.016611302 -0.0463368 0.67189056
-0.011417498 -0.061478794 0.67285377
-0.010538217 -0.058398962 0.67283344
0.022784205 -0.052578926 0.67238218
-0.0074516786 -0.051718846 0.67244864
-0.0052534528 -0.048594058 0.67220354
-0.0043932269 -0.045689523 0.67294461
0.0026313062 -0.041223794 0.67257208
0.031662144 -0.070360333 0.67315197
0.020247955 -0.047538638 0.67335516
0.021189667 -0.047676742 0.67397249
0.0017648027 -0.038825631 0.67385143
0.010591507 -0.038835526 0.67390561
0.0052952305 -0.037949145 0.67388451
0.030032473 -0.064481467 0.67407036
-0.012413956 -0.059409618 0.67489189
-0.008835014 -0.050359577 0.67411697
-0.010682484 -0.050741762 0.67573589
0.024923759 -0.05073759 0.67571825
-0.0071132025 -0.043568373 0.67548078
0.016881667 -0.040426642 0.67532587
0.016881667 -0.040426642 0.67532587
0.010655186 -0.036405176 0.67518663
0.0071155797 -0.034688443 0.67555249
0.0035650015 -0.033867478 0.67598772
0.0044549983 -0.033857971 0.67592722
-0.010729904 -0.04828456 0.67668992
-0.0098120384 -0.047276169 0.67616957
0.021443866 -0.043781221 0.67652953
-0.0026804449 -0.035739273 0.67652643
-0.0017845988 -0.035691947 0.67624104
0.0098283086 -0.033505127 0.67652673
0.02785071 -0.053904593 0.67771626
0.02785071 -0.053904593 0.67771626
-0.01079441 -0.044976652 0.67798764
-0.009856848 -0.044803828 0.67715299
-0.0062903385 -0.036843389 0.67776692
-0.00089754938 -0.032311767 0.67750853
0.00044796313 -0.032267377 0.67721081
0.00044796313 -0.032267377 0.67721081
0.0098581184 -0.032262921 0.67718089
0.0026895991 -0.031378657 0.67726314
0.011687472 -0.023374945 0.67786741
0.031501137 -0.063902289 0.67810798
-0.013505735 -0.054022938 0.67819238
0.019810051 -0.038719594 0.67821044
0.014398655 -0.033296853 0.67807984
0.0062976903 -0.029689074 0.67802048
0.0054074707 -0.028839856 0.67840075
0.024495009 -0.043546677 0.67984378
0.018987434 -0.036166519 0.67910528
-0.0036265589 -0.029465377 0.67970312
0.012680991 -0.029437497 0.67949677
-0.0027209842 -0.028569907 0.67978877
0.0054286695 -0.0271433 0.6792537
-0.010027812 -0.035553157 0.68090528
-0.003641064 -0.027307957 0.68057859
-0.0018204725 -0.025486618 0.68057138
-0.0018238169 -0.024621516 0.68097508
0.0045473757 -0.023646355 0.68038762
0.027424328 -0.047535449 0.6815148
-0.012789311 -0.041564927 0.68136472
-0.0082362359 -0.030199498 0.68175465
0.016447565 -0.029240102 0.68142056
0.012776543 -0.026465684 0.68114448
0.012790962 -0.025581896 0.68139315
0.006398682 -0.016453683 0.68150353
0.007323992 -0.014647961 0.68184191
-0.010994598 -0.034816206 0.68201506
-0.0082643507 -0.027547836 0.68250883
-0.0055025788 -0.024761587 0.68222749
-0.0055025788 -0.024761587 0.68222749
0.0036688969 -0.020178914 0.68225837
0.0045853476 -0.019258469 0.68222106
0.010095611 -0.013766706 0.68239331
-0.015695795 -0.047548726 0.68372095
0.025774222 -0.041422844 0.68305123
0.023068635 -0.03506431 0.68359137
-0.011975593 -0.03408438 0.68321812
0.019404491 -0.028644711 0.68389988
0.014752608 -0.023050934 0.6834206
-0.0018441168 -0.019363195 0.68342549
0.011069801 -0.012914747 0.68352807
-0.014806906 -0.040718973 0.68423992
-0.012031145 -0.031466067 0.68424976
-0.0074174185 -0.021325082 0.68466139
-0.0046268846 -0.019432902 0.68422663
0.0027743962 -0.016646326 0.68408704
0.0027850827 -0.014853716 0.68494707
0.0092661763 -0.0092661977 0.68452621
0.027893472 -0.043699771 0.68529022
-0.0092997933 -0.022319466 0.68533778
-0.003723724 -0.015825808 0.68556762
-0.0018579076 -0.015792191 0.68509018
0.021479111 -0.028016239 0.6862781
0.014968418 -0.017774999 0.68667686
-0.00093354331 -0.01306957 0.68619817
0.010264227 -0.0074648857 0.68609393
0.0055994838 -0.0065327287 0.68612671
0.0055994838 -0.0065327287 0.68612671
-0.010309756 -0.019682229 0.68709326
0.00046998452 -0.0094010532 0.68778276
0.0084585771 -0.0028195083 0.68771881
-0.016991584 -0.037759036 0.68871707
-0.013209794 -0.021701783 0.68861568
0.01788535 -0.018826663 0.68807912
0.013204813 -0.012261599 0.68852979
-0.0037797436 -0.0085043907 0.68894863
0.0028258103 -0.0075354874 0.68822455
0.0028258103 -0.0075354874 0.68822455
-0.015138874 -0.025546819 0.68924892
0.018942576 -0.017995417 0.68947804
-0.010415972 -0.014203608 0.6894244
-0.0085108196 -0.012293398 0.68912017
0.00047372581 -0.0056855381 0.68959022
0.026641849 -0.033302277 0.69053197
0.026641849 -0.033302277 0.69053197
0.023752404 -0.025652617 0.69019449
0.018114707 -0.014301062 0.69099337
-0.0066541103 -0.0076046586 0.69031298
0.0076107127 0.0028540492 0.69049442
-0.018188456 -0.031590462 0.69193047
-0.017208716 -0.026769131 0.69162935
0.023899533 -0.023899525 0.69161522
-0.013361681 -0.015270442 0.69123483
-0.011473529 -0.010517359 0.69165045
-0.0066908719 -0.00477916 0.69158083
0.0066819368 0.0047728121 0.69127262
-0.014418395 -0.013457149 0.69288146
-0.0028817302 2.9802322e-08 0.69272465
0.0028781276 0.0038375258 0.69243479
0.0028781276 0.0038375258 0.69243479
0.0086432993 0.0057622194 0.69267392
-0.020277061 -0.035726219 0.69393116
0.024052285 -0.022128075 0.69309032
0.022168169 -0.017349005 0.69351083
-0.01641489 -0.016414881 0.69393295
-0.013518092 -0.0086902082 0.69393206
0.015409758 -0.0067417622 0.69333619
0.013506885 -0.0038591027 0.69373882
0.002890832 0.0067453086 0.69345713
0.028017227 -0.085983887 0.6940608
-0.019385107 -0.028108358 0.69481981
0.018355122 -0.009660542 0.69404817
-0.0067668818 0.00096669793 0.6942023
-0.0048399204 0.0029039681 0.69451296
0.0067874696 0.011635691 0.69491237
-0.020379787 -0.029113948 0.69511211
-0.012641164 -0.0029171705 0.69557846
0.012647427 0.00048705935 0.69569468
0.012647427 0.00048705935 0.69569468
0.0087393811 0.0097104609 0.69525129
0.0048534595 0.012619019 0.69516665
-0.02048859 -0.026342481 0.69636297
-0.010734295 0.0019516945 0.69641072
-0.0087787025 0.0039016604 0.69630599
-0.00097520219 0.0078016818 0.69625551
-0.0029374806 -0.09008272 0.69721115
-0.018650835 -0.013742685 0.69780564
0.022587607 -0.011784792 0.69791353
-0.016699251 -0.0058938563 0.69797122
-0.0078339251 0.006854713 0.69723052
0.00049318385 -0.091609925 0.69863367
0.0049268077 -0.087697163 0.69870824
-0.010813721 0.0058984458 0.69815391
-0.010813721 0.0058984458 0.69815391
-0.0098643769 0.008877933 0.69896805
-0.00098528399 0.01280874 0.69868952
0.0019729065 0.018742621 0.69897181
0.0069153104 -0.088416643 0.69932139
0.00493612 -0.086875692 0.69915783
-0.024752686 -0.025742769 0.69985402
-0.020774251 -0.018795729 0.69964701
-0.0039542327 0.013839841 0.69947994
-0.00197529 0.013827056 0.69925952
0.0039493013 0.020733863 0.69918227
-0.020809468 -0.01783669 0.7000519
-0.019831974 -0.011899173 0.70021397
-0.012914483 0.0089408159 0.70065415
0.012917663 0.0089430213 0.70071322
-0.0099209026 0.011905104 0.7003327
0.0039745392 0.023847252 0.70070553
0.01394567 -0.08965072 0.70130539
0.014929841 -0.089579016 0.7011131
0.015960725 -0.087783933 0.70164961
-0.021941183 -0.015957206 0.7015968
0.018930715 0.00099635124 0.70136189
-0.010955481 0.01294744 0.70126516
0.00099805463 0.023953319 0.70177257
0.0099903503 -0.088914081 0.70200932
0.021064188 -0.0010030568 0.70298022
-0.0080195004 0.019046307 0.70283079
-0.0060010399 0.019003332 0.7022841
-0.021145321 -0.0070483983 0.70391291
0.01810365 0.0060345829 0.70363235
-0.01507262 0.012058079 0.7034111
-0.015099729 0.013086468 0.70384735
0.012041941 0.014048934 0.70308608
-0.0040197847 0.022108853 0.70343637
0.0030201159 0.030201197 0.703861
-0.023188559 -0.011090159 0.70422149
0.01414373 0.014143735 0.7047208
-0.012091897 0.018137872 0.70409113
-0.0010102909 0.026267588 0.7047267
-0.025362356 -0.010144919 0.70574147
-0.025362356 -0.010144919 0.70574147
-0.018207883 0.0091039538 0.70503044
-0.018269714 0.011164874 0.70585978
-0.014178714 0.018229812 0.70532405
-0.011146193 0.022292405 0.70545089
-0.0070943539 0.025336981 0.70549643
-0.0010137132 0.028384 0.70555294
-0.0010137132 0.028384 0.70555294
0 0.032492816 0.70596015
0.031582385 -0.035657525 0.70677775
-0.022412485 -0.0040749907 0.70676875
-0.014258193 0.021387339 0.7066946
-0.0010169272 0.030507833 0.70632887
0.0060963347 0.031497747 0.70611846
0.019409904 0.0091941953 0.70745069
0.016352795 0.015330791 0.70756549
-0.014284828 0.022447586 0.70715392
-0.0081665218 0.028582871 0.70726752
-0.0061392453 0.030696213 0.70784509
0.0030688944 0.037849724 0.7077865
-0.019508604 0.015401542 0.70870477
-0.01335775 0.027743042 0.70888603
-0.0092171235 0.029699683 0.70806646
-0.0051236865 0.031766891 0.70821434
-0.0010247205 0.035865247 0.70821029
-0.0010247205 0.035865247 0.70821029
0.030959472 -0.027863532 0.7099635
-0.026822027 -0.003094852 0.70987517
0.012364407 0.024728805 0.70957363
-0.015434596 0.025724351 0.70923698
-0.0051458385 0.033962548 0.70928401
-0.0082512647 0.034036487 0.7098248
-0.0010314633 0.040227056 0.70983821
-0.02381024 0.0031057 0.710747
-0.021683615 0.011358112 0.71010131
0.013447333 0.024825841 0.71054959
0.011387175 0.027950406 0.71073979
-0.0082856622 0.036249757 0.71086287
-0.027046192 0.0020804703 0.71195662
-0.02385278 0.0041483343 0.7111935
-0.021781515 0.014521033 0.7112267
0.014547185 0.024938077 0.71167815
-0.016607834 0.029063731 0.71141374
-0.015552035 0.030067265 0.71112716
0.0031151189 0.044650048 0.71150637
0.028129002 -0.018752664 0.71233726
-0.019776285 0.023939729 0.71210605
-0.007290246 0.039575607 0.7122525
-0.0020857754 0.044844151 0.7125963
0.0020832482 0.046873122 0.71229118
-0.023059843 0.01677081 0.71387267
0.0073302202 0.037698328 0.71363115
-0.007321578 0.041837633 0.71333307
0.019965926 0.017864257 0.71451569
0.014722495 0.029445022 0.71470118
-0.0094498442 0.043049335 0.7143091
0.0020987322 0.050369591 0.71416026
0.029508498 -0.016862005 0.71524882
-0.02848402 0.0073847473 0.71551168
-0.02848402 0.0073847473 0.71551168
-0.025337186 0.01266861 0.71569335
0.015815051 0.028467119 0.71536028
-0.021135459 0.030646443 0.7159484
-0.026435515 0.012689054 0.71610481
-0.024324683 0.01692155 0.71614695
-0.023338716 0.025460452 0.71693295
-0.022202266 0.027488559 0.71606386
-0.022202266 0.027488559 0.71606386
0.011643487 0.037047476 0.7163651
0.011643487 0.037047476 0.7163651
-0.0042375093 0.04979074 0.71657723
-0.022353124 0.031933069 0.71779811
-0.019166835 0.040463328 0.71789217
-0.019166835 0.040463328 0.71789217
-0.0085015502 0.049946606 0.7173779
-0.027703114 0.015982598 0.71805644
-0.02664737 0.017054349 0.71815068
0.0053379568 0.04910925 0.71856022
-0.0042760591 0.055588812 0.7189039
-0.003201572 0.057628334 0.71846348
-0.024629541 0.026771247 0.71934688
-0.018213095 0.04606843 0.71946973
-0.013902596 0.050263286 0.71900427
0.013980045 0.039789349 0.72044253
0.013980045 0.039789349 0.72044253
-0.011825813 0.054828793 0.72036672
-0.00537343 0.056958377 0.72027302
0.019399598 0.028021693 0.72101408
-0.022701714 0.042160302 0.72180563
-0.021554179 0.043108374 0.72100288
0.0097252717 0.048626363 0.72169739
-0.016208436 0.054028153 0.72169179
-0.026018456 0.029270798 0.72254634
-0.0097633088 0.060749471 0.72271776
-0.021751797 0.048941582 0.72338831
-0.0076035759 0.061914891 0.72305882
-0.011981353 0.062085211 0.72378045
0.0010874101 0.067419469 0.72334492
0 0.06847471 0.72322178
-0.027294399 0.030569732 0.72439897
0.0098396819 0.053571612 0.72476643
-0.0087326448 0.064403296 0.72435176
-0.0032730855 0.070916861 0.72421849
-0.026353512 0.039530277 0.72591674
-0.026391275 0.040686578 0.7262966
-0.024170116 0.049438864 0.72605646
-0.020899154 0.058297664 0.72637361
-0.013201439 0.06710732 0.72641337
-0.001099105 0.074739158 0.72616833
0.016553262 0.044142067 0.72724164
0.0099602072 0.058654577 0.72799945
0.0044210479 0.065210491 0.72765481
-0.011053499 0.070742458 0.72767597
0.004433427 0.066501409 0.7284019
-0.0099647474 0.071967632 0.72812122
-0.0055491831 0.078798413 0.72875917
-0.028976845 0.041236281 0.72988355
-0.028976845 0.041236281 0.72988355
-0.016691161 0.0712156 0.72946107
0 0.079004496 0.72945994
-0.0033415614 0.082425177 0.72972906
0.017884407 0.044711024 0.73067576
0.011161647 0.060272902 0.73028684
-0.020134352 0.070470244 0.73086882
-0.0055822427 0.082617223 0.73035544
0.024696657 0.017961234 0.73183459
-0.013469815 0.078573912 0.73181272
-0.013469815 0.078573912 0.73181272
-0.025919251 0.063107759 0.73288441
0.009004036 0.067530274 0.73254174
-0.020258989 0.074282974 0.73254049
0.0045091789 0.074401498 0.73297393
-0.014709312 0.082598448 0.73398566
-0.0045212191 0.090424389 0.73370063
0.011351358 0.066973001 0.73486698
-0.023788417 0.072498083 0.73429859
-0.018152123 0.081684619 0.73471534
-0.0090592597 0.084930569 0.73420823
0.013640382 0.062518388 0.73524421
0.0045487988 0.078466803 0.73536521
0.001137241 0.083018601 0.73537517
-0.011393853 0.087732702 0.73589283
-0.016005628 0.088030964 0.73682809
0.022907473 0.029779732 0.7373386
-0.032119576 0.056209266 0.73776203
0.014874604 0.06178683 0.73705524
0.022979222 0.031021953 0.73820472
-0.027556464 0.07233575 0.73801756
-0.024122201 0.081556052 0.73813587
0.0057427217 0.081546664 0.73810405
0.0034499569 0.085098982 0.73845202
0.010397186 0.076246053 0.73972118
0.010397186 0.076246053 0.73972118
0.0080936886 0.080936909 0.73996228
-0.033628289 0.061458617 0.74077213
0.00812105 0.082370669 0.74090588
-0.02553135 0.085878223 0.74099422
-0.031368416 0.065060467 0.74130261
-0.03021476 0.070888519 0.74137819
0.0069681057 0.084778607 0.7411958
0.022195179 0.039717734 0.74284142
0.01051223 0.080593765 0.74280721
0.022276938 0.041036516 0.74388027
-0.031675998 0.071564317 0.74405283
0.022371298 0.042387754 0.74507928
0.022508267 0.043831915 0.74681967
-0.033263482 0.077218831 0.74762499
-0.035717122 0.076196551 0.74825013
0.017130464 0.069745481 0.75622517
0.020803552 -0.068859518 0.66171777
0.005454055 -0.06318365 0.66167927
-0.0029324833 -0.067016602 0.66306412
-0.0013908925 -0.066888541 0.66225696
0.022654016 -0.067542054 0.66338247
0.0045861406 -0.062540233 0.66213489
0.0014002591 -0.061054282 0.66366303
0.0071016541 -0.06099166 0.66253269
-0.0084698489 -0.073051624 0.6653012
-0.0084961783 -0.071367875 0.66593683
0.026257545 -0.070726074 0.66530907
0.020697005 -0.06293384 0.66476297
-0.0012729772 -0.058964215 0.66564548
0.014903813 -0.058770355 0.66448545
-0.0071771913 -0.064843051 0.66707581
0.021311052 -0.056827344 0.66869324
-0.0012945501 -0.051120788 0.66912287
0.013206637 -0.049132779 0.6691283
0.0090735005 -0.047095008 0.66944188
0.0090735005 -0.047095008 0.66944188
-0.013071728 -0.077123024 0.67120719
-0.011276456 -0.068959557 0.67023456
0.030534759 -0.069356784 0.67144215
0.020345014 -0.051152211 0.67131996
0.0013107111 -0.043406542 0.67181391
-0.012342393 -0.063034087 0.67365789
0.028145868 -0.061128676 0.67316508
0.026409358 -0.057218682 0.673347
-0.0064614429 -0.047283262 0.67352664
0.0013224017 -0.039383709 0.67368948
0.031004449 -0.066438079 0.67468196
-0.012873277 -0.060918011 0.67513251
-0.011503175 -0.057073116 0.67444491
-0.0093171783 -0.049131576 0.6750263
-0.006233871 -0.041410357 0.6758194
0.011127094 -0.035605997 0.67572218
0.030507375 -0.061462536 0.67744243
-0.013123693 -0.056666106 0.676826
-0.012992505 -0.055100068 0.67712027
0.021173447 -0.042941749 0.67680597
0.01684281 -0.037266988 0.67709744
0.011149717 -0.034786373 0.67615891
0.011149717 -0.034786373 0.67615891
0.01305272 -0.034953762 0.67665005
-0.0031464125 -0.033258349 0.67782861
-0.015328402 -0.068977639 0.67850345
0.02811279 -0.051691234 0.67975724
0.016334627 -0.031761795 0.67990583
0.01313668 -0.02967035 0.67954183
0.0031746558 -0.025397763 0.67980528
0.012967847 -0.023219755 0.67922544
0.021817807 -0.038181126 0.68029106
-0.0070607131 -0.030860331 0.68076265
-0.015621138 -0.050998136 0.6826607
-0.015621138 -0.050998136 0.6826607
-0.01201257 -0.03234154 0.68390483
0.020600572 -0.031053632 0.68350524
0.020600572 -0.031053632 0.68350524
0.0010126694 -0.018967578 0.68311608
0.0045889923 -0.018814504 0.68239707
0.0045889923 -0.018814504 0.68239707
0.011919546 -0.01650393 0.68217725
0.015739696 -0.022683129 0.68434441
-0.0051172553 -0.017210908 0.68542576
-0.010639263 -0.01940012 0.68744767
0.002800724 -0.012136459 0.68620574
0.0088877846 -0.0051447749 0.68667418
0.025498025 -0.032580018 0.68881238
0.024889534 -0.030874174 0.68899381
-0.014642482 -0.025031574 0.68886805
0.022696253 -0.025059745 0.68912762
0.018482419 -0.01706028 0.68964839
0.016406134 -0.014828066 0.68932271
-0.0072261668 -0.012566726 0.68836522
0.012296481 -0.0089849085 0.68917727
-0.003315316 -0.0071032792 0.68948692
-0.003315316 -0.0071032792 0.68948692
-0.018139528 -0.036756158 0.69130874
-0.018159725 -0.034885943 0.69156545
-0.014337811 -0.016727045 0.69158447
0.0028555389 -0.0014273971 0.69061697
0.0047508962 0.0019003749 0.69021446
-0.018296659 -0.027203403 0.69330537
0.023035547 -0.020635247 0.69254065
-0.012543157 -0.007235989 0.69375825
-0.0071954117 -0.0033572093 0.69242418
-0.0071954117 -0.0033572093 0.69242418
0.011497608 -0.0028743744 0.69213498
0.0076625491 0.005746901 0.6920588
0.026088834 -0.026088834 0.69409502
0.026088834 -0.026088834 0.69409502
0.016827896 -0.0055010719 0.69519514
-0.012663117 -0.001948148 0.69598597
-0.0014512293 0.0038697571 0.69438004
0.0053217905 0.011127979 0.69442123
-0.016959418 -0.0094578071 0.69702089
-0.0094354665 0.0035790901 0.69646275
-0.009301682 0.0053854063 0.69719088
-0.0053952327 0.0093191266 0.69763243
0.0072416696 -0.089194566 0.69920146
0.023646979 -0.013300568 0.69869119
0.017383179 -0.088903785 0.70063508
-0.021243352 -0.015600185 0.70121807
0.019895144 -0.0014913529 0.70097649
-0.017251812 0.00099557149 0.70109582
0.016963951 0.0049893856 0.70173031
0.013275014 0.0092924535 0.70117855
-0.011434761 0.011434674 0.70086098
0.0099560656 0.013441503 0.70118153
-0.0034840531 0.017420232 0.70113438
-0.0083798096 0.020446789 0.7035858
-0.0083798096 0.020446789 0.7035858
0.0045043291 0.027024165 0.70245808
-0.024797972 -0.010626912 0.70517123
0.017159285 0.0090843439 0.70450437
-0.013204596 0.021330535 0.70604181
-0.0045715584 0.027428731 0.70607567
0 0.033568889 0.70640373
0.0050853393 0.033563226 0.70636284
-0.025638279 -0.0041021109 0.70840603
-0.016985171 0.02316083 0.70932764
-0.012867758 0.029337734 0.70933414
-0.0046255975 0.03340707 0.70897597
-0.0020612751 0.036588073 0.70963883
-0.0010287579 0.038578853 0.70918506
0.031074578 -0.026931256 0.71088982
0.028953608 -0.023265541 0.71046448
-0.022864703 0.010393053 0.71173126
-0.012943804 0.032617562 0.71080339
-0.026606565 0.0046956688 0.71271169
-0.02506637 0.0067893416 0.71296912
-0.022895616 0.011447817 0.71207047
0.017693687 0.019775331 0.71209347
0.013223307 0.028881252 0.71283907
-0.010965814 0.039162777 0.71294355
0.02841763 -0.015260547 0.71491808
-0.021010824 0.026789233 0.71444404
-0.017837502 0.033576518 0.71413589
-0.024927031 0.01697056 0.71688676
0.014859029 0.032902181 0.71705568
-0.015541124 0.043090604 0.71663094
-0.0068942388 0.049320281 0.71688169
-0.0068942388 0.049320281 0.71688169
-0.0010650462 0.058577538 0.71794581
-0.012865008 0.052532136 0.7196449
-0.003201572 0.057628334 0.71846348
0 0.062232137 0.71985799
0.029128384 -0.0086306036 0.7212733
0.016711295 0.035035864 0.72108901
-0.017193055 0.049430043 0.72024405
0.0064896815 0.052999109 0.72194552
-0.0091362055 0.055890903 0.72030652
-0.027135247 0.027135283 0.72286201
0.010851933 0.048833698 0.72280973
-0.0043565901 0.068616331 0.72376442
0.025223123 0.0071291178 0.72557747
0.015312662 0.043750495 0.72487831
-0.023011368 0.050954267 0.72536546
-0.010978606 0.066969514 0.72586787
-0.030828461 0.031379476 0.72662985
-0.020919684 0.058905974 0.7266345
0.0055431095 0.065408736 0.72846586
-0.0077596311 0.073162258 0.728441
-0.0011129667 0.080690876 0.72951484
-0.0027856422 0.08246249 0.72985065
-0.0027856422 0.08246249 0.72985065
0.024659039 0.017374292 0.73142177
-0.032478265 0.038638368 0.73119843
0.019058211 0.041479617 0.73147142
-0.029155038 0.044853926 0.73153812
-0.026829744 0.053100988 0.73070729
-0.024999922 0.060817629 0.73105514
0.011179832 0.060931012 0.73072588
-0.019042937 0.072811246 0.73125452
-0.019042937 0.072811246 0.73125452
0.02486176 0.020341456 0.73364639
0.022615086 0.024876624 0.73380911
-0.026985884 0.057345062 0.73227787
0.012444372 0.063353181 0.73394245
-0.026013229 0.065598577 0.73387086
-0.021405771 0.073230326 0.73281091
0.0026339011 0.077119812 0.73328364
-0.012932546 0.07984297 0.73231089
-0.012932546 0.07984297 0.73231089
-0.015431119 0.080919355 0.73341024
0.0068365918 0.076341957 0.7359041
-0.021007417 0.078917176 0.73495245
-0.017022248 0.082841605 0.73478985
-0.033186015 0.053212672 0.73709035
-0.03085291 0.054849625 0.73669314
-0.029706411 0.057127744 0.73665786
0.0079892687 0.075327396 0.73636091
0.0030519224 0.083153471 0.73708153
0.0030519224 0.083153471 0.73708153
-0.029853933 0.060856074 0.73802769
-0.027581867 0.072977588 0.73827308
-0.027081385 0.076630354 0.73902333
0.0011488926 0.087315857 0.73818815
0.01745397 0.058179945 0.74173832
-0.031368416 0.065060467 0.74130261
0.011601716 0.075411171 0.74091113
-0.030309374 0.073441923 0.7422567
0.0094086453 0.085853904 0.74475193
-0.032045066 0.080706149 0.7473529
0.01815833 0.062948912 0.75307477
0.017422743 0.077157915 0.76126534
0.00030973754 -0.069944516 0.66036582
-0.0018428013 -0.066319846 0.66275793
0.0059834551 -0.059105147 0.66358334
-0.0088598952 -0.070428416 0.66668481
0.014239037 -0.057473637 0.66500902
-0.013032524 -0.080855325 0.67415142
-0.010804563 -0.057693709 0.67342126
0.018296668 -0.045711335 0.67316264
0.016013242 -0.039143473 0.67559528
0.026054306 -0.050172158 0.67757684
0.021021126 -0.038143873 0.67956966
0.0017040101 -0.030134171 0.6780355
0.007252526 -0.019490778 0.67968524
0.017894553 -0.029877258 0.68202794
-0.015738277 -0.04559394 0.6843242
-0.014381735 -0.03400033 0.6859684
-0.0066363961 -0.021142248 0.68436444
0.0095682656 -0.0062298584 0.68650883
0.031254422 -0.052090704 0.68947196
0.02286157 -0.025381014 0.68918091
-0.010576995 -0.017172668 0.68834507
0.0025574595 -0.0023215327 0.69025624
-0.016542971 -0.011677355 0.69575185
0.018197998 -0.010156922 0.69364369
-0.00230953 0.0060782451 0.69555688
0.0061002681 -0.089631431 0.69826698
-0.013019569 0.0060986183 0.69954389
0.0056718155 0.02568358 0.70239216
-0.021982525 -0.0018239729 0.70667744
-0.020436622 0.0086859763 0.70751274
-0.0055782804 0.0261994 0.70564067
-0.0055782804 0.0261994 0.70564067
-0.015376539 0.023577362 0.70830262
-0.013889506 0.030070899 0.71019596
0.015716504 0.030551117 0.71661252
0.014458119 0.034230478 0.71745694
0.014711667 0.038751833 0.72069597
0.0032316097 0.059246212 0.72088075
0.0021983776 0.062136639 0.72156304
0.011457115 0.050195083 0.72425592
-0.010203106 0.069766186 0.72710735
-0.004785053 0.076553933 0.72738397
-0.002209038 0.077489279 0.72743368
-0.029925907 0.041540273 0.73039347
0.0096583162 0.062024713 0.72981226
-0.020217333 0.073007077 0.73198175
-0.02602846 0.065741435 0.73400033
-0.023603207 0.067437798 0.73216939
-0.018092413 0.078345723 0.73322654
-0.030381141 0.058039047 0.73758936
-0.022324745 0.082311176 0.73719472
0.0017872429 0.086170487 0.7376914
-0.030884968 0.069776565 0.74216944
-0.030884968 0.069776565 0.74216944
-0.028020445 0.084061354 0.74268484
