# .PCD v0.7 - Point Cloud Data file format
VERSION 0.7
FIELDS x y z
SIZE 4 4 4
TYPE F F F
COUNT 1 1 1
WIDTH 1358
HEIGHT 1
VIEWPOINT 0 0 0 1 0 0 0
POINTS 1358
DATA ascii
0.015463279 -0.059791356 0.70969862
0.015477693 -0.060878903 0.70993054
0.015492133 -0.061968535 0.71016306
0.015506665 -0.063060403 0.71039695
0.015521159 -0.064154088 0.71063024
0.015535682 -0.06524983 0.71086389
0.015550231 -0.066347629 0.71109807
0.015564936 -0.06744805 0.71133482
0.015579734 -0.068550825 0.711573
0.01559469 -0.069656253 0.71181363
0.015609674 -0.070763826 0.71205479
0.015624688 -0.071873516 0.71229643
0.015639793 -0.072985679 0.71253955
0.015654996 -0.074100286 0.71278423
0.015670227 -0.075217068 0.71302944
0.01568562 -0.076336652 0.71327716
0.016298117 -0.080404013 0.72313511
0.016307112 -0.081535518 0.72327995
0.01631633 -0.082669407 0.72342825
0.016325487 -0.08380416 0.72357565
0.016335009 -0.084942043 0.72372895
0.016344544 -0.086081266 0.72388238
0.0163543 -0.087222934 0.72403938
0.014716865 0.086461574 0.68288124
0.014685118 0.085357249 0.68240225
0.014694121 0.084491193 0.68253809
0.014704484 0.083631784 0.68269444
0.014714808 0.082770824 0.68285024
0.014725202 0.081908941 0.683007
0.014735555 0.081045568 0.68316329
0.014745977 0.080181271 0.68332052
0.01475636 0.079315454 0.68347716
0.014766812 0.078448683 0.68363488
0.014777225 0.077580482 0.683792
0.014787761 0.076711535 0.68395096
0.014798421 0.075841933 0.68411183
0.014809152 0.074971378 0.68427372
0.014819899 0.074099511 0.6844359
0.014830606 0.073226124 0.68459749
0.014841383 0.072351784 0.68476009
0.014852121 0.071475834 0.6849221
0.014862929 0.07059893 0.68508518
0.014873698 0.069720477 0.68524766
0.01488454 0.06884101 0.68541121
0.014895451 0.067960531 0.6855759
0.014906324 0.067078471 0.68573993
0.014917267 0.066195369 0.6859051
0.01492817 0.065310746 0.68606961
0.014939089 0.064424843 0.68623435
0.014950081 0.063537836 0.68640023
0.014961034 0.062649339 0.68656546
0.014972058 0.0617598 0.68673182
0.014983041 0.060868621 0.68689758
0.014994099 0.059976429 0.68706441
0.015005114 0.059082687 0.68723059
0.015016205 0.058187842 0.68739796
0.015027252 0.057291448 0.68756461
0.015038318 0.056393713 0.68773162
0.015049457 0.055494875 0.68789965
0.015060611 0.054594725 0.68806797
0.015072009 0.05369404 0.68823999
0.015083425 0.052792013 0.68841225
0.015094801 0.051888436 0.68858385
0.015106251 0.050983608 0.68875664
0.015117718 0.050077498 0.68892962
0.015129203 0.049169958 0.68910295
0.015140648 0.048260838 0.68927562
0.015152168 0.047350556 0.68944949
0.015163706 0.046438873 0.68962359
0.015175203 0.04552567 0.68979704
0.015186775 0.044611186 0.68997163
0.015198365 0.043695331 0.69014651
0.015209974 0.042778075 0.69032162
0.015221541 0.041859269 0.69049621
0.015233184 0.040939212 0.69067192
0.015244845 0.040017724 0.69084787
0.015256523 0.039094836 0.69102407
0.015251234 0.038128108 0.69094425
0.015257919 0.037191212 0.69104511
0.015269677 0.036265492 0.69122255
0.015281452 0.035338402 0.69140023
0.015293305 0.03440997 0.69157904
0.015305116 0.033479929 0.69175726
0.015316947 0.032548517 0.69193578
0.015328853 0.031615764 0.69211543
0.01534072 0.030681431 0.69229454
0.015352606 0.029745728 0.69247383
0.015364569 0.028808594 0.69265431
0.015376491 0.02786991 0.6928342
0.015388491 0.026929885 0.69301528
0.01540045 0.025988281 0.69319576
0.015412428 0.025045216 0.69337642
0.015424483 0.024100751 0.69355839
0.015436499 0.023154795 0.69373965
0.015448533 0.02220729 0.69392127
0.015460647 0.021258384 0.69410408
0.015472718 0.020307958 0.69428617
0.015484809 0.019356042 0.69446868
0.015496979 0.018402666 0.69465226
0.015509107 0.01744777 0.69483525
0.015521255 0.016491383 0.69501859
0.015533482 0.015533477 0.69520307
0.015545668 0.014574081 0.69538689
0.015558356 0.013613552 0.6955784
0.015571127 0.012651563 0.6957711
0.015583918 0.011687994 0.69596404
0.01559673 0.010722756 0.6961574
0.015609624 0.0097560287 0.69635195
0.015622479 0.0087876618 0.6965459
0.015635354 0.0078176856 0.69674021
0.015648251 0.0068461299 0.69693476
0.01566123 0.0058729649 0.69713062
0.015674293 0.0048982501 0.69732773
0.015687378 0.0039218664 0.69752514
0.015700482 0.0029438436 0.69772291
0.015713612 0.0019642115 0.69792104
0.0157267 0.00098291039 0.69811851
0.015739871 -0 0.69831723
0.015753064 -0.00098454952 0.69851625
0.015766282 -0.001970768 0.69871569
0.015779519 -0.0029586554 0.69891548
0.01579278 -0.0039481521 0.69911551
0.015806062 -0.0049393475 0.69931591
0.015819306 -0.0059322417 0.69951582
0.015832633 -0.0069267452 0.69971687
0.015845982 -0.0079229772 0.69991833
0.015859356 -0.008920908 0.70012009
0.01587275 -0.0099204183 0.70032215
0.015886169 -0.010921717 0.70052469
0.015899546 -0.011924654 0.70072651
0.01591301 -0.01292932 0.7009297
0.015926495 -0.013935655 0.70113319
0.015940005 -0.014943749 0.70133698
0.015953535 -0.015953511 0.70154119
0.01596709 -0.016965002 0.70174569
0.015980668 -0.017978251 0.70195061
0.015994204 -0.01899308 0.70215476
0.016007893 -0.020009845 0.70236135
0.016022181 -0.021029085 0.70257699
0.01603643 -0.022050083 0.70279193
0.016050708 -0.023072839 0.70300734
0.016065072 -0.024097621 0.70322412
0.016079398 -0.025124013 0.70344025
0.01609375 -0.026152343 0.70365685
0.016108193 -0.027182549 0.70387471
0.016122596 -0.028214544 0.70409214
0.016137024 -0.029248357 0.70430982
0.016151544 -0.030284107 0.70452893
0.016166026 -0.031321675 0.70474744
0.016180532 -0.03236106 0.70496631
0.016195131 -0.033402473 0.70518661
0.01620969 -0.034445584 0.70540631
0.016224276 -0.035490572 0.70562637
0.016238954 -0.036537647 0.70584786
0.016253857 -0.037587047 0.70607269
0.016268786 -0.038638324 0.70629793
0.01628381 -0.039691776 0.70652461
0.016298793 -0.040746957 0.70675069
0.016313806 -0.041804105 0.70697725
0.016328847 -0.04286322 0.70720422
0.016343981 -0.043924421 0.70743251
0.016359076 -0.04498744 0.70766026
0.016374201 -0.046052426 0.70788848
0.016389351 -0.047119379 0.70811713
0.016404599 -0.048188448 0.7083472
0.016419807 -0.049259424 0.70857668
0.016435245 -0.050332904 0.70880961
0.016450781 -0.051408678 0.70904398
0.016466413 -0.052486688 0.70927989
0.016482076 -0.053566694 0.70951617
0.016497836 -0.054649055 0.70975399
0.016513694 -0.055733711 0.70999336
0.016529718 -0.056820869 0.71023512
0.017176013 -0.060116053 0.71998692
0.017185379 -0.061222881 0.72012824
0.017194901 -0.062331498 0.72027194
0.017204508 -0.063441634 0.7204169
0.017214276 -0.064553469 0.72056425
0.017224275 -0.06566754 0.72071517
0.017234361 -0.06678313 0.7208674
0.017244682 -0.067900896 0.72102302
0.017255014 -0.069020003 0.72117901
0.017265508 -0.070141137 0.72133732
0.017276388 -0.071265101 0.72150147
0.017287355 -0.072390765 0.72166693
0.017298337 -0.073517919 0.72183263
0.017309334 -0.074646473 0.72199857
0.01732027 -0.07577616 0.72216356
0.017331367 -0.076907903 0.72233105
0.01734248 -0.078041136 0.72249871
0.017353082 -0.079173416 0.72265869
0.017363319 -0.080305338 0.72281319
0.017373189 -0.081436813 0.72296208
0.017382471 -0.082566708 0.72310209
0.017391382 -0.083695978 0.72323656
0.017399622 -0.084823132 0.72336096
0.017406961 -0.085946888 0.7234717
0.017413171 -0.087065816 0.7235654
0.017446488 -0.088322818 0.72406811
0.015678171 0.086691082 0.68347061
0.015642535 0.085573882 0.68296456
0.015644722 0.084665567 0.68299562
0.015656009 0.08380568 0.68315595
0.015667371 0.08294493 0.68331718
0.015678691 0.08208254 0.683478
0.015690027 0.081218988 0.68363899
0.015701439 0.080354452 0.68380105
0.015712809 0.079488367 0.68396258
0.015724253 0.078621268 0.68412507
0.015735656 0.07775265 0.68428701
0.015747134 0.076883078 0.68445003
0.015758568 0.076011956 0.68461239
0.015770022 0.075139552 0.68477499
0.01578155 0.074266136 0.68493873
0.015793037 0.073391199 0.68510181
0.015804596 0.072515219 0.68526608
0.015816117 0.07163775 0.68542957
0.015827712 0.070759237 0.68559432
0.015839266 0.069879115 0.68575841
0.015851073 0.068998784 0.68592608
0.015862957 0.06811741 0.68609482
0.015874857 0.067234725 0.68626386
0.015886717 0.0663504 0.68643224
0.015898654 0.065465063 0.68660176
0.015910609 0.064578384 0.68677151
0.01592258 0.063690335 0.6869415
0.015934512 0.062800765 0.68711102
0.01594652 0.061910033 0.68728149
0.015958548 0.06101799 0.68745232
0.015970593 0.060124606 0.68762338
0.015982596 0.059229642 0.68779385
0.015994677 0.058333516 0.68796539
0.016006777 0.057436109 0.68813723
0.016018895 0.0565373 0.68830937
0.016031092 0.05563736 0.68848252
0.016043307 0.054736018 0.68865597
0.016055482 0.053833067 0.68882895
0.016067734 0.052929014 0.68900287
0.016080005 0.05202356 0.68917716
0.016092297 0.051116735 0.68935168
0.016104544 0.0502083 0.6895256
0.016116871 0.049298674 0.68970072
0.016129339 0.048388034 0.68987775
0.016142013 0.04747653 0.69005775
0.016154643 0.046563387 0.6902371
0.016167354 0.045648992 0.69041765
0.016180024 0.044733047 0.69059753
0.016192777 0.043815732 0.69077867
0.016205486 0.042896926 0.69095916
0.016218217 0.041976571 0.69113994
0.016231028 0.041054934 0.69132191
0.016243799 0.040131778 0.69150317
0.016256651 0.03920725 0.6916858
0.01625547 0.038248181 0.69166899
0.016255969 0.037293166 0.69167602
0.01626859 0.036365122 0.69185531
0.016281171 0.035435528 0.69203395
0.01629377 0.034504473 0.69221294
0.016306452 0.033572108 0.692393
0.016319091 0.032638192 0.69257253
0.016331751 0.031702816 0.6927523
0.016344931 0.030766934 0.69293946
0.016358195 0.029829681 0.69312781
0.016371544 0.028890967 0.69331741
0.016384978 0.027950883 0.69350815
0.016398435 0.027009249 0.69369924
0.016411914 0.026065975 0.69389075
0.016425414 0.025121242 0.69408244
0.016438937 0.024174958 0.69427443
0.016452419 0.023226947 0.69446594
0.016465986 0.022277534 0.69465858
0.016479576 0.021326542 0.69485152
0.016493188 0.02037397 0.69504488
0.016506823 0.019419819 0.69523847
0.01652048 0.018464088 0.69543248
0.016534161 0.017506778 0.69562674
0.016547797 0.016547799 0.69582045
0.016561523 0.01558733 0.6960153
0.016575271 0.014625281 0.69621056
0.016589042 0.013661593 0.69640619
0.016602835 0.012696326 0.69660205
0.016616654 0.011729389 0.69679826
0.016630428 0.010760903 0.69699383
0.01664429 0.0097907782 0.69719076
0.016658176 0.0088190436 0.69738793
0.016672084 0.0078456998 0.69758546
0.016686017 0.0068707466 0.69778335
0.016699973 0.0058940947 0.69798154
0.016713951 0.0049158633 0.69818002
0.016727889 0.0039359927 0.69837785
0.016741915 0.0029544532 0.69857717
0.016755965 0.0019713342 0.6987766
0.016770037 0.00098648667 0.69897646
0.016784133 2.9802322e-08 0.69917667
0.016798254 -0.0009881258 0.69937724
0.01681233 -0.0019778907 0.69957709
0.016826632 -0.002969414 0.69978023
0.016841423 -0.0039626658 0.69999027
0.016856309 -0.0049577057 0.70020163
0.016871152 -0.005954504 0.70041251
0.016886024 -0.0069530606 0.70062363
0.016900986 -0.0079533756 0.70083618
0.016915912 -0.0089554489 0.70104808
0.016930927 -0.0099593401 0.70126128
0.016945904 -0.01096496 0.70147407
0.016960906 -0.011972398 0.7016871
0.016975936 -0.012981564 0.70190054
0.01699106 -0.013992637 0.7021153
0.017006345 -0.015005589 0.70233238
0.017021729 -0.016020447 0.70255077
0.017037207 -0.017037183 0.70277059
0.017052645 -0.018055707 0.70298988
0.017068112 -0.019076109 0.70320952
0.017083606 -0.020098299 0.70342958
0.017099198 -0.021122545 0.70365095
0.017114747 -0.02214849 0.70387185
0.017130326 -0.023176312 0.7040931
0.017145935 -0.024206012 0.70431477
0.01716157 -0.02523756 0.7045368
0.017177304 -0.026271135 0.70476025
0.017192999 -0.027306527 0.70498312
0.01720872 -0.028343737 0.70520639
0.01722447 -0.029382914 0.70543003
0.017240319 -0.030424058 0.7056551
0.01725613 -0.03146705 0.70587963
0.017272037 -0.032512039 0.70610547
0.017288186 -0.033559412 0.70633489
0.017304434 -0.034608871 0.70656562
0.017320713 -0.035660267 0.70679682
0.017337164 -0.036713988 0.70703042
0.017353717 -0.037769854 0.7072655
0.018033009 -0.040309101 0.71691233
0.018042803 -0.041392297 0.71705139
0.01805268 -0.042476922 0.7171917
0.018062571 -0.043562621 0.71733207
0.018072627 -0.044649988 0.71747494
0.018083001 -0.045739353 0.71762228
0.018093385 -0.046829909 0.71776974
0.018104091 -0.047922611 0.71792173
0.018114809 -0.049016535 0.71807396
0.018125616 -0.050111979 0.71822745
0.018136902 -0.051210046 0.71838766
0.018148202 -0.052309513 0.71854818
0.018159593 -0.05341056 0.71870995
0.018170999 -0.054512948 0.71887189
0.018182341 -0.055616558 0.719033
0.01819385 -0.056721985 0.71919644
0.018205378 -0.057828814 0.71936017
0.018216528 -0.058935851 0.71951854
0.018227458 -0.060043365 0.71967369
0.018237697 -0.061149895 0.71981913
0.018247634 -0.062256575 0.71996021
0.018257035 -0.063362628 0.72009373
0.018265739 -0.064467311 0.72021729
0.018273823 -0.065570742 0.72033215
0.018280812 -0.066671193 0.72043139
0.018285999 -0.067765743 0.72050506
0.018290089 -0.068856776 0.72056317
0.018300319 -0.0699718 0.72070849
0.018310564 -0.071088016 0.72085392
0.018320737 -0.072205245 0.72099841
0.018331002 -0.073323995 0.7211442
0.0183412 -0.074443698 0.72128904
0.018351488 -0.075564891 0.72143507
0.018361708 -0.076687127 0.72158027
0.018372022 -0.077810913 0.72172666
0.018382343 -0.078935951 0.72187334
0.018392598 -0.080061883 0.7220189
0.018402945 -0.081189483 0.72216582
0.018413221 -0.082317919 0.72231185
0.018423591 -0.083448023 0.72245902
0.018433973 -0.084579378 0.72260648
0.018444287 -0.085711658 0.72275293
0.01845469 -0.086845577 0.72290069
0.018469116 -0.08799988 0.72310549
0.016649209 0.086945891 0.68412501
0.016609048 0.085813433 0.68358642
0.016602313 0.084856302 0.68349612
0.016614502 0.083995551 0.68365955
0.016626833 0.083134174 0.68382496
0.016639242 0.082271844 0.68399137
0.01665161 0.081407875 0.68415725
0.016664056 0.080542952 0.6843242
0.016676523 0.079676747 0.6844914
0.016689006 0.078809232 0.68465883
0.016701449 0.077940136 0.68482566
0.016713969 0.077069968 0.68499362
0.016726509 0.076198578 0.68516183
0.016739069 0.075325847 0.68533027
0.016751586 0.074451506 0.68549812
0.016764183 0.073576152 0.6856671
0.016776798 0.072699487 0.68583632
0.016789433 0.071821481 0.68600571
0.016802024 0.070941925 0.68617463
0.016814696 0.070061237 0.68634462
0.01682739 0.069179296 0.68651479
0.0168401 0.068296015 0.68668532
0.016852768 0.067411095 0.68685526
0.016865518 0.066525161 0.68702626
0.016878286 0.065637797 0.68719751
0.016891075 0.064749151 0.68736899
0.01690382 0.063858896 0.68753999
0.016916964 0.062968731 0.68771625
0.016930064 0.062076926 0.68789196
0.016943252 0.061183989 0.68806881
0.016956395 0.060289443 0.68824512
0.016969621 0.059393704 0.68842256
0.016982803 0.058496356 0.68859935
0.016996007 0.057597607 0.68877637
0.017009296 0.056697667 0.68895465
0.017022541 0.055796146 0.68913233
0.017035872 0.054893404 0.68931109
0.017049158 0.053989023 0.68948931
0.01706253 0.05308342 0.68966866
0.017075857 0.052176237 0.68984735
0.017089272 0.051267833 0.6900273
0.017102642 0.050357789 0.69020665
0.017116098 0.049446523 0.69038707
0.017129511 0.048533618 0.69056702
0.017143009 0.047619492 0.69074798
0.017156592 0.046704054 0.69093025
0.0171702 0.045787245 0.6911127
0.017183762 0.044868708 0.69129467
0.017197477 0.043949127 0.69147855
0.017211476 0.043028712 0.69166636
0.017225567 0.042106956 0.69185537
0.017239612 0.041183561 0.69204372
0.017253682 0.040258616 0.69223243
0.017267775 0.039332181 0.69242144
0.01727082 0.03837961 0.69246233
0.017268172 0.037414402 0.69242674
0.017282287 0.036484838 0.69261605
0.017296426 0.035553783 0.69280571
0.017310588 0.034621209 0.69299561
0.017324772 0.033687055 0.69318593
0.017338915 0.032751292 0.69337559
0.017353145 0.031814128 0.69356644
0.017367402 0.030875415 0.69375765
0.017381679 0.029935122 0.69394916
0.017395983 0.028993309 0.69414103
0.017410308 0.028049976 0.69433308
0.017424589 0.027104914 0.69452471
0.017438961 0.026158482 0.69471747
0.017453359 0.02521047 0.69491053
0.017467778 0.024260849 0.69510388
0.017482223 0.023309678 0.69529766
0.017496692 0.022356927 0.69549173
0.017511183 0.021402597 0.6956861
0.017525699 0.020446658 0.69588083
0.01754017 0.01948908 0.6960749
0.017554734 0.018530011 0.69627023
0.017569322 0.017569363 0.69646585
0.017583935 0.016607076 0.69666183
0.017598571 0.015643209 0.69685817
0.017613234 0.014677703 0.69705486
0.017628057 0.013710737 0.69725364
0.01764339 0.01274246 0.69745934
0.017658819 0.011772603 0.69766623
0.017674206 0.010800928 0.69787264
0.017689619 0.0098276138 0.69807935
0.017705128 0.0088526011 0.69828737
0.017720593 0.0078758597 0.69849479
0.017736228 0.0068974495 0.69870448
0.017752029 0.0059173703 0.69891644
0.01776793 0.0049355626 0.69912964
0.017783787 0.0039519668 0.69934237
0.017799674 0.0029666126 0.69955546
0.017815588 0.0019795597 0.69976884
0.017831532 0.000990659 0.6999827
0.017847573 2.9802322e-08 0.70019782
0.017863575 -0.00099238753 0.70041251
0.017879603 -0.001986593 0.70062745
0.017895661 -0.0029825866 0.70084286
0.01791182 -0.0039803386 0.70105952
0.017927935 -0.0049799681 0.70127571
0.017944079 -0.0059813261 0.70149219
0.017960254 -0.0069845319 0.70170915
0.01797653 -0.0079895556 0.70192748
0.017992761 -0.0089963675 0.70214516
0.018009024 -0.010004997 0.70236331
0.018025314 -0.011015475 0.70258176
0.018041635 -0.01202774 0.70280063
0.018058058 -0.013041914 0.70302093
0.01807444 -0.014057904 0.70324063
0.018090848 -0.015075684 0.70346069
0.018107507 -0.016095519 0.70368421
0.018124342 -0.017117411 0.70390999
0.018141208 -0.01814118 0.70413619
0.018158253 -0.019167006 0.70436478
0.018869989 -0.020966619 0.71391082
0.018880036 -0.022026658 0.71404558
0.018890252 -0.023088068 0.71418262
0.01890056 -0.024150699 0.71432084
0.018910958 -0.025214583 0.71446025
0.018921526 -0.026279896 0.71460205
0.018932186 -0.027346462 0.71474499
0.018943256 -0.028414875 0.71489346
0.018954339 -0.02948454 0.71504211
0.018965594 -0.030555665 0.71519315
0.018977022 -0.03162834 0.7153464
0.018988706 -0.032702744 0.7155031
0.019000484 -0.033778608 0.71566105
0.019012276 -0.034855813 0.71581924
0.019024082 -0.035934329 0.71597755
0.019035904 -0.037014246 0.71613616
0.019047821 -0.038095623 0.71629596
0.019059591 -0.039178014 0.71645379
0.019070972 -0.040260911 0.71660644
0.019081719 -0.041343689 0.71675062
0.019092156 -0.042426974 0.71689051
0.019102117 -0.043510348 0.71702421
0.019111359 -0.044593126 0.71714813
0.019120123 -0.045675814 0.71726561
0.01912792 -0.046757102 0.71737027
0.019134177 -0.047835439 0.7174542
0.019138243 -0.04890883 0.71750867
0.019146299 -0.049993128 0.7176168
0.019156806 -0.051084816 0.7177577
0.019167406 -0.052177876 0.7178998
0.019177936 -0.053272009 0.71804106
0.019188559 -0.054367602 0.71818358
0.019199194 -0.055464298 0.71832621
0.019209759 -0.056562036 0.71846789
0.019220417 -0.057661206 0.71861088
0.019231007 -0.058761358 0.71875286
0.019241689 -0.059863001 0.71889615
0.0192523 -0.060965598 0.71903849
0.019263007 -0.062069654 0.71918207
0.019273724 -0.063174933 0.71932578
0.019284371 -0.064281195 0.71946865
0.019295113 -0.065388978 0.71961266
0.019305784 -0.066497684 0.71975589
0.01931655 -0.06760788 0.71990025
0.019327328 -0.068719357 0.72004473
0.019338034 -0.069831759 0.72018838
0.019348836 -0.07094568 0.72033322
0.019359566 -0.072060585 0.72047716
0.019370392 -0.07317704 0.72062242
0.019381231 -0.074294716 0.72076774
0.019391997 -0.075413316 0.72091216
0.019402858 -0.076533496 0.72105783
0.019413648 -0.077654541 0.72120249
0.019424533 -0.078777254 0.72134852
0.019435434 -0.079901189 0.72149467
0.019446259 -0.081026047 0.72163993
0.019457182 -0.082152545 0.72178644
0.019468034 -0.083279878 0.72193193
0.01947898 -0.084408909 0.7220788
0.01948994 -0.085539132 0.72222579
0.019500829 -0.086670339 0.72237182
0.019511811 -0.087803155 0.7225191
0.017632183 0.087232947 0.6848622
0.017588926 0.086093217 0.68431258
0.017570658 0.085079014 0.68408048
0.01758372 0.084216803 0.68424648
0.017596871 0.083353609 0.68441355
0.017610038 0.082489163 0.68458086
0.017623227 0.081623405 0.68474841
0.01763637 0.080756009 0.68491542
0.017649598 0.079887688 0.68508351
0.017662846 0.079017997 0.68525183
0.017676245 0.07814762 0.68542212
0.017689796 0.077276468 0.68559432
0.017703434 0.076404303 0.68576759
0.017717026 0.075530499 0.68594027
0.01773064 0.074655354 0.6861133
0.017744342 0.073779136 0.6862874
0.017758062 0.072901517 0.68646175
0.017771874 0.072022885 0.68663716
0.017785704 0.071142823 0.68681294
0.017799491 0.07026118 0.68698812
0.017813364 0.069378406 0.68716443
0.017827261 0.068494231 0.68734097
0.017841179 0.067608684 0.68751788
0.017855052 0.066721529 0.68769407
0.017869012 0.065833241 0.68787146
0.017882995 0.064943522 0.68804914
0.017896933 0.064052224 0.68822622
0.017910959 0.063159734 0.6884045
0.017925007 0.062265843 0.68858302
0.01793908 0.061370552 0.68876177
0.017953103 0.060473621 0.68894005
0.017967219 0.059575558 0.68911928
0.017981561 0.05867669 0.68930155
0.017996062 0.057776839 0.68948585
0.018010585 0.056875557 0.68967032
0.018025132 0.055972785 0.68985522
0.018039703 0.055068642 0.69004035
0.018054297 0.05416292 0.69022578
0.018068915 0.053255796 0.69041151
0.018083557 0.052347153 0.69059759
0.018098222 0.05143708 0.69078392
0.018112911 0.050525516 0.69097054
0.018127624 0.049612433 0.69115752
0.018142361 0.048697919 0.6913448
0.018157123 0.047781885 0.69153231
0.018171908 0.04686439 0.69172019
0.018186716 0.045945376 0.69190836
0.01820155 0.045024902 0.69209683
0.018216476 0.044103086 0.69228655
0.018231358 0.043179542 0.69247562
0.018246265 0.042254537 0.69266498
0.018261265 0.041328162 0.6928556
0.018276501 0.040400684 0.69304919
0.018292045 0.039472312 0.69324672
0.018299088 0.038524389 0.69333619
0.018291835 0.037546396 0.69324404
0.01830684 0.036613703 0.69343472
0.018321799 0.035679311 0.69362473
0.018336855 0.034743547 0.69381607
0.018351933 0.033806205 0.69400769
0.018367037 0.032867312 0.69419956
0.018382166 0.03192693 0.69439185
0.01839732 0.030984998 0.69458437
0.018412713 0.030041844 0.69477999
0.01842856 0.029097736 0.69498134
0.018444506 0.028152168 0.69518399
0.018460697 0.027205229 0.69538969
0.018476913 0.026256651 0.69559574
0.018493231 0.025306553 0.69580305
0.018509505 0.024354637 0.69600987
0.018525809 0.023401052 0.696217
0.018542141 0.022445768 0.69642454
0.018558573 0.021488875 0.69663334
0.018574964 0.020530254 0.6968416
0.018591382 0.019569904 0.69705021
0.018607831 0.018607885 0.69725919
0.01862438 0.017644167 0.69746953
0.018640889 0.016678751 0.69767922
0.018657422 0.015711516 0.69788933
0.018673988 0.014742643 0.69809985
0.018690582 0.013772011 0.69831067
0.018707281 0.01279974 0.69852287
0.018723935 0.011825681 0.69873446
0.018740619 0.010849833 0.69894648
0.01875733 0.0098722875 0.69915879
0.018774148 0.008893013 0.69937247
0.018790919 0.00791201 0.69958556
0.018807724 0.006929189 0.69979912
0.018824557 0.0059446096 0.70001298
0.018841494 0.0049583018 0.70022821
0.018858388 0.0039702058 0.70044291
0.018875314 0.0029803514 0.70065796
0.018892268 0.001988709 0.70087337
0.018909328 0.00099527836 0.70109016
0.018926719 5.9604645e-08 0.70131111
0.018944219 -0.0009970367 0.70153344
0.019687578 -0.0020723641 0.71097887
0.019697938 -0.0031101406 0.71111053
0.019708391 -0.0041491389 0.71124339
0.019719021 -0.0051892102 0.71137846
0.019729743 -0.0062304437 0.71151465
0.019740557 -0.0072728097 0.71165204
0.019751631 -0.0083164573 0.71179283
0.019762965 -0.0093613863 0.71193677
0.019774392 -0.010407537 0.71208197
0.019785915 -0.011454999 0.71222842
0.019797534 -0.012503684 0.712376
0.019809579 -0.013553888 0.71252906
0.019821724 -0.014605433 0.71268338
0.019833883 -0.015658319 0.71283787
0.019846054 -0.016712487 0.71299261
0.019858243 -0.017767906 0.7131474
0.019870529 -0.018824697 0.71330351
0.019882664 -0.019882619 0.7134577
0.019894563 -0.020941615 0.71360898
0.019905977 -0.022001326 0.71375394
0.019916819 -0.023061544 0.71389169
0.01992734 -0.024122566 0.71402538
0.019937202 -0.025183827 0.71415073
0.019946238 -0.026245028 0.71426553
0.019954778 -0.027306497 0.71437407
0.019961819 -0.028366774 0.71446347
0.019966848 -0.029424787 0.71452737
0.019972302 -0.030484021 0.71459675
0.019983217 -0.031552434 0.71473539
0.019994145 -0.032622039 0.71487427
0.020004999 -0.033692598 0.71501219
0.020015951 -0.034764498 0.71515131
0.020026829 -0.035837471 0.71528959
0.020037804 -0.036911726 0.71542901
0.020048792 -0.037987173 0.7155686
0.020059705 -0.039063632 0.7157073
0.020070717 -0.040141404 0.71584719
0.020081654 -0.041220218 0.71598619
0.02009269 -0.042300403 0.71612644
0.020103652 -0.043381542 0.71626568
0.020114711 -0.044464082 0.71640623
0.020125696 -0.045547605 0.71654582
0.020136781 -0.046632528 0.71668661
0.020147877 -0.047718644 0.71682763
0.0201589 -0.048805743 0.71696764
0.02017002 -0.049894243 0.71710896
0.020181065 -0.050983727 0.71724939
0.020192211 -0.052074671 0.71739095
0.020203367 -0.053166717 0.71753263
0.020214451 -0.054259807 0.71767354
0.020225633 -0.055354357 0.71781564
0.02023674 -0.056449831 0.71795678
0.020247947 -0.057546794 0.71809918
0.020259166 -0.058644921 0.71824169
0.02027031 -0.05974406 0.71838331
0.020281553 -0.06084463 0.71852618
0.020292722 -0.061946183 0.7186681
0.020303993 -0.063049197 0.71881127
0.020315185 -0.064153224 0.71895349
0.020326478 -0.065258682 0.71909702
0.020337785 -0.066365391 0.71924067
0.020349015 -0.067472994 0.71938336
0.020360347 -0.068582207 0.71952736
0.02037169 -0.069692641 0.71967155
0.020382959 -0.07080397 0.71981478
0.020402119 -0.071944326 0.72005814
0.020433692 -0.073131084 0.72045928
0.020466244 -0.074324727 0.72087288
0.020499608 -0.075524867 0.72129691
0.020533523 -0.07673049 0.72172779
0.020575564 -0.077970564 0.72226202
0.020617869 -0.079216003 0.72279954
0.020660345 -0.080466598 0.72333926
0.020702997 -0.081722319 0.72388119
0.020745825 -0.082983285 0.72442538
0.020788923 -0.084249854 0.72497308
0.02083211 -0.085521251 0.72552174
0.020875474 -0.086797982 0.72607279
0.018631238 0.087566823 0.68571985
0.018582596 0.086409092 0.68513262
0.018548429 0.085322797 0.68472022
0.01856274 0.084460497 0.68489301
0.018577076 0.083596855 0.68506604
0.018591434 0.082731903 0.68523937
0.018605743 0.081865311 0.68541211
0.018620145 0.080997646 0.68558598
0.018634569 0.08012867 0.68576002
0.018649016 0.079258353 0.68593442
0.018663414 0.078386366 0.68610823
0.018677905 0.077513337 0.68628317
0.018692419 0.076638937 0.68645835
0.018706884 0.075762898 0.68663299
0.018721445 0.074885786 0.68680871
0.018736025 0.074007303 0.68698478
0.018750912 0.073128551 0.68716443
0.018765889 0.072248697 0.68734527
0.018780893 0.071367413 0.68752635
0.018795921 0.070484728 0.68770772
0.018810973 0.069600612 0.68788946
0.018826047 0.068715125 0.68807143
0.018841147 0.067828119 0.68825364
0.01885627 0.066939771 0.68843615
0.01887149 0.066050231 0.68861991
0.018886805 0.06515947 0.68880486
0.018902073 0.064267069 0.6889891
0.018917438 0.063373446 0.68917459
0.018932756 0.062478125 0.68935949
0.018948171 0.061581552 0.68954557
0.01896354 0.06068331 0.68973112
0.018979006 0.059783876 0.6899178
0.018994423 0.058882713 0.69010389
0.019009938 0.057980329 0.69029117
0.019025479 0.057076454 0.69047874
0.019040974 0.05617094 0.69066572
0.019056782 0.055264682 0.69085658
0.019072836 0.054357588 0.69105041
0.019088844 0.053448826 0.69124365
0.019104952 0.052538663 0.69143808
0.019121086 0.051626951 0.69163287
0.019137176 0.050713569 0.69182706
0.019153366 0.049798757 0.6920225
0.019169509 0.048882276 0.69221735
0.019185754 0.047964394 0.69241345
0.019202026 0.047044963 0.69260991
0.019218251 0.046123803 0.69280571
0.019234577 0.045201272 0.69300282
0.019250859 0.044276983 0.69319934
0.019267242 0.043351322 0.69339705
0.019283578 0.042423874 0.69359434
0.019300016 0.041495025 0.6937927
0.019316481 0.040564656 0.69399148
0.019332903 0.03963244 0.69418967
0.019343514 0.03868705 0.69431776
0.019332826 0.037699074 0.69418871
0.019349724 0.036764503 0.69439268
0.01936665 0.035828292 0.69459707
0.019383606 0.034890532 0.69480169
0.019400666 0.033951223 0.69500762
0.019417681 0.033010066 0.69521308
0.019434726 0.032067329 0.69541878
0.019451801 0.031122893 0.69562489
0.019468982 0.030176908 0.69583237
0.019486118 0.029229224 0.6960392
0.019503284 0.028279811 0.69624639
0.01952048 0.0273287 0.69645393
0.019537782 0.026376009 0.69666278
0.019555038 0.02542159 0.69687104
0.019572327 0.024465412 0.69707978
0.019589644 0.023507595 0.69728887
0.019606993 0.02254805 0.6974982
0.019624449 0.021586925 0.69770896
0.019641859 0.020623982 0.69791913
0.019659301 0.01965934 0.69812965
0.019676773 0.01869297 0.69834054
0.019694354 0.017724961 0.69855279
0.019712122 0.016755342 0.69876724
0.019730233 0.015784234 0.69898587
0.020497097 0.015372843 0.70824271
0.02050785 0.01435551 0.70837253
0.020518783 0.013337225 0.7085045
0.02052981 0.012317896 0.70863771
0.020540852 0.011297494 0.70877093
0.020552158 0.010276109 0.70890743
0.020563729 0.0092536807 0.70904708
0.020575484 0.0082302094 0.70918894
0.02058742 0.0072056353 0.70933306
0.020599285 0.0061798394 0.70947629
0.02061159 0.0051528811 0.70962483
0.020623995 0.0041248202 0.70977449
0.020636499 0.0030955374 0.70992541
0.020649018 0.0020649433 0.71007657
0.020661635 0.0010331273 0.71022892
0.020674186 2.9802322e-08 0.71038043
0.020686751 -0.0010343194 0.71053207
0.02069916 -0.0020699203 0.71068186
0.020711156 -0.0031066537 0.71082664
0.020722393 -0.00414446 0.7109623
0.020733297 -0.0051832795 0.71109396
0.020743784 -0.0062231123 0.7112205
0.020753333 -0.0072636604 0.71133578
0.020762462 -0.0083049536 0.71144599
0.020770391 -0.009346664 0.71154165
0.020776946 -0.010388434 0.71162081
0.02078083 -0.011429429 0.71166772
0.020790413 -0.012474209 0.71178335
0.02080165 -0.013521075 0.71191907
0.020812811 -0.014568925 0.71205372
0.020824073 -0.015618026 0.71218967
0.020835258 -0.016668171 0.71232468
0.020846544 -0.017719537 0.71246088
0.020857753 -0.018771946 0.71259624
0.020869061 -0.019825578 0.71273273
0.020880384 -0.020880312 0.71286941
0.020891631 -0.021936178 0.71300519
0.020902976 -0.022993267 0.71314216
0.020914247 -0.024051368 0.71327817
0.020925619 -0.025110722 0.71341544
0.020937001 -0.026171207 0.71355283
0.020948308 -0.027232766 0.71368933
0.020959716 -0.028295577 0.71382701
0.020971049 -0.02935946 0.71396387
0.020982394 -0.030424476 0.71410084
0.020993838 -0.031490684 0.71423894
0.021005295 -0.032558173 0.71437722
0.021016676 -0.033626646 0.71451461
0.021028159 -0.03469643 0.71465325
0.021039564 -0.035767227 0.71479094
0.021051073 -0.036839396 0.71492982
0.021062592 -0.037912637 0.71506888
0.021074036 -0.038986921 0.71520698
0.021085581 -0.040062606 0.7153464
0.021097049 -0.041139215 0.71548486
0.02110862 -0.042217225 0.71562445
0.021120204 -0.043296367 0.71576428
0.021131709 -0.044376582 0.71590322
0.021143317 -0.045458078 0.71604329
0.021154851 -0.046540648 0.71618253
0.021166483 -0.047624558 0.71632296
0.02117813 -0.048709691 0.71646351
0.021189701 -0.049795777 0.71660322
0.021201372 -0.050883293 0.71674407
0.021212967 -0.051971734 0.71688408
0.021235203 -0.05308798 0.71715248
0.021267969 -0.054233283 0.71754801
0.021301741 -0.055384517 0.71795565
0.021336442 -0.056541562 0.71837455
0.021371344 -0.057702631 0.7187959
0.02141195 -0.058882833 0.71928596
0.021455562 -0.060075581 0.71981245
0.021499261 -0.06127286 0.72033995
0.021543138 -0.062475085 0.72086954
0.021587193 -0.063682228 0.72140133
0.021631429 -0.064894289 0.72193539
0.021675847 -0.066111296 0.72247148
0.021720542 -0.067333698 0.72301108
0.021788074 -0.068632394 0.72382617
0.021904632 -0.070094794 0.7252332
0.022022445 -0.0715729 0.72665524
0.022484396 -0.074198484 0.7322315
0.022511508 -0.075413525 0.73255885
0.02253513 -0.076619416 0.732844
0.022558803 -0.077827841 0.73312974
0.02258263 -0.079039186 0.73341739
0.022605175 -0.080248326 0.73368949
0.02262654 -0.081455559 0.7339474
0.022647943 -0.082664937 0.73420572
0.02266939 -0.083876729 0.73446459
0.022690773 -0.085090399 0.73472279
0.0227123 -0.086306691 0.73498261
0.019592931 0.086768717 0.68606627
0.019537484 0.085592836 0.68542874
0.019553045 0.08472988 0.68560767
0.019568702 0.083865881 0.68578768
0.019584313 0.083000243 0.68596715
0.019600023 0.082133412 0.68614775
0.019615682 0.081265002 0.68632782
0.01963144 0.08039543 0.68650895
0.019647224 0.079524517 0.68669039
0.019662961 0.078651905 0.68687129
0.019678796 0.077778101 0.68705338
0.019694582 0.076902688 0.68723482
0.019710468 0.076026112 0.68741745
0.019726306 0.075147837 0.68759954
0.019742243 0.07426846 0.68778276
0.019758206 0.073387623 0.68796629
0.01977412 0.072505146 0.68814921
0.019790133 0.071621478 0.68833333
0.0198061 0.07073611 0.68851686
0.019822465 0.069850624 0.68870497
0.019839007 0.068964183 0.68889523
0.019855503 0.068076044 0.68908483
0.019872101 0.067186654 0.68927562
0.019888727 0.066295803 0.68946677
0.019905305 0.065403193 0.68965733
0.019921985 0.064509332 0.68984914
0.019938618 0.063613713 0.69004035
0.019955356 0.062716842 0.69023281
0.019972121 0.06181848 0.69042552
0.019988991 0.060918838 0.69061947
0.020005964 0.060017914 0.69081455
0.020022968 0.05911544 0.69101006
0.020039922 0.058211237 0.69120491
0.020056983 0.057305694 0.69140112
0.020073997 0.056398392 0.69159663
0.020091115 0.055489779 0.69179344
0.020108186 0.054579377 0.69198972
0.020125439 0.053667843 0.69218808
0.020143187 0.052755982 0.69239211
0.020160887 0.051842302 0.6925956
0.020178698 0.050927222 0.69280034
0.02019654 0.050010502 0.69300544
0.020214334 0.049091965 0.69321007
0.020232238 0.048171997 0.69341594
0.020250175 0.04725042 0.69362211
0.020268066 0.046327025 0.69382775
0.020286065 0.045402139 0.6940347
0.020304097 0.044475645 0.694242
0.020322161 0.043547511 0.6944496
0.020340178 0.04261753 0.69465679
0.020358307 0.041686058 0.69486523
0.020376151 0.040752292 0.69507033
0.020394264 0.039817393 0.69527853
0.020408841 0.038873971 0.69544613
0.020391097 0.037869185 0.69524217
0.020408999 0.036930591 0.69544798
0.020426933 0.035990357 0.69565415
0.020444898 0.035048425 0.69586068
0.020462975 0.034104973 0.69606853
0.020481082 0.033159882 0.69627661
0.021278063 0.033436984 0.70543891
0.021289099 0.032440573 0.70556581
0.02130032 0.031443357 0.70569479
0.021311639 0.030445218 0.70582497
0.021323057 0.029446125 0.70595622
0.021334486 0.028445989 0.70608759
0.021346275 0.027445257 0.70622313
0.021358425 0.02644375 0.70636284
0.021370588 0.0254412 0.70650262
0.021382852 0.024437577 0.70664358
0.021395216 0.023432881 0.7067858
0.021407945 0.02242738 0.70693207
0.021420775 0.021420807 0.70707965
0.021433709 0.020413101 0.7072283
0.021446571 0.019404083 0.70737612
0.021459449 0.018393815 0.70752424
0.02147234 0.017382383 0.70767242
0.021485073 0.016369581 0.70781875
0.021497646 0.015355468 0.70796335
0.021509439 0.014339656 0.70809883
0.021520717 0.013322353 0.70822859
0.021531742 0.012303859 0.70835531
0.021541893 0.011283904 0.70847201
0.02155135 0.010262579 0.70858073
0.021560371 0.0092401505 0.70868444
0.021567274 0.0082161129 0.70876384
0.0215725 0.0071908832 0.70882386
0.021579057 0.0061654449 0.70889926
0.021590495 0.0051406026 0.70903075
0.021602038 0.0041147172 0.70916343
0.021613501 0.0030876696 0.70929521
0.021625066 0.0020595491 0.70942819
0.021636643 0.0010303557 0.70956129
0.021648144 -0 0.70969355
0.021659747 -0.0010313988 0.70982689
0.021671273 -0.00206393 0.70995939
0.021682899 -0.0030975044 0.71009302
0.021694539 -0.004132241 0.71022689
0.021706102 -0.0051681101 0.71035981
0.021717766 -0.0062050819 0.71049392
0.021729354 -0.0072430968 0.71062708
0.021741044 -0.0082823038 0.71076149
0.021752656 -0.0093225241 0.71089494
0.02176437 -0.010363966 0.71102959
0.021776099 -0.011406511 0.71116447
0.021787748 -0.012450099 0.71129841
0.021799499 -0.013494909 0.71143353
0.021811174 -0.014540792 0.7115677
0.021822952 -0.015587807 0.71170318
0.021834653 -0.016635895 0.71183765
0.021846455 -0.017685235 0.71197337
0.02185818 -0.018735558 0.71210814
0.02187001 -0.019787163 0.71224415
0.021881759 -0.020839781 0.71237922
0.021893613 -0.021893561 0.71251547
0.021905482 -0.022948533 0.71265191
0.021917269 -0.024004608 0.71278739
0.021929162 -0.025061905 0.71292418
0.021940976 -0.026120156 0.7130599
0.021952895 -0.027179748 0.71319699
0.021964826 -0.028240442 0.71333414
0.021976678 -0.02930221 0.71347046
0.021988636 -0.030365258 0.71360785
0.022000514 -0.031429291 0.71374446
0.022012498 -0.032494634 0.71388221
0.022024494 -0.033561081 0.71402007
0.02204982 -0.03464973 0.71431124
0.022083836 -0.03575477 0.71470237
0.022119168 -0.036865264 0.71510845
0.022154799 -0.037979603 0.71551812
0.022190543 -0.039097607 0.71592909
0.022229603 -0.040224969 0.71637809
0.022274276 -0.041366488 0.71689165
0.022319129 -0.042512625 0.71740729
0.022364164 -0.043663323 0.71792501
0.022409378 -0.044818729 0.71844482
0.022454875 -0.045978993 0.71896785
0.022500554 -0.047143966 0.71949303
0.022546515 -0.048313916 0.72002137
0.022609392 -0.049525321 0.72074425
0.022724887 -0.050860435 0.72207201
0.022846537 -0.052220672 0.72347057
0.023340946 -0.054462194 0.72915441
0.023369081 -0.055640638 0.72947776
0.023393327 -0.056812346 0.72975653
0.023417726 -0.057986706 0.73003703
0.023442073 -0.059163332 0.73031694
0.023465632 -0.060340166 0.73058778
0.023487451 -0.061514705 0.73083866
0.023509419 -0.062691778 0.73109114
0.023531426 -0.063870996 0.73134416
0.023553366 -0.065052122 0.73159641
0.023575457 -0.066235781 0.73185039
0.023597587 -0.067421645 0.73210478
0.023619762 -0.068609744 0.73235965
0.023641976 -0.069800109 0.73261511
0.023664126 -0.070992351 0.73286974
0.023686422 -0.072187155 0.73312604
0.023709407 -0.073386222 0.73339027
0.023734469 -0.074594021 0.7336784
0.023759479 -0.075804055 0.73396587
0.023784541 -0.077016562 0.734254
0.023809765 -0.07823205 0.73454404
0.023834931 -0.079449773 0.73483336
0.023864271 -0.080683976 0.73517066
0.02389401 -0.081922293 0.7355125
0.023923822 -0.083163738 0.73585528
0.02395382 -0.084408641 0.73620009
0.023999667 -0.085713059 0.73672724
0.020624533 0.087185562 0.68714833
0.020559894 0.085977793 0.68643898
0.020557053 0.08503145 0.6864078
0.020574035 0.084166527 0.68659413
0.020591123 0.083300501 0.68678164
0.020608317 0.082433254 0.68697035
0.020625537 0.081564605 0.68715936
0.020642713 0.080694228 0.68734777
0.020659991 0.079822689 0.68753743
0.020677222 0.078949422 0.6877265
0.020694559 0.078074932 0.68791676
0.020711847 0.077198714 0.68810642
0.020729242 0.076321334 0.68829727
0.020746589 0.075442165 0.68848771
0.020764044 0.074561805 0.68867922
0.020781526 0.073679984 0.68887109
0.020798961 0.072796404 0.68906242
0.020816501 0.071911573 0.68925494
0.020833995 0.071025014 0.68944687
0.020851595 0.070137203 0.68964005
0.020869149 0.069247663 0.68983263
0.020886889 0.06835714 0.6900273
0.020905133 0.067466587 0.69022751
0.020923413 0.066574484 0.69042814
0.020941643 0.065680653 0.69062817
0.020959986 0.064785421 0.69082946
0.020978361 0.063888639 0.6910311
0.020996688 0.062990069 0.6912322
0.021015126 0.062090188 0.69143456
0.021033596 0.061188698 0.69163722
0.021052022 0.0602853 0.69183946
0.021070559 0.05938068 0.69204283
0.021089207 0.05847466 0.69224751
0.021108052 0.057567447 0.69245434
0.02112693 0.056658596 0.69266146
0.021145761 0.055747956 0.69286811
0.021164626 0.054835647 0.69307518
0.021183524 0.053921729 0.69328254
0.021202456 0.053006172 0.69349027
0.021221424 0.052088976 0.69369835
0.02124075 0.051170945 0.69391048
0.021260194 0.050251424 0.69412386
0.021279676 0.049330175 0.69433767
0.021299275 0.048407465 0.69455272
0.021318993 0.047483236 0.69476914
0.021338914 0.046557635 0.69498771
0.02135887 0.045630366 0.6952067
0.021378864 0.044701278 0.69542611
0.022111304 0.045227677 0.70346367
0.022123659 0.044247299 0.70359927
0.022136204 0.043266267 0.70373696
0.022148676 0.042283893 0.70387375
0.022161249 0.041300505 0.7040118
0.022174286 0.04031688 0.70415485
0.022187335 0.039332122 0.70429802
0.022200581 0.038346469 0.70444334
0.022213753 0.037359506 0.70458794
0.022227028 0.036371499 0.70473361
0.022240231 0.035382241 0.70487845
0.022253269 0.034391433 0.70502156
0.022266325 0.033399522 0.70516485
0.022278672 0.032405376 0.70530033
0.02229022 0.031408936 0.70542705
0.022301782 0.030411571 0.70555395
0.022312632 0.029412121 0.70567298
0.022322403 0.028410345 0.70578027
0.022332005 0.027407467 0.70588559
0.0223398 0.026401609 0.70597112
0.022346694 0.025393993 0.70604682
0.022350231 0.024382114 0.70608562
0.022361491 0.023377985 0.70620912
0.022373309 0.022373319 0.70633882
0.022385046 0.02136755 0.70646763
0.022396889 0.020360827 0.70659757
0.022408651 0.019352973 0.70672667
0.022420518 0.018344074 0.70685691
0.022432398 0.017334133 0.70698726
0.0224442 0.01632309 0.70711672
0.022456102 0.015310973 0.70724744
0.022467928 0.014297754 0.7073772
0.022479858 0.013283551 0.70750809
0.022491708 0.012268245 0.70763814
0.022503663 0.011251897 0.70776927
0.02251563 0.010234386 0.70790058
0.022527518 0.009215802 0.70803106
0.022539513 0.0081962049 0.70816272
0.022551425 0.0071754456 0.70829344
0.022563443 0.0061536729 0.70842534
0.022575475 0.0051308274 0.70855737
0.022587428 0.0041067898 0.7086885
0.022599485 0.0030817688 0.70882082
0.02261146 0.002055645 0.70895225
0.022623543 0.0010283589 0.70908487
0.022635544 -0 0.70921654
0.022647655 -0.001029402 0.70934939
0.022659682 -0.0020599067 0.70948136
0.022671815 -0.0030915737 0.70961457
0.022683868 -0.0041243136 0.70974684
0.022696029 -0.0051581562 0.70988029
0.022708109 -0.0061930716 0.71001279
0.022720294 -0.0072291493 0.71014655
0.022732494 -0.0082663298 0.71028042
0.022744613 -0.0093046129 0.7104134
0.022756839 -0.010343969 0.71054757
0.022768982 -0.011384457 0.71068084
0.022781232 -0.012426108 0.71081531
0.0227935 -0.013468862 0.71094984
0.022805681 -0.014512658 0.71108353
0.022817971 -0.015557706 0.71121842
0.022846578 -0.016615629 0.71153235
0.022882193 -0.017681658 0.71192318
0.022918595 -0.018751532 0.71232265
0.022955107 -0.019824862 0.71272337
0.022991739 -0.020901561 0.71312523
0.023028968 -0.021982163 0.71353382
0.023074729 -0.023074687 0.71403599
0.023120772 -0.02417168 0.71454132
0.023166901 -0.025272965 0.71504748
0.023213213 -0.026378632 0.71555567
0.023259811 -0.027488828 0.71606708
0.023306698 -0.028603643 0.71658158
0.023354163 -0.029723436 0.71710241
0.023421844 -0.030874223 0.71784514
0.023525761 -0.032080561 0.71898556
0.023654269 -0.033330977 0.72039574
0.024178291 -0.035168409 0.7261461
0.024207324 -0.036310971 0.72646475
0.024232367 -0.037450016 0.72673965
0.024257252 -0.038591057 0.72701263
0.024282187 -0.039734453 0.72728622
0.024306638 -0.040879339 0.72755456
0.024329092 -0.042022973 0.72780108
0.024351481 -0.043168485 0.72804672
0.024374019 -0.044316381 0.72829401
0.024396602 -0.045466363 0.72854185
0.024419114 -0.046618283 0.72878891
0.024441779 -0.047772557 0.72903752
0.024464486 -0.048928916 0.72928679
0.024487233 -0.050087512 0.72953641
0.024509914 -0.051247954 0.72978532
0.024532748 -0.052410841 0.7300359
0.024555622 -0.053575903 0.7302869
0.024581285 -0.054749221 0.73056853
0.024606893 -0.055924743 0.7308495
0.024632661 -0.057102948 0.73113227
0.024658374 -0.058283418 0.73141456
0.024684252 -0.059466571 0.73169845
0.024712848 -0.060658813 0.73201227
0.024743289 -0.061858177 0.7323463
0.024773803 -0.063060582 0.73268116
0.024804506 -0.064266205 0.73301804
0.024845375 -0.065501422 0.73346663
0.02489347 -0.066759735 0.73399436
0.024941752 -0.068022937 0.73452413
0.021684138 0.087679386 0.68843019
0.02160784 0.086431414 0.68762934
0.021579964 0.085381657 0.68733668
0.021598028 0.084514052 0.68752635
0.02161604 0.083644658 0.68771541
0.021634243 0.08277452 0.6879065
0.021652969 0.081904739 0.68810302
0.021671807 0.081033736 0.68830073
0.02169076 0.080161512 0.68849975
0.021709748 0.079287767 0.68869901
0.021728765 0.078412533 0.68889868
0.021747818 0.077535689 0.68909866
0.021766905 0.076657355 0.68929899
0.021786025 0.075777501 0.68949968
0.021805178 0.074896067 0.68970072
0.021824365 0.074013114 0.68990213
0.021843586 0.073128521 0.69010389
0.02186284 0.072242439 0.69030601
0.02188213 0.071354806 0.69050843
0.021901453 0.070465595 0.69071126
0.02192081 0.069574773 0.69091439
0.021940202 0.068682402 0.691118
0.021959627 0.067788422 0.69132185
0.021979254 0.066893399 0.69152796
0.021999169 0.065997541 0.69173694
0.022019206 0.065100253 0.69194728
0.022039531 0.06420213 0.69216061
0.022059809 0.06330207 0.69237351
0.022080211 0.062400639 0.69258761
0.02210065 0.06149748 0.69280213
0.022121295 0.060593158 0.69301885
0.02214198 0.059687078 0.69323599
0.022162704 0.058779359 0.69345349
0.022183467 0.057869941 0.69367146
0.022204267 0.056958765 0.6938898
0.022225108 0.056045949 0.69410855
0.022246333 0.05513224 0.69433135
0.022267595 0.054216743 0.69455451
0.022288902 0.053299606 0.69477814
0.022310246 0.052380592 0.6950022
0.022331633 0.051459879 0.69522667
0.022353061 0.050537348 0.69545162
0.022375138 0.049614459 0.69568336
0.022397347 0.048689872 0.69591647
0.022419512 0.047763318 0.69614917
0.02244181 0.046835124 0.69638318
0.02275428 0.046497911 0.69966304
0.022918226 0.045836478 0.70138395
0.023086037 0.04516837 0.70314538
0.023095116 0.044182003 0.70324063
0.023102162 0.043191016 0.70331466
0.023107545 0.042196423 0.70337111
0.023115158 0.041205287 0.70345104
0.023127142 0.040221095 0.7035768
0.023139231 0.039236128 0.7037037
0.023151334 0.038250059 0.70383072
0.023163356 0.037262797 0.70395696
0.023175485 0.036274701 0.70408422
0.023187531 0.035285383 0.7042107
0.023199685 0.034295201 0.70433825
0.023211852 0.033303976 0.70446599
0.023223937 0.032311559 0.70459282
0.023236128 0.031318277 0.7047208
0.023248238 0.030323803 0.70484793
0.023260456 0.029328406 0.7049762
0.023272593 0.028331876 0.70510352
0.023284834 0.027334362 0.70523208
0.023297092 0.026335835 0.70536071
0.023309266 0.025336176 0.70548844
0.023321545 0.024335563 0.70561743
0.023333747 0.023333758 0.70574546
0.023346053 0.022331029 0.70587456
0.023358375 0.021327227 0.70600396
0.023370611 0.020322293 0.70613241
0.02338296 0.019316375 0.70626199
0.023395224 0.018309325 0.70639074
0.023407595 0.017301291 0.70652062
0.023419887 0.016292125 0.7066496
0.023432283 0.015281945 0.70677972
0.023444694 0.014270693 0.70691001
0.023457024 0.013258338 0.70703948
0.023469364 0.01224488 0.707169
0.023481816 0.011230439 0.70729971
0.023494186 0.010214895 0.70742953
0.02350666 0.0091982782 0.70756048
0.023519056 0.0081805587 0.70769054
0.02353156 0.0071617961 0.70782185
0.023544077 0.0061419308 0.70795321
0.02355651 0.0051209927 0.70808375
0.023569055 0.0040989518 0.70821542
0.023581514 0.0030758679 0.70834619
0.023594085 0.0020516813 0.70847809
0.023626441 0.0010272861 0.70881778
0.023663459 2.9802322e-08 0.70920634
0.023700692 -0.0010304749 0.70959717
0.02373814 -0.0020641685 0.7099902
0.023775609 -0.0031011105 0.71038347
0.023813194 -0.0041413605 0.710778
0.023857625 -0.0051864088 0.7112444
0.023904605 -0.0062359869 0.71173751
0.023951771 -0.0072896779 0.71223259
0.023999222 -0.0083475411 0.71273065
0.024046963 -0.0094096661 0.7132318
0.024094993 -0.010476053 0.71373594
0.024147268 -0.011548698 0.71428466
0.024216475 -0.012634635 0.71501112
0.024307933 -0.013739288 0.71597111
0.024443412 -0.014878541 0.71739316
0.02499707 -0.016302437 0.72320467
0.025026752 -0.017409861 0.72351617
0.025052683 -0.018517166 0.72378844
0.025078123 -0.019626349 0.72405547
0.025103725 -0.020737857 0.72432417
0.025128942 -0.021851212 0.72458887
0.025151899 -0.022964776 0.72482979
0.025174899 -0.024080306 0.72507125
0.025197828 -0.025197804 0.72531199
0.025220912 -0.026317477 0.72555423
0.025243925 -0.027439028 0.72579587
0.025267094 -0.028562784 0.72603893
0.025290303 -0.029688597 0.7262826
0.025313554 -0.030816466 0.72652662
0.025336852 -0.031946421 0.72677124
0.025360078 -0.033078343 0.72701502
0.025383459 -0.03421247 0.72726047
0.025409015 -0.035351634 0.72752869
0.025435185 -0.036493957 0.72780341
0.025461521 -0.037638724 0.7280798
0.025487799 -0.038785785 0.72835565
0.025514247 -0.039935291 0.72863322
0.025542106 -0.041089445 0.72892565
0.025573209 -0.042251348 0.72925216
0.02560439 -0.043416113 0.72957945
0.025635645 -0.044583738 0.72990751
0.025671445 -0.045762122 0.73028326
0.025720442 -0.046967745 0.73079759
0.025769742 -0.048178196 0.73131508
0.025819117 -0.049393088 0.73183334
0.022690717 0.086981118 0.68907189
