# .PCD v0.7 - Point Cloud Data file format
VERSION 0.7
FIELDS x y z
SIZE 4 4 4
TYPE F F F
COUNT 1 1 1
WIDTH 1346
HEIGHT 1
VIEWPOINT 0 0 0 1 0 0 0
POINTS 1346
DATA ascii
-0.00071658735 -0.022214204 0.63382041
-0.00071256864 -0.022802174 0.63285017
-0.00070859672 -0.023383707 0.63189131
-0.00070466689 -0.023958653 0.63094252
-0.00070078037 -0.024527311 0.63000423
-0.0006972822 -0.025102109 0.62915969
-0.00069581415 -0.025745124 0.62880534
-0.00069435226 -0.026385367 0.62845236
-0.00069289649 -0.027022958 0.62810093
-0.00069477072 -0.027790815 0.62855339
-0.00069670938 -0.028565079 0.62902141
-0.00069865893 -0.029343665 0.6294921
-0.00070061744 -0.030126512 0.62996489
-0.00094278512 -0.041482508 0.68842936
-0.00093785831 -0.042203605 0.68723989
-0.00093298627 -0.042917341 0.68606365
-0.00092816114 -0.043623537 0.68489879
-0.00092338905 -0.04432264 0.68374676
-0.00091866241 -0.045014441 0.68260562
-0.00091398723 -0.045699358 0.68147695
-0.00090935617 -0.046377152 0.68035889
-0.00090477173 -0.047048092 0.67925215
-0.00090023654 -0.047712564 0.67815727
-0.00089574337 -0.048370123 0.67707247
-0.000891298 -0.049021393 0.67599928
-0.00088689342 -0.049666017 0.67493594
-0.00088253524 -0.050304472 0.67388374
-0.00087821664 -0.05093658 0.67284119
-0.00087394309 -0.051562637 0.67180943
-0.00086970796 -0.052182466 0.67078698
-0.00086551369 -0.052796304 0.66977435
-0.00086136261 -0.05340448 0.66877222
-0.0008572482 -0.054006636 0.66777891
-0.00085317588 -0.054603219 0.66679579
-0.00084913912 -0.05519402 0.66582125
-0.00084514328 -0.055779457 0.66485655
-0.00084118202 -0.056359172 0.6639002
-0.00083726057 -0.056933701 0.6629535
-0.0008333727 -0.057502687 0.6620149
-0.00082952075 -0.058066458 0.66108495
-0.00082570699 -0.058625162 0.66016424
-0.00082192541 -0.059178621 0.65925121
-0.00081818108 -0.059727222 0.65834725
-0.00081446796 -0.060270637 0.65745085
-0.0008107911 -0.060809299 0.65656316
-0.00080714462 -0.061342955 0.65568286
-0.00080353336 -0.061872035 0.65481102
-0.00079995178 -0.062396213 0.65394634
-0.00079640449 -0.062915936 0.65308994
-0.00079288601 -0.063430861 0.65224051
-0.00078939844 -0.063941255 0.65139854
-0.00078669522 -0.064509004 0.65074593
-0.00078917929 -0.065501884 0.65134561
-0.00079168158 -0.06650123 0.65194976
-0.00079419988 -0.067506984 0.65255773
0 0.069508493 0.77744043
0 0.067474395 0.7740854
0 0.065482944 0.77080083
0 0.063532501 0.76758277
0 0.061622441 0.76443243
0 0.059750944 0.76134461
0 0.057917356 0.75832045
0 0.056120038 0.75535512
0 0.054358512 0.75244963
0 0.052631319 0.74960101
0 0.050937355 0.74680614
0 0.049276084 0.74406612
0 0.047646165 0.74137694
0 0.046047062 0.73873949
0 0.044477791 0.73615116
0 0.042937249 0.73360944
0 0.041425109 0.73111534
0 0.039940149 0.72866535
0 0.03848204 0.72626048
0 0.037049919 0.72389835
0 0.035642862 0.72157687
0 0.034260631 0.71929705
0 0.032902181 0.71705568
0 0.031567216 0.71485388
0 0.03025499 0.7126897
0 0.028964818 0.71056098
0 0.027696401 0.70846897
0 0.026448965 0.70641071
0 0.025222182 0.70438737
0 0.024015427 0.70239711
0 0.022828162 0.70043814
0 0.02166003 0.6985116
0 0.020510495 0.69661492
0 0.019379258 0.69474918
0 0.018265694 0.6929118
0 0.017169595 0.69110394
0 0.016090393 0.68932402
0 0.015027672 0.68757057
0 0.013981223 0.68584472
0 0.01295051 0.68414402
0 0.011935323 0.68246973
0 0.010935277 0.68082029
0 0.0099498928 0.67919445
0 0.0089790523 0.67759329
0 0.0080222785 0.6760146
0 0.0070794225 0.67445952
0 0.0061500371 0.67292678
0 0.0052338839 0.67141515
0 0.0043306947 0.66992557
0 0.0034402311 0.6684562
0 0.0025831163 0.66869205
0 0.0017263889 0.6692099
0 0.00086537004 0.66973025
0 2.9802322e-08 0.67009807
0 -0.0008623004 0.66899228
0 -0.0017129183 0.66758907
0 -0.0025521517 0.66620463
0 -0.0033802688 0.66483861
0 -0.0041974187 0.66349065
0 -0.0050038397 0.6621604
0 -0.0057997704 0.66084749
0 -0.0065853596 0.65955228
0 -0.0073608458 0.65827304
0 -0.0081264079 0.65701014
0 -0.0088822544 0.65576339
0 -0.0096285343 0.65453231
0 -0.010365456 0.65331674
0 -0.011093199 0.65211618
0 -0.011811882 0.65093064
0 -0.012521744 0.64975965
0 -0.013222873 0.64860302
0 -0.013915539 0.64746052
0 -0.0145998 0.64633173
0 -0.015275836 0.64521658
0 -0.015943825 0.64411533
0 -0.016603827 0.64302659
0 -0.017256051 0.64195067
0 -0.017900616 0.64088738
0 -0.018537641 0.63983655
0 -0.019167304 0.63879788
0 -0.019789696 0.63777119
0 -0.020404935 0.6367563
0 -0.021013141 0.63575298
0 -0.021614492 0.6347611
0 -0.022209048 0.63378024
0 -0.022796899 0.63281047
0 -0.023378313 0.63185203
0 -0.023953199 0.63090372
0 -0.024521738 0.6299659
0 -0.025098711 0.62913674
0 -0.025741637 0.62878239
0 -0.026381761 0.62842959
0 -0.027020842 0.62808794
0 -0.027790815 0.62855339
0 -0.02856499 0.62902099
0 -0.029343545 0.62949163
0 -0.030126512 0.62996489
0 -0.041513354 0.68859851
0 -0.042234778 0.68740726
0 -0.042948902 0.68622935
0 -0.043655485 0.68506271
0 -0.044354916 0.68390894
0 -0.045047045 0.6827662
0 -0.04573226 0.68163586
0 -0.046410352 0.68051618
0 -0.047081798 0.67940861
0 -0.04774633 0.67831141
0 -0.048404425 0.67722583
0 -0.049055785 0.67615044
0 -0.049700946 0.67508632
0 -0.05033946 0.67403191
0 -0.050971985 0.67298865
0 -0.051598132 0.67195475
0 -0.052218407 0.67093164
0 -0.052832484 0.66991758
0 -0.053440869 0.66891408
0 -0.054043323 0.66791946
0 -0.054640144 0.66693497
0 -0.055231154 0.66595912
0 -0.055816799 0.66499317
0 -0.056396723 0.66403556
0 -0.056971461 0.66308749
0 -0.057540625 0.6621477
0 -0.058104753 0.66121715
0 -0.058663487 0.66029453
0 -0.059217334 0.65938103
0 -0.059765905 0.65847528
0 -0.060309708 0.65757835
0 -0.060848355 0.65668887
0 -0.061382383 0.65580797
0 -0.061911434 0.65493441
0 -0.062435925 0.6540693
0 -0.062955618 0.65321124
0 -0.06347087 0.65236133
0 -0.063981414 0.65151829
0 -0.064508781 0.65074533
0 -0.065501884 0.65134561
0 -0.066501021 0.65194917
0 -0.067506745 0.65255713
0.0013147617 0.069682389 0.77823251
0.0013007551 0.067639261 0.77485096
0.0012870437 0.065639228 0.77154076
0.0012736184 0.063680977 0.76829958
0.0012604704 0.061763048 0.76512539
0.001247591 0.059884399 0.762016
0.001234972 0.058043718 0.75896955
0.0012226059 0.056239873 0.75598413
0.001210485 0.05447188 0.75305784
0.001198602 0.052738488 0.75018901
0.00118695 0.051038831 0.74737597
0.0011755225 0.049371988 0.7446171
0.0011643182 0.047737092 0.74191219
0.0011533203 0.046132863 0.73925704
0.0011425281 0.044558644 0.7366516
0.0011319361 0.043013602 0.73409444
0.0011215387 0.041496933 0.73158431
0.0011113305 0.040007919 0.72911978
0.0011013064 0.038545728 0.72669977
0.0010914616 0.037109733 0.72432303
0.0010817912 0.035699129 0.72198844
0.0010722907 0.034313321 0.71969479
0.0010629556 0.032951623 0.71744114
0.0010537817 0.031613469 0.71522629
0.0010447648 0.030298203 0.71304941
0.0010359008 0.029005229 0.71090949
0.0010271859 0.027734071 0.7088055
0.0010186165 0.026484072 0.70673668
0.0010101889 0.025254756 0.70470208
0.0010018997 0.024045587 0.70270085
0.00099374529 0.022856176 0.70073223
0.00098572648 0.021686018 0.69879627
0.00097783224 0.020534486 0.69689053
0.00097006344 0.019401252 0.69501495
0.00096241705 0.01828596 0.69316888
0.00095489027 0.017188042 0.69135183
0.00094748032 0.016107231 0.68956286
0.00094018452 0.01504299 0.68780154
0.00093300024 0.013995051 0.6860671
0.0009259248 0.012962967 0.68435895
0.00091895601 0.01194644 0.68267649
0.00091209123 0.010945112 0.68101919
0.00090532831 0.009958595 0.6793865
0.00089866493 0.0089867115 0.67777777
0.00089209888 0.0080289245 0.67619264
0.00088562816 0.0070850253 0.67463046
0.00087925064 0.006154716 0.67309082
0.00087296421 0.0052378178 0.6715731
0.00086676714 0.0043338537 0.67007697
0.00086065737 0.0034426153 0.66860199
0.0008610306 0.0025831163 0.66869205
0.00086317549 0.0017263889 0.6692099
0.00086533104 0.00086537004 0.66973025
0.0008669293 -2.9802322e-08 0.67011619
0.00086250884 -0.00086247921 0.66904896
0.00085669046 -0.0017133653 0.66764432
0.00085095002 -0.0025528371 0.66625845
0.00084528606 -0.0033811331 0.66489106
0.00083969702 -0.0041984916 0.66354167
0.00083418126 -0.0050050616 0.66221011
0.00082874036 -0.0058011711 0.66089654
0.00082336721 -0.0065869093 0.65959936
0.00081806333 -0.0073625445 0.65831888
0.00081282732 -0.0081282556 0.65705484
0.00080765795 -0.0088842213 0.65580672
0.00080255384 -0.0096306503 0.65457451
0.00079751387 -0.010367662 0.6533578
0.00079253683 -0.011095464 0.65215623
0.00078762148 -0.011814326 0.65096956
0.00078276923 -0.012524307 0.6497981
0.00077797635 -0.013225585 0.64864099
0.0007732418 -0.01391831 0.64749801
0.00076856458 -0.014602721 0.6463688
0.00076394359 -0.015278846 0.64525318
0.00075937784 -0.015946895 0.64415091
0.00075486628 -0.016607046 0.64306176
0.0007504081 -0.017259359 0.64198548
0.0007460044 -0.017904103 0.64092231
0.00074164994 -0.018541187 0.639871
0.00073734601 -0.01917097 0.63883197
0.00073309179 -0.019793481 0.63780493
0.00072888628 -0.020408809 0.63678962
0.0007247288 -0.021017134 0.63578594
0.00072061847 -0.021618545 0.63479358
0.00071655452 -0.022213161 0.63381249
0.00071253616 -0.022801161 0.63284236
0.00070856261 -0.023382545 0.63188303
0.00070463307 -0.023957521 0.63093436
0.00070074893 -0.024526209 0.62999666
0.00069726084 -0.025101334 0.62915456
0.0006957929 -0.025744319 0.62880015
0.00069433107 -0.026384562 0.62844723
0.00069287536 -0.027022153 0.62809587
0.00069476879 -0.027790725 0.62855291
0.00069670746 -0.02856499 0.62902099
0.00069865695 -0.029343545 0.62949163
0.00070061744 -0.030126512 0.62996489
0.0009444615 -0.041556269 0.68883401
0.00093951717 -0.04227829 0.68764043
0.00093462446 -0.042992681 0.68645918
0.00092977891 -0.043699592 0.68528938
0.00092498679 -0.044399351 0.68413246
0.00092024379 -0.045091957 0.68298745
0.00091554591 -0.045777291 0.68185323
0.00091089902 -0.04645583 0.68073142
0.0009062991 -0.047127545 0.67962086
0.0009017454 -0.047792494 0.67852151
0.00089723401 -0.048450589 0.67743236
0.00089277065 -0.049102366 0.67635483
0.00088835153 -0.049747646 0.6752879
0.0008839728 -0.050386429 0.67423081
0.00087964011 -0.051019073 0.67318475
0.00087534968 -0.051645607 0.67214906
0.00087109796 -0.052265853 0.67112255
0.00086689024 -0.052880317 0.67010677
0.00086272298 -0.053488821 0.66910064
0.00085859565 -0.054091513 0.66810423
0.0008545047 -0.054688305 0.66711658
0.00085045543 -0.055279583 0.66613901
0.00084644434 -0.055865318 0.66517067
0.00084246806 -0.05644539 0.66421068
0.00083853182 -0.057020128 0.6632604
0.00083463214 -0.05758962 0.66231894
0.00083076581 -0.05815357 0.66138554
0.0008269379 -0.058712572 0.66046137
0.00082314509 -0.059266418 0.65954572
0.00081938691 -0.059815258 0.65863842
0.00081566023 -0.060358852 0.65773875
0.00081196998 -0.060897723 0.65684783
0.00080831291 -0.061431766 0.65596485
0.00080468605 -0.061960831 0.65508932
0.00080109417 -0.062485307 0.65422213
0.00079753425 -0.063005194 0.65336275
0.00079400575 -0.063520432 0.65251082
0.00079050584 -0.06403096 0.65166593
0.00078703917 -0.064537212 0.65082896
0.00078917929 -0.065501884 0.65134561
0.00079168158 -0.06650123 0.65194976
0.00079419988 -0.067506984 0.65255773
0.0026206267 0.068136305 0.7771585
0.0025922642 0.066102773 0.77373487
0.0025645092 0.064112723 0.77038455
0.0025373423 0.062164932 0.76710522
0.0025107448 0.060257882 0.76389456
0.0024848967 0.058395088 0.76077449
0.0024597084 0.056573331 0.757734
0.0024350255 0.054788083 0.75475448
0.0024108216 0.05303809 0.75183284
0.0023871055 0.051322818 0.74897003
0.0023638513 0.049640894 0.74616301
0.002341046 0.047991455 0.74341017
0.0023186763 0.046373546 0.7407099
0.0022967302 0.044786274 0.73806083
0.0022751854 0.043228537 0.73546004
0.0022540512 0.041699976 0.73290896
0.0022333057 0.040199518 0.73040479
0.0022129389 0.038726449 0.72794628
0.0021929401 0.037279993 0.72553223
0.0021732994 0.035859466 0.7231614
0.0021539982 0.034463972 0.72083151
0.0021350461 0.033093214 0.71854377
0.0021164245 0.031746387 0.71629596
0.0020981249 0.030422837 0.71408701
0.002080139 0.029121995 0.71191591
0.0020624504 0.027843088 0.70978069
0.0020450684 0.026585937 0.70768249
0.002027977 0.025349706 0.70561939
0.0020111687 0.02413407 0.70359045
0.0019946371 0.022938371 0.70159489
0.0019783748 0.021762133 0.69963187
0.0019623756 0.020604968 0.69770062
0.0019466256 0.019466311 0.69579941
0.0019311337 0.018345803 0.69392937
0.0019158865 0.017242998 0.69208884
0.0019008783 0.016157448 0.69027722
0.0018861033 0.015088856 0.68849373
0.0018715492 0.014036655 0.68673688
0.001857225 0.013000607 0.68500775
0.0018431182 0.011980265 0.68330497
0.0018292242 0.010975391 0.68162781
0.001815538 0.0099855065 0.67997575
0.0018020553 0.0090102851 0.67834818
0.0017887647 0.0080494285 0.67674392
0.0017756752 0.0071027279 0.67516387
0.0017627758 0.0061697066 0.67360681
0.0017500627 0.0052502155 0.67207211
0.0017375314 0.0043438673 0.67055953
0.0017251724 0.0034503639 0.66906762
0.0017220612 0.0025831163 0.66869205
0.001726351 0.0017263889 0.6692099
0.0017306621 0.00086537004 0.66973025
0.0017340088 2.9802322e-08 0.67013425
0.0017254996 -0.00086271763 0.66910714
0.0017138505 -0.001713872 0.66770101
0.0017023635 -0.0025535226 0.66631436
0.0016910293 -0.003382057 0.6649462
0.0016798449 -0.0041995943 0.66359615
0.0016688078 -0.0050064027 0.66226381
0.0016579147 -0.005802691 0.66094887
0.0016471627 -0.006588608 0.65965104
0.0016365494 -0.0073644519 0.6583699
0.001626072 -0.0081303418 0.65710521
0.0016157279 -0.0088864863 0.65585649
0.0016055198 -0.0096331239 0.65462428
0.0015954346 -0.010370314 0.65340692
0.0015854754 -0.011098295 0.65220469
0.0015756398 -0.011817276 0.65101749
0.0015659254 -0.012527406 0.64984483
0.0015563302 -0.013228774 0.64868653
0.0015468518 -0.013921648 0.64754248
0.0015374882 -0.014606118 0.64641213
0.0015282418 -0.015282393 0.64529598
0.0015191014 -0.015950531 0.6441927
0.0015100698 -0.016610712 0.64310241
0.0015011447 -0.017263144 0.64202511
0.0014923249 -0.017907888 0.64096045
0.0014836078 -0.018545091 0.63990819
0.001474992 -0.019174874 0.63886821
0.0014664757 -0.019797415 0.63784021
0.0014580572 -0.020412773 0.63682401
0.0014497391 -0.021021187 0.63581991
0.0014415111 -0.021622658 0.63482672
0.0014333759 -0.022217304 0.63384467
0.0014253361 -0.022805363 0.63287425
0.0014173861 -0.023386866 0.63191456
0.0014095244 -0.023961902 0.63096553
0.0014017491 -0.02453056 0.630027
0.0013946694 -0.025104046 0.62917238
0.0013917328 -0.025747031 0.62881792
0.0013888086 -0.026387364 0.62846494
0.0013858966 -0.027024955 0.62811339
0.0013895376 -0.027790725 0.62855291
0.0013934149 -0.02856499 0.62902099
0.0013973139 -0.029343545 0.62949163
0.0014012349 -0.030126512 0.62996489
0.0018930107 -0.041646212 0.68932748
0.0018830439 -0.042368472 0.68812442
0.0018731818 -0.043083131 0.68693393
0.0018634222 -0.04379043 0.68575585
0.0018537639 -0.044490278 0.68458998
0.0018442052 -0.045183003 0.68343616
0.0018347446 -0.045868605 0.68229413
0.001825387 -0.046547323 0.68116462
0.0018161179 -0.047219068 0.68004572
0.0018069426 -0.047883958 0.67893815
0.0017978594 -0.048542172 0.67784172
0.0017888672 -0.049193829 0.67675626
0.0017799644 -0.04983899 0.67568159
0.0017711497 -0.050477773 0.67461765
0.0017624219 -0.051110178 0.67356402
0.0017537798 -0.051736474 0.67252088
0.0017452221 -0.05235666 0.67148787
0.0017367473 -0.052970767 0.67046481
0.0017283545 -0.053579003 0.66945177
0.0017200426 -0.054181308 0.66844839
0.0017118158 -0.054778099 0.66745543
0.0017036618 -0.05536896 0.66647106
0.001695585 -0.055954278 0.66549611
0.0016875843 -0.056534052 0.66453034
0.0016796589 -0.057108402 0.66357374
0.0016718075 -0.057677358 0.66262591
0.0016640293 -0.05824098 0.66168702
0.001656323 -0.058799446 0.66075677
0.0016486879 -0.059352756 0.65983516
0.0016411227 -0.059900969 0.65892196
0.0016336268 -0.060444206 0.65801716
0.0016261989 -0.060982451 0.65712047
0.0016188383 -0.061515838 0.65623194
0.0016115492 -0.062044606 0.65535212
0.0016043202 -0.062568471 0.6544795
0.0015971559 -0.063087612 0.65361464
0.0015900553 -0.063602164 0.65275753
0.0015830175 -0.064112186 0.65190798
0.0015760418 -0.064617693 0.65106601
0.0015783636 -0.065502048 0.65134627
0.0015833683 -0.066501483 0.65195036
0.0015884048 -0.067507207 0.65255833
0.0039552809 0.067239821 0.77911729
0.0039112535 0.065187603 0.77557433
0.0038678967 0.063175648 0.77208519
0.0038255488 0.061208814 0.76867729
0.0037840991 0.05928421 0.76534164
0.0037435382 0.057400942 0.76207757
0.0037038559 0.055557877 0.75888419
0.0036649881 0.053753197 0.75575638
0.0036269275 0.051986009 0.75269347
0.0035896662 0.050255358 0.74969494
0.0035531463 0.048559666 0.74675608
0.0035173784 0.046898395 0.74387771
0.0034823071 0.045269966 0.74105531
0.0034479285 0.043673784 0.73828876
0.0034142374 0.042108953 0.73557746
0.0033815794 0.040578961 0.73294938
0.0033500483 0.039083928 0.73041201
0.0033191 0.037616491 0.72792143
0.0032887184 0.036175907 0.72547656
0.0032588877 0.034761488 0.72307587
0.0032295934 0.033372492 0.72071844
0.0032008209 0.032008231 0.71840304
0.0031725704 0.030668229 0.71612966
0.0031448007 0.029351443 0.71389496
0.0031175129 0.028057635 0.71169895
0.0030906945 0.026786029 0.70954084
0.0030643337 0.02553612 0.70741946
0.0030384189 0.0243074 0.70533395
0.0030129387 0.023099214 0.70328349
0.0029878942 0.021911263 0.70126808
0.0029632507 0.020742774 0.69928491
0.0029390105 0.019593418 0.69733423
0.0029151638 0.018462747 0.69541514
0.0028917007 0.017350227 0.69352704
0.0028686125 0.016255528 0.69166899
0.0028458899 0.015178084 0.68984044
0.0028235246 0.014117628 0.68804061
0.0028015184 0.013073742 0.68626976
0.0027798426 0.012046039 0.68452537
0.0027584995 0.011034012 0.6828078
0.0027374814 0.010037482 0.6811164
0.0027167813 0.0090559423 0.67945057
0.0026964014 0.0080892146 0.67781061
0.0026765736 0.0071375668 0.67621493
0.0026570349 0.0061997473 0.67464256
0.0026377796 0.0052755773 0.67309302
0.0026187922 0.0043646693 0.67156506
0.002600085 0.0034668148 0.67005956
0.0025830918 0.0025831163 0.66869205
0.0025895264 0.0017263889 0.6692099
0.0025959932 0.00086537004 0.66973025
0.0026016354 2.9802322e-08 0.67018437
0.0025903755 -0.00086343288 0.66927826
0.0025728554 -0.0017152131 0.66786826
0.0025555796 -0.0025556087 0.6664781
0.0025385257 -0.0033846498 0.66510564
0.0025216979 -0.0042028129 0.66375148
0.0025050915 -0.0050101876 0.66241509
0.0024887028 -0.0058069527 0.66109622
0.0024725348 -0.006593436 0.65979517
0.0024565677 -0.0073696971 0.65851021
0.0024408055 -0.0081360042 0.65724176
0.0024252443 -0.0088925362 0.65598947
0.002409888 -0.0096395314 0.65475374
0.0023947172 -0.010377109 0.65353286
0.0023797364 -0.011105418 0.6523273
0.0023649565 -0.011824757 0.65113795
0.0023503592 -0.012535214 0.64996326
0.002335934 -0.01323694 0.6488024
0.0023216917 -0.013930142 0.6476562
0.002307622 -0.01461494 0.64652395
0.0022937218 -0.015291482 0.64540541
0.0022799813 -0.015959859 0.64429963
0.002266411 -0.016620338 0.64320755
0.0022530016 -0.017273009 0.64212847
0.0022397498 -0.017917961 0.64106202
0.0022266528 -0.018555433 0.64000809
0.0022137018 -0.019185394 0.63896585
0.0022009069 -0.019808143 0.63793623
0.0021882593 -0.02042374 0.63691843
0.0021757558 -0.021032274 0.63591224
0.0021633948 -0.021633953 0.6349175
0.002151167 -0.022228688 0.63393342
0.0021390829 -0.022816867 0.63296103
0.0021271335 -0.023398459 0.63199937
0.0021153174 -0.023973584 0.6310485
0.0021036314 -0.024542391 0.63010812
0.0020925875 -0.025111049 0.62921935
0.0020881917 -0.025754362 0.6288656
0.0020838145 -0.026394993 0.62851334
0.0020794612 -0.027032971 0.62816298
0.0020843062 -0.027790725 0.62855291
0.0020901223 -0.02856499 0.62902099
0.002095971 -0.029343545 0.62949163
0.0021018523 -0.030126512 0.62996489
0.0028510033 -0.041814685 0.69025195
0.0028358467 -0.042537719 0.6890322
0.0028208399 -0.043252856 0.68782461
0.0028059909 -0.043960512 0.68662965
0.0027912974 -0.044660747 0.68544722
0.0027767571 -0.045353681 0.68427706
0.0027623777 -0.046039641 0.68311989
0.0027481364 -0.046718299 0.68197387
0.0027340411 -0.047390044 0.68083954
0.0027200896 -0.048054874 0.67971683
0.0027062797 -0.048712999 0.67860544
0.0026926193 -0.049364656 0.67750615
0.0026790863 -0.050009578 0.67641711
0.0026656887 -0.050648093 0.67533898
0.0026524246 -0.0512802 0.67427158
0.0026393009 -0.051906228 0.67321545
0.0026262973 -0.052525938 0.67216903
0.0026134213 -0.053139567 0.6711328
0.0026006708 -0.053747177 0.67010671
0.0025880442 -0.054348916 0.66909063
0.0025755484 -0.054945022 0.66808504
0.0025631639 -0.055535197 0.66708839
0.0025508981 -0.05611974 0.66610128
0.002538749 -0.05669871 0.6651237
0.0025267152 -0.057272196 0.66415519
0.0025148031 -0.057840466 0.66319668
0.0025029946 -0.058403134 0.66224635
0.0024912965 -0.058960676 0.66130501
0.0024797071 -0.059512973 0.66037232
0.0024682253 -0.060060114 0.65944833
0.0024568574 -0.060602486 0.65853357
0.0024455856 -0.061139628 0.65762639
0.0024344167 -0.061671853 0.65672761
0.0024233493 -0.062199265 0.655837
0.0024124286 -0.062723145 0.65495819
0.002401629 -0.063242853 0.65408909
0.002390926 -0.063757986 0.65322775
0.0023803175 -0.064268544 0.65237409
0.0023698104 -0.064774796 0.65152854
0.0023675454 -0.065502048 0.65134627
0.0023750523 -0.066501483 0.65195036
0.0023826072 -0.067507207 0.65255833
0.0052844016 0.066055 0.7797628
0.0052289017 0.064054072 0.77641308
0.0051745288 0.062094331 0.77313137
0.0051212753 0.060174972 0.76991719
0.005068542 0.058288246 0.76673448
0.0050163046 0.056433439 0.76358163
0.0049650595 0.054615647 0.76048875
0.0049148505 0.05283469 0.75745839
0.0048656468 0.051089346 0.75448871
0.0048174188 0.049378574 0.75157785
0.0047701374 0.047701359 0.74872416
0.0047237747 0.046056837 0.7459259
0.0046783052 0.044443935 0.74318159
0.0046337023 0.042861789 0.7404896
0.0045899423 0.041309536 0.7378484
0.0045470004 0.039786279 0.73525667
0.0045042671 0.038286299 0.73267746
0.0044621103 0.036812425 0.73013306
0.004420755 0.035366118 0.72763705
0.0043800254 0.033945203 0.72517878
0.0043394556 0.032545924 0.72273022
0.0042996304 0.031172365 0.72032654
0.0042605298 0.02982372 0.71796662
0.0042221337 0.028499395 0.71564925
0.0041842484 0.027197659 0.71336269
0.0041467622 0.025917262 0.71110016
0.0041099251 0.024659544 0.70887685
0.0040737367 0.023424029 0.7066927
0.0040382934 0.022210628 0.70455348
0.0040035741 0.021018803 0.70245802
0.0039694468 0.019847244 0.70039821
0.0039359117 0.018695623 0.69837421
0.0039029233 0.017563194 0.69638312
0.0038704835 0.016449571 0.69442523
0.0038385782 0.015354365 0.69249958
0.0038072094 0.014277041 0.6906063
0.0037763349 0.013217211 0.68874288
0.0037459568 0.012174398 0.68690944
0.0037160637 0.011148214 0.6851052
0.0036866576 0.010138333 0.68333036
0.0036576993 0.0091443062 0.68158257
0.0036291932 0.0081656873 0.67986202
0.0036011403 0.0072022974 0.67816895
0.0035735054 0.0062536597 0.67650104
0.0035462913 0.0053194463 0.67485857
0.0035199218 0.0043999553 0.67326695
0.0034942466 0.0034942627 0.67171735
0.0034689433 0.0026017129 0.67019016
0.0034526899 0.0017263591 0.66920918
0.0034613125 0.00086534023 0.66972959
0.0034694124 2.9802322e-08 0.67021847
0.0034567569 -0.00086417794 0.66945463
0.0034333223 -0.0017166138 0.66804016
0.0034102031 -0.0025576055 0.66664487
0.0033874277 -0.0033873916 0.66527027
0.0033649544 -0.0042062104 0.66391391
0.0033427887 -0.0050141513 0.66257602
0.0033209019 -0.0058115423 0.66125506
0.0032992999 -0.006598562 0.65995121
0.003277977 -0.0073754489 0.65866435
0.0032569282 -0.0081423223 0.65739387
0.0032361583 -0.0088994503 0.65614033
0.0032156415 -0.0096468925 0.65490204
0.0031953829 -0.010384947 0.65367931
0.0031753783 -0.011113793 0.6524719
0.0031556219 -0.011833549 0.65127957
0.0031361203 -0.012544483 0.6501025
0.0031168486 -0.013246566 0.64893937
0.0030978119 -0.013940156 0.64779043
0.0030790067 -0.014625251 0.64665544
0.0030604375 -0.015302181 0.64553469
0.0030420821 -0.015970916 0.64442676
0.003023945 -0.016631663 0.64333212
0.0030060231 -0.017284602 0.64225048
0.0029883126 -0.017929852 0.64118153
0.0029708182 -0.018567592 0.64012563
0.0029535189 -0.019197822 0.63908148
0.0029364198 -0.019820839 0.63804954
0.0029195258 -0.020436674 0.63702989
0.002902834 -0.021045536 0.63602245
0.0028863316 -0.021647453 0.63502645
0.002870016 -0.022242606 0.63404167
0.0028538837 -0.022831053 0.63306803
0.0028379238 -0.023412853 0.63210469
0.0028221491 -0.023988277 0.63115263
0.002806549 -0.024557263 0.63021111
0.0027911204 -0.02512008 0.62927991
0.0027852475 -0.025763541 0.62892544
0.0027794146 -0.02640444 0.62857342
0.0027735985 -0.027042538 0.62822235
0.0027790829 -0.027790815 0.62855339
0.0027868298 -0.02856499 0.62902099
0.0027946278 -0.029343545 0.62949163
0.0028024698 -0.030126512 0.62996489
0.0038200277 -0.042020291 0.69137996
0.0037997935 -0.042747647 0.69015872
0.0037796008 -0.043465376 0.68893999
0.0037596221 -0.044175565 0.68773413
0.0037398532 -0.044878215 0.68654108
0.0037202912 -0.045573533 0.68536031
0.0037009325 -0.046261638 0.68419194
0.0036817745 -0.046942592 0.68303567
0.0036628137 -0.047616541 0.68189132
0.0036440473 -0.048283607 0.6807586
0.0036254723 -0.048943847 0.67963755
0.0036070854 -0.049597412 0.67852777
0.0035888844 -0.050244361 0.6774292
0.0035708658 -0.050884813 0.67634171
0.0035530275 -0.051518887 0.67526507
0.0035353666 -0.052146614 0.67419916
0.0035178801 -0.052768171 0.67314374
0.0035005659 -0.053383619 0.67209876
0.0034834216 -0.053993046 0.67106402
0.0034664439 -0.054596454 0.67003924
0.0034496312 -0.05519408 0.66902459
0.0034329805 -0.055785954 0.66801959
0.00341649 -0.056372076 0.66702431
0.0034001574 -0.056952626 0.66603857
0.0033839799 -0.057527632 0.66506219
0.0033679553 -0.058097214 0.66409504
0.0033520826 -0.058661431 0.66313696
0.0033363581 -0.059220344 0.66218793
0.0033207808 -0.059774041 0.66124773
0.0033053481 -0.060322553 0.66031629
0.0032900581 -0.060866058 0.65939349
0.0032749197 -0.061404735 0.65847975
0.0032598989 -0.061938062 0.65757322
0.0032450259 -0.062466741 0.65667558
0.003230277 -0.062990382 0.65578538
0.0032156724 -0.063509509 0.65490389
0.0032011888 -0.064023763 0.65402973
0.0031868352 -0.064533383 0.65316337
0.0031726097 -0.065038502 0.65230483
0.0031585104 -0.065539092 0.65145385
0.0031667366 -0.066501483 0.65195036
0.0031767995 -0.067506984 0.65255773
0.0066341236 0.066341251 0.78114474
0.0065646661 0.064333767 0.77779102
0.0064966143 0.062367499 0.77450514
0.0064299922 0.060441941 0.77128834
0.0063646897 0.058555186 0.76813531
0.0063007325 0.056706607 0.76504719
0.0062380172 0.054894567 0.76201904
0.0061765676 0.053118527 0.75905198
0.0061162878 0.051376849 0.75614142
0.0060572019 0.049669057 0.75328851
0.0059992182 0.047993749 0.75048876
0.0059423055 0.046350032 0.74774081
0.0058864076 0.044736713 0.74504185
0.0058312793 0.043151498 0.74238002
0.0057771211 0.04159528 0.73976499
0.0057239858 0.040067941 0.73719937
0.0056717927 0.038568228 0.73467934
0.005620569 0.037095755 0.73220599
0.0055702366 0.035649568 0.72977567
0.005520822 0.03422913 0.72738975
0.0054722531 0.032833546 0.72504467
0.0054244841 0.031462014 0.72273815
0.0053775418 0.030114263 0.72047162
0.0053313822 0.028789461 0.71824282
0.005285718 0.027485788 0.71603793
0.0052407193 0.026203603 0.71386516
0.0051964805 0.024943143 0.71172917
0.0051529189 0.023703456 0.70962584
0.0051096221 0.022482336 0.70753527
0.0050670467 0.02128163 0.70547956
0.0050251954 0.020100802 0.70345885
0.00498401 0.018939286 0.70147014
0.0049435138 0.017796665 0.69951487
0.0049036504 0.016672432 0.69759011
0.0048644254 0.01556617 0.69569618
0.004825823 0.014477462 0.69383228
0.0047877915 0.0134058 0.69199598
0.0047503551 0.012350947 0.69018835
0.004713499 0.011312395 0.68840879
0.004676634 0.010288626 0.68662882
0.0046402207 0.009280473 0.6848706
0.0046043694 0.0082878768 0.68313956
0.0045690848 0.0073105395 0.68143582
0.0045343209 0.0063480735 0.6797573
0.0045000813 0.0054001212 0.67810404
0.0044663558 0.0044663548 0.67647564
0.0044331313 0.0035465062 0.67487144
0.0044002584 0.0026401579 0.67328417
0.0043670917 0.0017468333 0.67168278
0.0043343613 0.00086686015 0.67010236
0.0043373969 2.9802322e-08 0.67024893
0.0043269396 -0.00086537004 0.66974401
0.0042975359 -0.001718998 0.66832429
0.0042685284 -0.0025610626 0.6669237
0.0042399107 -0.0033919215 0.66554195
0.004211674 -0.0042116344 0.66417849
0.0041838102 -0.0050205588 0.66283315
0.0041563134 -0.0058188438 0.66150546
0.0041291756 -0.0066066682 0.66019511
0.0041023898 -0.0073842704 0.65890181
0.0040759491 -0.0081518888 0.65762514
0.0040498469 -0.0089096427 0.6563648
0.0040240777 -0.0096577704 0.65512061
0.0039986335 -0.010396421 0.65389204
0.0039735343 -0.011125892 0.6526801
0.0039487612 -0.011846244 0.65148395
0.0039242827 -0.012557656 0.65030205
0.0039001177 -0.013260365 0.64913523
0.0038762367 -0.013954431 0.64798218
0.0038526584 -0.014640123 0.64684367
0.003829353 -0.01531738 0.6457184
0.0038063398 -0.015986592 0.64460725
0.0037836016 -0.016647816 0.64350933
0.003761122 -0.017301142 0.64242393
0.003738919 -0.01794678 0.64135188
0.0037169766 -0.018584877 0.64029241
0.0036952796 -0.019215435 0.63924479
0.003673845 -0.01983875 0.63820982
0.0036526471 -0.020454824 0.63718635
0.0036317029 -0.021063864 0.63617504
0.003610987 -0.021665871 0.63517481
0.0035905165 -0.022261173 0.63418639
0.0035702768 -0.022849768 0.63320911
0.0035502538 -0.023431659 0.63224232
0.0035304641 -0.024007171 0.6312868
0.003510894 -0.024576247 0.63034189
0.00349153 -0.025139034 0.62940687
0.0034831492 -0.025775284 0.62900221
0.0034758903 -0.026416749 0.62865174
0.0034686711 -0.027055621 0.62830317
0.0034738535 -0.027790815 0.62855339
0.0034835469 -0.028565079 0.62902141
0.003493285 -0.029343545 0.62949163
0.0048106601 -0.041371673 0.69310021
0.0047852639 -0.042110294 0.69187385
0.0047601527 -0.042841345 0.69066143
0.0047353036 -0.043564767 0.68946159
0.0047106948 -0.044280499 0.68827337
0.0046863579 -0.04498902 0.68709826
0.0046622539 -0.04569006 0.68593442
0.0046384134 -0.046384126 0.68478334
0.004614816 -0.047071099 0.68364394
0.0045914408 -0.04775095 0.68251526
0.0045683174 -0.048424125 0.68139875
0.0045452607 -0.049088776 0.68028545
0.0045223702 -0.049746066 0.67918026
0.0044997092 -0.05039677 0.6780861
0.00447729 -0.051041067 0.67700362
0.0044550775 -0.051678866 0.6759311
0.0044331001 -0.052310556 0.67486989
0.0044113225 -0.052935869 0.67381841
0.0043897731 -0.053555191 0.67277789
0.0043684184 -0.054168373 0.67174679
0.0043472857 -0.054775774 0.67072642
0.0043263407 -0.055377126 0.66971517
0.0043055974 -0.055972755 0.66871351
0.0042850664 -0.056562841 0.66772223
0.0042647161 -0.057147175 0.66673958
0.004244572 -0.057726145 0.66576695
0.0042246035 -0.058299541 0.66480285
0.0042048357 -0.058867693 0.66384834
0.0041852384 -0.059430361 0.66290212
0.0041658366 -0.059988022 0.66196525
0.0041466001 -0.060540348 0.66103643
0.0041275406 -0.061087608 0.6601162
0.0041086688 -0.061630011 0.65920496
0.0040899557 -0.062167317 0.65830147
0.0040714252 -0.062699929 0.65740669
0.0040530488 -0.063227549 0.65651941
0.0040348507 -0.06375061 0.65564072
0.0040168022 -0.064268842 0.6547693
0.0039989278 -0.064782605 0.65390623
0.0039811982 -0.065291628 0.65305018
0.0039636386 -0.065796375 0.65220225
0.0039584208 -0.066501483 0.65195036
0.0079073114 0.064576387 0.77898651
0.0078245867 0.062596679 0.77565801
0.0077435751 0.060658008 0.77239829
0.0076642237 0.058759063 0.76920545
0.0075864815 0.056898654 0.7660774
0.007510677 0.055078298 0.76302725
0.0074364096 0.053294271 0.76003891
0.0073636323 0.051545471 0.7571106
0.0072922297 0.049830258 0.75423753
0.0072222343 0.048148245 0.75142115
0.0071535357 0.046498001 0.74865693
0.0070861643 0.044879109 0.74594611
0.0070200181 0.043290108 0.74328458
0.0069551272 0.041730762 0.7406736
0.0068913931 0.040199816 0.73810917
0.0068288473 0.038696826 0.73559254
0.0067673968 0.037220687 0.73311996
0.0067070723 0.035771072 0.73069268
0.0066477843 0.034346908 0.72830701
0.0065895636 0.032947838 0.72596449
0.0065323259 0.031572938 0.72366142
0.0064761019 0.03022182 0.72139913
0.0064208098 0.028893679 0.71917439
0.0063664815 0.027588099 0.71698833
0.0063130376 0.026304364 0.71483791
0.0062605101 0.025042087 0.71272433
0.0062088231 0.023800522 0.71064466
0.0061580087 0.022579342 0.70860004
0.0061079939 0.021377981 0.70658761
0.0060587605 0.020195901 0.70460653
0.0060102665 0.019032538 0.70265538
0.0059625427 0.017887652 0.70073509
0.0059155943 0.016760886 0.69884604
0.005869356 0.015651643 0.6969856
0.0058236998 0.014559269 0.69514847
0.0057786149 0.013483465 0.6933344
0.0057342444 0.012424201 0.69154906
0.0056905285 0.01138106 0.68979007
0.0056474106 0.010353625 0.68805516
0.0056049409 0.0093415976 0.68634635
0.0055631259 0.0083447397 0.68466377
0.0055219098 0.0073625445 0.68300539
0.0054813004 0.0063948929 0.68137145
0.0054410272 0.0054410696 0.67975092
0.0054012444 0.0045010746 0.67815018
0.0053620581 0.003574729 0.6765734
0.0053234175 0.0026617348 0.67501867
0.0052853301 0.0017617643 0.67348617
0.0052477834 0.00087463856 0.67197543
0.0052107302 2.9802322e-08 0.67048448
0.0051997737 -0.00086662173 0.67004365
0.0051643169 -0.0017214417 0.66861701
0.0051293406 -0.0025646389 0.66720963
0.0050948346 -0.0033965409 0.66582119
0.0050608413 -0.0042173266 0.66445339
0.0050273151 -0.005027324 0.66310441
0.0049942303 -0.0058265924 0.66177326
0.0049615782 -0.0066154301 0.6604594
0.0049293502 -0.0073940158 0.65916264
0.0048975381 -0.0081625581 0.65788257
0.0048661344 -0.0089212358 0.65661901
0.0048351302 -0.0096702576 0.65537155
0.004804519 -0.010409772 0.65413982
0.0047742925 -0.011139989 0.65292364
0.0047444445 -0.011861086 0.65172261
0.0047149672 -0.012573272 0.65053654
0.0046858541 -0.013276577 0.64936513
0.0046570981 -0.013971269 0.64820802
0.0046286928 -0.014657527 0.64706516
0.004600618 -0.015335381 0.64593548
0.0045728954 -0.016005099 0.64481997
0.0045455052 -0.01666683 0.64371789
0.0045184409 -0.017320663 0.64262891
0.0044916971 -0.017966807 0.64155287
0.0044652815 -0.018605322 0.64048994
0.0044391877 -0.019236445 0.63944
0.0044134096 -0.019860327 0.63840282
0.004387917 -0.020476937 0.63737708
0.0043627298 -0.021086514 0.63636363
0.00433783 -0.021689147 0.63536173
0.0043132002 -0.022284836 0.63437068
0.0042888615 -0.022873908 0.63339138
0.0042647831 -0.023456305 0.63242257
0.0042409855 -0.024032235 0.63146502
0.0042174528 -0.024601758 0.63051808
0.0041941674 -0.025165021 0.62958121
0.0041823061 -0.02579087 0.6291039
0.0041735964 -0.026432753 0.62875348
0.0041649113 -0.027071923 0.62840402
0.0041686357 -0.027790874 0.62855387
0.0058342703 -0.03986752 0.69557381
0.0058034803 -0.04062438 0.69433498
0.0057729916 -0.041373104 0.69310814
0.0057428437 -0.042114168 0.69189513
0.0057129874 -0.042847425 0.69069386
0.0056834617 -0.043573201 0.68950576
0.0056542177 -0.044291317 0.68832904
0.0056252945 -0.045002341 0.68716532
0.0055966447 -0.045705914 0.68601251
0.0055683055 -0.046402514 0.68487221
0.0055402322 -0.047091961 0.68374258
0.0055124606 -0.047774643 0.68262517
0.0054849456 -0.048450351 0.68151808
0.005457724 -0.049119502 0.68042272
0.0054307515 -0.049781919 0.6793375
0.0054040444 -0.050437719 0.67826289
0.0053776177 -0.05108735 0.67719954
0.0053512766 -0.051728994 0.67613965
0.0053250985 -0.052363425 0.67508632
0.0052991747 -0.052991718 0.67404318
0.0052734832 -0.053613722 0.67300951
0.0052480586 -0.054229915 0.67198646
0.0052228598 -0.054839998 0.67097247
0.0051979194 -0.055444419 0.66996902
0.0051732161 -0.056043148 0.668975
0.0051487288 -0.056636006 0.66798979
0.0051244902 -0.057223469 0.66701448
0.0051004784 -0.057805419 0.66604835
0.0050766733 -0.058381736 0.66509044
0.0050531072 -0.058952868 0.66414225
0.0050297407 -0.059518605 0.66320205
0.0050066067 -0.060079277 0.66227126
0.0049836845 -0.060634822 0.66134888
0.0049609551 -0.061185062 0.66043437
0.0049384483 -0.061730593 0.65952867
0.0049161282 -0.062270954 0.65863061
0.0048940256 -0.062806666 0.65774131
0.00487212 -0.06333752 0.65685987
0.0048503946 -0.063863501 0.65598571
0.0048288773 -0.064385027 0.65511996
0.0048075505 -0.064901918 0.65426183
0.0047863955 -0.065414041 0.65341061
0.0047654412 -0.065921932 0.65256751
0.0047501046 -0.066501483 0.65195036
0.009267523 0.064872652 0.78044629
0.0091694072 0.062875956 0.77706242
0.0090739587 0.060925186 0.77377051
0.0089805694 0.059015185 0.77054965
0.0088890828 0.057144105 0.76739442
0.0087993965 0.055310547 0.76430118
0.0087115457 0.053513825 0.76127136
0.008625431 0.051752597 0.75830138
0.0085410038 0.05002588 0.75538957
0.008458171 0.048332423 0.75253272
0.00837697 0.046671748 0.7497322
0.008297313 0.045042604 0.74698496
0.0082191573 0.043444127 0.74428952
0.0081424592 0.041875571 0.74164426
0.0080671431 0.040335774 0.73904669
0.0079932436 0.03882432 0.73649806
0.0079206852 0.037340403 0.73399556
0.0078494335 0.035883158 0.73153818
0.0077794511 0.034451872 0.72912461
0.007710706 0.033045888 0.72675365
0.0076433322 0.031665236 0.72443008
0.0075773224 0.03030929 0.72215343
0.0075124428 0.028976589 0.71991587
0.0074486965 0.027666599 0.71771723
0.007385992 0.026378542 0.71555465
0.007324365 0.025112092 0.71342921
0.0072637266 0.023866564 0.71133786
0.0072041154 0.022641569 0.70928192
0.0071454439 0.021436334 0.70725846
0.0070877504 0.020250738 0.70526868
0.0070309518 0.019084036 0.70330977
0.006975085 0.017935932 0.70138299
0.0069200713 0.016805947 0.6994856
0.0068659452 0.015693605 0.69761884
0.006812633 0.014598519 0.69578016
0.0067601679 0.01352036 0.69397074
0.00670848 0.012458622 0.69218808
0.0066575762 0.011413008 0.69043249
0.006607464 0.010383189 0.68870413
0.0065580755 0.0093686879 0.68700087
0.0065094447 0.008369267 0.6853236
0.0064615053 0.0073845983 0.68367028
0.0064142905 0.0064142942 0.68204188
0.0063677384 0.0054580569 0.68043637
0.0063218791 0.0045156479 0.6788547
0.0062766531 0.0035867095 0.67729491
0.0062320922 0.0026709139 0.67575806
0.0061881375 0.0017680526 0.67424214
0.0061447984 0.00087785721 0.67274743
0.006101998 2.9802322e-08 0.67127126
0.0060765063 -0.00086805224 0.67039216
0.0060360637 -0.001724571 0.66899729
0.0059951087 -0.0025693476 0.66758478
0.0059547061 -0.0034026802 0.6661914
0.0059148446 -0.0042248666 0.66481656
0.0058755125 -0.0050361454 0.66346008
0.0058367001 -0.0058366954 0.66212147
0.0057983976 -0.0066267252 0.66080046
0.0057605938 -0.0074064732 0.65949667
0.0057232804 -0.0081760883 0.6582098
0.0056864475 -0.0089358091 0.65693945
0.0056500668 -0.0096858144 0.65568477
0.0056141666 -0.010426283 0.6544466
0.0055787382 -0.011157453 0.65322471
0.0055437358 -0.011879385 0.65201747
0.0055091707 -0.012592345 0.65082538
0.0054750335 -0.013296485 0.64964807
0.0054413164 -0.013991952 0.64848518
0.0054080123 -0.014678866 0.6473366
0.0053751138 -0.015357435 0.64620191
0.005342613 -0.016027808 0.64508104
0.0053105191 -0.016690195 0.64397413
0.0052787922 -0.017344594 0.6428799
0.0052474421 -0.017991215 0.64179873
0.0052164621 -0.018630236 0.64073026
0.0051858462 -0.019261718 0.63967437
0.0051555876 -0.019885838 0.63863075
0.0051256795 -0.020502687 0.63759923
0.0050961315 -0.021112502 0.63658017
0.0050669075 -0.021715313 0.63557231
0.0050380174 -0.022311211 0.6345759
0.0050094542 -0.022900343 0.63359082
0.0049812132 -0.023482859 0.63261682
0.0049532885 -0.024058819 0.63165373
0.0049256757 -0.024628371 0.6307013
0.0048983688 -0.025191605 0.62975955
0.0048824181 -0.025807053 0.62920952
0.0048723524 -0.026449919 0.62886232
0.0048623146 -0.027090013 0.62851614
0.0048633949 -0.027790815 0.62855339
0.0067954236 -0.039801717 0.69518661
0.006759881 -0.040559262 0.69396085
0.0067247087 -0.04130891 0.69274783
0.0066899001 -0.042050779 0.69154727
0.0066554504 -0.042785019 0.69035918
0.0066213538 -0.043511748 0.68918318
0.006587605 -0.044231027 0.68801928
0.0065541971 -0.044943035 0.68686706
0.0065211277 -0.04564786 0.68572652
0.0064883898 -0.046345621 0.68459743
0.0064559793 -0.047036409 0.68347967
0.0064238911 -0.047720283 0.68237299
0.0063921195 -0.048397481 0.68127722
0.0063606612 -0.049067914 0.68019223
0.0063295108 -0.049731851 0.67911792
0.006298664 -0.05038929 0.67805403
0.0062681162 -0.051040381 0.67700052
0.0062378636 -0.051685125 0.67595708
0.006207902 -0.052323729 0.67492378
0.0061782259 -0.052956194 0.67390031
0.0061487034 -0.053581566 0.67288208
0.0061193546 -0.054199994 0.67186993
0.0060903057 -0.054812729 0.67086804
0.0060615102 -0.055419505 0.66987497
0.0060329866 -0.056020588 0.66889119
0.0060047503 -0.056616187 0.66791731
0.0059767556 -0.057206094 0.66695178
0.0059490418 -0.057790637 0.66599602
0.0059215641 -0.058369666 0.6650483
0.0058943583 -0.058943599 0.66411006
0.005867382 -0.059512019 0.6631797
0.0058406712 -0.060075462 0.66225845
0.005814183 -0.0606336 0.66134489
0.0057879533 -0.06118691 0.66044033
0.0057619396 -0.061735034 0.65954316
0.0057361783 -0.062278494 0.65865463
0.005710627 -0.062816918 0.65777344
0.0056853211 -0.063350707 0.65690064
0.0056602205 -0.063879594 0.65603489
0.0056353584 -0.064404085 0.65517747
0.0056106951 -0.064923748 0.6543268
0.0055862656 -0.06543909 0.65348428
0.0055620298 -0.065949783 0.65264845
0.0055417889 -0.066501483 0.65195036
0.010649956 0.065231025 0.78221166
0.010536644 0.063219875 0.77879226
0.010425663 0.061250806 0.77544308
0.010316996 0.059322715 0.77216381
0.010210571 0.05743444 0.76895219
0.010106371 0.055585086 0.76580757
0.010004225 0.053772718 0.76272511
0.0099041238 0.051996708 0.75970429
0.0098060062 0.050255805 0.75674331
0.0097098602 0.048549324 0.75384182
0.0096155349 0.046875775 0.75099534
0.0095230248 0.045234382 0.74820364
0.0094323233 0.04362452 0.74546647
0.0093432888 0.042044818 0.74277961
0.0092559187 0.04049471 0.74014294
0.0091707148 0.038975567 0.73757172
0.0090871472 0.037484497 0.7350499
0.0090050483 0.036020249 0.73257226
0.00892446 0.034582287 0.73014027
0.0088453004 0.033169895 0.72775149
0.0087675331 0.031782329 0.72540462
0.0086911218 0.030418932 0.7230987
0.0086160311 0.029079109 0.72083259
0.0085421894 0.027762145 0.71860427
0.0084696384 0.026467651 0.71641493
0.0083983103 0.025194973 0.71426231
0.0083281733 0.023943514 0.71214575
0.0082591977 0.022712827 0.71006423
0.0081913555 0.021502346 0.70801693
0.0081245862 0.020311475 0.706002
0.0080589289 0.019139975 0.70402062
0.007994324 0.017987221 0.70207095
0.0079307463 0.016852856 0.7001524
0.0078681717 0.015736341 0.698264
0.0078065475 0.014637262 0.69640428
0.00774591 0.013555348 0.69457442
0.0076865326 0.01249063 0.69278252
0.0076280874 0.011442125 0.69101882
0.0075704958 0.010409445 0.68928081
0.007513796 0.0093922615 0.68756974
0.0074579106 0.0083901882 0.68588328
0.0074028778 0.0074028671 0.68422252
0.0073486245 0.0064300597 0.68258524
0.0072951876 0.0054713786 0.6809727
0.0072424957 0.0045265853 0.67938256
0.0071905847 0.0035953224 0.67781603
0.007139388 0.0026772916 0.67627096
0.0070889401 0.0017722845 0.6747486
0.0070391754 0.00087991357 0.6732468
0.0069901287 -0 0.6717667
0.0069526611 -0.00086906552 0.670636
0.0069140634 -0.0017285049 0.66947126
0.0068668327 -0.0025750399 0.66804588
0.0068202438 -0.0034100711 0.66663992
0.0067743054 -0.0042339265 0.66525364
0.0067289588 -0.0050466955 0.66388524
0.0066842376 -0.0058487058 0.66253567
0.006640085 -0.0066400766 0.66120321
0.0065965117 -0.0074210465 0.65988827
0.0065535288 -0.0081918836 0.65859115
0.0065110801 -0.0089527071 0.65731013
0.0064691994 -0.009703815 0.65604627
0.0064278338 -0.010445207 0.65479791
0.006386993 -0.011177212 0.65356547
0.0063466881 -0.011900008 0.65234911
0.0063068694 -0.012613744 0.65114748
0.0062675858 -0.013318598 0.64996201
0.0062289243 -0.014015079 0.64879537
0.0061907182 -0.014702946 0.64764231
0.0061529963 -0.015382469 0.64650404
0.0061157318 -0.016053796 0.64537948
0.0060789157 -0.016717017 0.64426845
0.0060425405 -0.01737228 0.64317071
0.0060065975 -0.018019766 0.64208603
0.0059710802 -0.018659621 0.64101416
0.0059359805 -0.019291937 0.63995492
0.0059013073 -0.019916892 0.63890862
0.0058670207 -0.020534545 0.63787389
0.0058331294 -0.021145076 0.63685119
0.0057996283 -0.021748632 0.63584018
0.0057665096 -0.022345185 0.63484073
0.0057337666 -0.022935033 0.6338526
0.0057013934 -0.023518234 0.63287568
0.0056693843 -0.02409485 0.63190967
0.0056377482 -0.024665147 0.63095498
0.0056064469 -0.025229007 0.63001037
0.0055847019 -0.025829226 0.62935418
0.0055731628 -0.026472509 0.62900597
0.0055616717 -0.02711314 0.62865919
0.0055581657 -0.027790815 0.62855339
0.0077508898 -0.039723277 0.69472468
0.0077104298 -0.040479749 0.69350368
0.00767039 -0.041228324 0.69229537
0.0076307636 -0.04196918 0.69109952
0.0075915442 -0.042702436 0.68991601
0.0075527267 -0.043428183 0.68874454
0.0075143036 -0.044146508 0.68758506
0.0074762697 -0.044857621 0.68643731
0.0074386187 -0.045561522 0.68530107
0.0074013448 -0.04625839 0.68417621
0.007364443 -0.046948284 0.68306261
0.0073279073 -0.047631383 0.68196005
0.0072917324 -0.048307717 0.68086839
0.0072559128 -0.048977405 0.67978746
0.0072204433 -0.049640536 0.67871702
0.007185319 -0.05029723 0.67765713
0.007150535 -0.050947547 0.67660737
0.0071160854 -0.051591605 0.67556781
0.0070819668 -0.052229494 0.67453814
0.0070481738 -0.052861273 0.67351836
0.0070147016 -0.053487092 0.67250824
0.0069815456 -0.054106951 0.67150766
0.006948702 -0.054720998 0.67051655
0.0069161654 -0.055329293 0.66953468
0.0068839327 -0.055931926 0.668562
0.0068519991 -0.056528956 0.66759825
0.0068203597 -0.057120532 0.6666435
0.0067890114 -0.057706594 0.66569746
0.0067579499 -0.058287293 0.66476011
0.0067271716 -0.058862716 0.66383123
0.0066966726 -0.059432924 0.66291088
0.0066664484 -0.059998035 0.66199881
0.0066364962 -0.060558021 0.66109496
0.0066068117 -0.061113 0.66019905
0.0065773916 -0.061663032 0.65931129
0.0065482329 -0.062208205 0.65843129
0.0065193307 -0.062748536 0.6575591
0.0064906827 -0.063284159 0.65669465
0.0064622853 -0.063815042 0.65583766
0.0064341356 -0.064341336 0.65498817
0.0064062304 -0.064863041 0.65414602
0.0063785654 -0.065380275 0.65331113
0.0063511394 -0.065893039 0.65248352
0.0063334731 -0.066501483 0.65195036
0.011930349 0.063628554 0.78084773
0.011802771 0.061636716 0.77742547
0.011677895 0.059687048 0.77407569
0.011555632 0.05777815 0.77079606
0.011435844 0.055908591 0.76758289
0.011318571 0.054077595 0.76443702
0.011203679 0.052283883 0.76135504
0.011091097 0.050526142 0.75833505
0.010980754 0.048803419 0.75537521
0.010872586 0.047114551 0.75247365
0.01076663 0.045459151 0.7496314
0.010663528 0.043838978 0.74686575
0.010562382 0.042249531 0.74415255
0.010463185 0.040690184 0.74149156
0.010365785 0.039159656 0.73887891
0.010270183 0.03765741 0.73631442
0.010176375 0.036182672 0.73379803
0.010084218 0.034734547 0.73132598
0.0099937171 0.03331238 0.72889829
0.0099048251 0.031915575 0.72651386
0.0098175434 0.030543476 0.72417259
0.0097317444 0.029195249 0.72187102
0.0096474327 0.027870387 0.71960938
0.0095645692 0.026568294 0.7173866
0.0094831558 0.025288463 0.71520281
0.0094030788 0.024030119 0.71305466
0.0093243429 0.022792846 0.71094263
0.0092474073 0.021577299 0.70887887
0.009171769 0.020381749 0.70684993
0.0090973945 0.01920563 0.70485485
0.0090242159 0.018048465 0.70289189
0.008952206 0.016909748 0.70096016
0.0088813361 0.015789062 0.69905913
0.00881158 0.014685959 0.69718796
0.0087428764 0.013600051 0.69534504
0.0086752698 0.012530982 0.69353151
0.0086086998 0.011478275 0.69174582
0.0085431449 0.010441631 0.68998736
0.00847858 0.0094206333 0.68825543
0.0084149837 0.0084150434 0.68654943
0.0083523039 0.0074242949 0.6848681
0.0082905814 0.0064482391 0.6832124
0.0082297642 0.0054865479 0.68158102
0.0081698326 0.0045388043 0.67997336
0.0081107682 0.0036048293 0.67838895
0.0080525512 0.0026842058 0.67682731
0.0079951352 0.0017767251 0.67528719
0.0079385601 0.00088208914 0.67376959
0.0078827813 -0 0.67227334
0.0078277802 -0.00086972117 0.67079794
0.0077967709 -0.0017325878 0.6699661
0.0077431193 -0.0025810301 0.66852695
0.0076903584 -0.0034179091 0.66711164
0.0076384414 -0.0042435527 0.66571897
0.0075871949 -0.0050581098 0.66434431
0.0075366315 -0.0058618188 0.66298795
0.0074867378 -0.0066548884 0.66164958
0.0074374997 -0.0074374676 0.66032881
0.0073889056 -0.0082098842 0.65902531
0.007340942 -0.0089722574 0.65773869
0.0072936211 -0.0097247958 0.65646935
0.0072468831 -0.010467678 0.65521562
0.0072007398 -0.011201113 0.65397781
0.0071551809 -0.01192525 0.65275574
0.0071102171 -0.012640357 0.65154958
