# .PCD v0.7 - Point Cloud Data file format
VERSION 0.7
FIELDS x y z
SIZE 4 4 4
TYPE F F F
COUNT 1 1 1
WIDTH 1314
HEIGHT 1
VIEWPOINT 0 0 0 1 0 0 0
POINTS 1314
DATA ascii
-0.040291041 0.020145535 0.7310186
-0.040152192 0.018960774 0.73008746
-0.040029235 0.017790794 0.72926295
-0.039919585 0.016633183 0.72852761
-0.039820395 0.015485734 0.72786242
-0.03973712 0.01434955 0.72730392
-0.039659951 0.013220012 0.72678643
-0.039555442 0.012086391 0.72608554
-0.039332259 0.01092568 0.72458887
-0.038997099 0.0097492933 0.72234124
-0.038760457 0.0086134374 0.72075433
-0.038613226 0.0075081587 0.71976697
-0.038529806 0.0064216852 0.71920753
-0.038504109 0.0053478181 0.71903515
-0.038543489 0.0042826235 0.71929932
-0.038675737 0.0032230318 0.72018611
-0.039064415 0.0021702945 0.72279269
-0.039576646 0.0010994077 0.72622776
-0.039687037 2.9802322e-08 0.72696805
-0.039776079 -0.0011048615 0.72756517
-0.039890591 -0.0022161305 0.72833312
-0.040026743 -0.0033355057 0.7292462
-0.040188026 -0.004465282 0.73032773
-0.040380821 -0.0056084096 0.73162067
-0.040615186 -0.0067691803 0.73319238
-0.040904235 -0.0079535544 0.73513073
-0.04127143 -0.0091714561 0.73759323
-0.041772764 -0.010443181 0.74095523
-0.042621411 -0.011839271 0.74664646
-0.044913497 -0.013723522 0.76201749
-0.045232903 -0.015077621 0.76415944
-0.044235028 0.042971164 0.76594323
-0.043722373 0.041224003 0.762407
-0.043500815 0.039772183 0.7608788
-0.043317467 0.038366914 0.75961411
-0.042819247 0.036702245 0.75617754
-0.042121999 0.034901112 0.75136805
-0.041589029 0.033271223 0.74769175
-0.0411576 0.031750172 0.74471581
-0.040789485 0.030300766 0.74217671
-0.040472187 0.02890873 0.73998803
-0.040191121 0.027559638 0.73804927
-0.039937779 0.026244879 0.73630184
-0.039706871 0.02495864 0.73470914
-0.039507475 0.023704499 0.73333365
-0.03932225 0.022469878 0.73205602
-0.039153628 0.021254838 0.73089302
-0.039005902 0.020060182 0.72987401
-0.038865834 0.018877745 0.72890782
-0.038747337 0.0177131 0.72809041
-0.038635526 0.016558081 0.72731924
-0.038539957 0.015416026 0.72665995
-0.038453806 0.014282852 0.72606575
-0.038379312 0.013158649 0.7255519
-0.038292203 0.012034684 0.72495109
-0.038126472 0.010893315 0.72380793
-0.037817888 0.009724617 0.72167939
-0.03755448 0.0085839033 0.71986246
-0.037387557 0.0074775517 0.71871108
-0.037285507 0.0063917935 0.71800715
-0.037239049 0.0053198636 0.71768665
-0.037251405 0.0042573512 0.71777189
-0.037342913 0.0032007992 0.71840304
-0.037583817 0.0021476746 0.72006482
-0.038188163 0.0010911226 0.72423339
-0.038352247 2.9802322e-08 0.72536522
-0.038436759 -0.0010981858 0.72594821
-0.03853843 -0.002202183 0.72664946
-0.038658723 -0.003313601 0.72747928
-0.038801249 -0.0044344366 0.7284624
-0.038973086 -0.0055675507 0.72964764
-0.039182715 -0.0067169964 0.73109353
-0.039436478 -0.007887274 0.732844
-0.039756268 -0.0090871751 0.73504984
-0.040180791 -0.010332167 0.7379781
-0.040806212 -0.011658907 0.74229211
-0.04332754 -0.013617218 0.75968361
-0.043568563 -0.014937729 0.7613461
-0.042306274 0.041061997 0.76122206
-0.042071082 0.039596349 0.75955206
-0.041906923 0.03820926 0.75838643
-0.041534297 0.036647975 0.75574052
-0.040834244 0.034829259 0.75076967
-0.040297605 0.033186287 0.74695921
-0.03986362 0.031656414 0.74387765
-0.039498404 0.030204713 0.74128431
-0.039181821 0.028810203 0.73903644
-0.038901918 0.027460188 0.73704898
-0.038649857 0.026145518 0.73525918
-0.038426716 0.024864346 0.73367471
-0.038227942 0.023611397 0.73226327
-0.038042776 0.022378147 0.73094857
-0.037880138 0.021168321 0.72979373
-0.037731603 0.019975573 0.72873896
-0.037595019 0.018797517 0.7277692
-0.037476588 0.017636061 0.72692823
-0.037363168 0.016483754 0.72612292
-0.037270997 0.015346915 0.7254684
-0.037182204 0.014216781 0.7248379
-0.037110668 0.013097882 0.72432995
-0.037035532 0.011982083 0.72379643
-0.036902335 0.010853648 0.72285068
-0.036645107 0.0097001791 0.72102416
-0.036357064 0.0085546076 0.71897894
-0.036171999 0.0074472427 0.71766484
-0.036052875 0.006362319 0.71681893
-0.035990484 0.0052927732 0.71637595
-0.035987131 0.0042337775 0.71635216
-0.036046151 0.0031805634 0.71677119
-0.036198627 0.0021293759 0.7178539
-0.036755633 0.0010810792 0.72180897
-0.037025053 2.9802322e-08 0.72372204
-0.037114553 -0.0010915697 0.72435755
-0.037203185 -0.0021884143 0.72498691
-0.037309252 -0.0032919347 0.72574002
-0.037441779 -0.0044049025 0.72668111
-0.037598178 -0.0055291057 0.72779155
-0.037784901 -0.0066678822 0.72911745
-0.038010821 -0.0078257322 0.73072159
-0.038289547 -0.0090093017 0.73270077
-0.038642835 -0.010228992 0.73520935
-0.039146479 -0.01151365 0.73878551
-0.04005019 -0.012957394 0.74520242
-0.042009581 -0.014826894 0.75911534
-0.042379208 -0.016203791 0.76173991
-0.040915657 0.040915668 0.76015162
-0.040653937 0.039422035 0.75823694
-0.040500376 0.038045824 0.75711352
-0.040223531 0.036566854 0.75508821
-0.03955197 0.034757793 0.75017518
-0.039013688 0.033102512 0.74623716
-0.038579784 0.031565309 0.74306285
-0.038215481 0.030109167 0.74039769
-0.037900399 0.028712422 0.73809266
-0.03762199 0.027361423 0.73605579
-0.037372999 0.026047885 0.73423421
-0.03715669 0.024771154 0.73265177
-0.036958255 0.02351892 0.73120004
-0.036775023 0.022287905 0.72985959
-0.036616974 0.02108255 0.72870332
-0.036468007 0.019891649 0.72761357
-0.036336392 0.018718749 0.72665066
-0.036216844 0.017559677 0.72577602
-0.036107708 0.016412646 0.72497761
-0.036013208 0.015278339 0.72428626
-0.035925291 0.014152437 0.72364312
-0.035853524 0.013037652 0.72311813
-0.03578499 0.01192835 0.72261667
-0.035685841 0.010813922 0.72189134
-0.035478812 0.0096760392 0.72037673
-0.035180073 0.0085285008 0.71819127
-0.034973964 0.0074187517 0.71668339
-0.034845099 0.0063354969 0.71574068
-0.034771428 0.0052684247 0.71520168
-0.034748159 0.0042119324 0.71503145
-0.03478124 0.003161937 0.7152735
-0.034894586 0.0021148622 0.71610266
-0.035200473 0.0010666847 0.71834052
-0.035703745 -0 0.72202229
-0.03580796 -0.0010850728 0.7227847
-0.035886098 -0.0021749139 0.72335637
-0.035986051 -0.0032714307 0.7240876
-0.036103446 -0.004376173 0.72494638
-0.036242124 -0.0054911971 0.72596097
-0.036407378 -0.006619513 0.72716993
-0.036607396 -0.0077652037 0.72863328
-0.036853496 -0.00893417 0.73043358
-0.037164554 -0.01013577 0.73270929
-0.037573706 -0.011385918 0.73570251
-0.038206108 -0.012735397 0.74032915
-0.040470991 -0.014716715 0.75689858
-0.040690202 -0.016029477 0.7585023
-0.039553471 0.040789515 0.75922883
-0.039249215 0.039249271 0.75693339
-0.039099503 0.037877679 0.75580388
-0.038883016 0.03645283 0.7541706
-0.038282085 0.034693152 0.74963689
-0.037736405 0.033019394 0.74552011
-0.037303496 0.031474829 0.74225408
-0.036940821 0.030014455 0.73951793
-0.036627643 0.028615385 0.73715514
-0.03635123 0.027263433 0.73506975
-0.036111508 0.02595517 0.73326123
-0.035895996 0.024678528 0.73163521
-0.035698634 0.023427278 0.73014635
-0.035522338 0.022201478 0.72881621
-0.035364009 0.020997435 0.72762173
-0.035214834 0.019808382 0.72649628
-0.035088427 0.018640757 0.72554266
-0.034967963 0.017483979 0.72463381
-0.034863044 0.016342044 0.72384226
-0.034766901 0.015210539 0.72311693
-0.034682106 0.014089644 0.7224772
-0.034607891 0.012977958 0.72191727
-0.034542043 0.011873871 0.72142047
-0.034462787 0.010769606 0.72082257
-0.034306098 0.0096486211 0.71964043
-0.034029186 0.0085073709 0.71755123
-0.033799741 0.007393688 0.71582031
-0.033653542 0.0063100755 0.71471721
-0.033563666 0.0052443445 0.71403921
-0.033521924 0.0041902661 0.71372426
-0.033531051 0.0031435788 0.71379316
-0.033608191 0.0021005273 0.71437502
-0.033812877 0.0010566711 0.71591938
-0.034356005 -0 0.72001696
-0.034516871 -0.0010786355 0.72123057
-0.034591895 -0.0021619797 0.72179657
-0.034679402 -0.0032511652 0.72245681
-0.034782611 -0.004347831 0.72323549
-0.034905758 -0.0054540038 0.72416455
-0.035056774 -0.006573081 0.72530383
-0.035236534 -0.0077079833 0.72666001
-0.035453435 -0.0088633299 0.7282964
-0.035720617 -0.010046393 0.73031211
-0.036068879 -0.011271507 0.7329396
-0.036560569 -0.012567669 0.7366491
-0.037585989 -0.01409474 0.7443853
-0.039162431 -0.015909731 0.75627863
-0.038199656 0.040664196 0.75831163
-0.037875611 0.039097399 0.75578809
-0.037709679 0.037709713 0.75449586
-0.037533753 0.036323011 0.75312567
-0.037035473 0.034646094 0.74924529
-0.036465354 0.032936454 0.74480522
-0.036034331 0.031384796 0.74144858
-0.035673991 0.029920131 0.73864233
-0.035363302 0.028518826 0.73622274
-0.035095736 0.027170926 0.73413897
-0.034858961 0.025863111 0.73229504
-0.03464485 0.024586648 0.73062754
-0.034448642 0.023336202 0.72909951
-0.034279328 0.022115707 0.727781
-0.034121122 0.020912945 0.72654885
-0.033977766 0.019729078 0.72543246
-0.033850819 0.01856339 0.72444379
-0.033730242 0.017409205 0.72350478
-0.03362903 0.016272128 0.72271651
-0.033531468 0.015143275 0.72195679
-0.033450048 0.014027476 0.72132266
-0.033373758 0.01291889 0.72072852
-0.033310402 0.01181981 0.72023517
-0.033242296 0.010723323 0.71970481
-0.033118796 0.0096151531 0.71874297
-0.032883864 0.0084861517 0.71691334
-0.03263342 0.0073688626 0.71496296
-0.032471646 0.0062848628 0.71370316
-0.032366756 0.0052204728 0.71288633
-0.032311603 0.0041692555 0.71245676
-0.032308239 0.0031266212 0.71243054
-0.032358654 0.0020876825 0.71282315
-0.032489739 0.0010480881 0.71384406
-0.032951485 -0 0.71744007
-0.033230901 -0.0010719299 0.71961606
-0.033312976 -0.0021492243 0.72025526
-0.033388846 -0.0032311678 0.72084606
-0.03348254 -0.0043202937 0.72157574
-0.033596545 -0.0054187477 0.72246361
-0.033730533 -0.0065284669 0.72350705
-0.033889867 -0.0076525509 0.7247479
-0.034082137 -0.0087953806 0.72624528
-0.034318309 -0.0099633932 0.72808456
-0.034616705 -0.011166692 0.73040837
-0.035015557 -0.012424856 0.73351449
-0.035669394 -0.013807476 0.73860657
-0.037662253 -0.01579386 0.75412649
-0.037893377 -0.01711309 0.75592643
-0.036898527 0.040588349 0.75775737
-0.03651277 0.038946956 0.75465292
-0.036335293 0.037546486 0.75322479
-0.036187083 0.036187083 0.7520321
-0.035792068 0.034599006 0.74885321
-0.035218015 0.032870173 0.74423361
-0.034776922 0.031299263 0.74068397
-0.034418251 0.029829174 0.73779762
-0.034114748 0.028428972 0.7353552
-0.033850264 0.027080238 0.73322678
-0.033615265 0.025771707 0.73133564
-0.033402976 0.024495572 0.72962725
-0.033214062 0.023249894 0.72810704
-0.033045739 0.022030503 0.72675252
-0.032888338 0.02082929 0.7254858
-0.032750566 0.01965034 0.7243771
-0.03262344 0.018486649 0.7233541
-0.032507714 0.017337471 0.72242284
-0.032405537 0.016202807 0.72160053
-0.03230942 0.01507774 0.72082698
-0.032228809 0.013965845 0.72017831
-0.032151222 0.012860537 0.71955395
-0.032090049 0.011766374 0.71906173
-0.032029521 0.010676563 0.71857458
-0.031935073 0.0095805228 0.71781451
-0.031746499 0.0084657669 0.71629703
-0.031482436 0.0073459148 0.71417201
-0.031304378 0.0062609017 0.71273911
-0.031192359 0.0051987171 0.71183765
-0.031127935 0.0041504204 0.71131915
-0.031106906 0.0031107068 0.71114993
-0.031134391 0.0020756423 0.71137106
-0.031230779 0.0010410547 0.71214676
-0.031465672 -0 0.71403712
-0.031949211 -0.0010649562 0.71792829
-0.032048941 -0.0021365583 0.71873087
-0.032117926 -0.0032117963 0.71928602
-0.032203503 -0.0042937696 0.7199747
-0.032303996 -0.0053839982 0.72078335
-0.032422192 -0.0064844191 0.72173452
-0.032562438 -0.0075978637 0.7228632
-0.032734282 -0.0087291002 0.72424603
-0.032941598 -0.0098824501 0.72591448
-0.033200249 -0.011066765 0.72799587
-0.033541806 -0.012298614 0.73074448
-0.034031067 -0.013612419 0.73468179
-0.036141604 -0.015661359 0.75166607
-0.036368925 -0.016972154 0.75349534
-0.035633016 0.040547937 0.75746131
-0.035160545 0.038797885 0.75352806
-0.034972753 0.037384719 0.75196469
-0.034840077 0.036041498 0.75086021
-0.034546446 0.034546465 0.74841571
-0.033975687 0.032804191 0.74366421
-0.033534873 0.031222135 0.73999453
-0.033177257 0.029745162 0.73701739
-0.03287553 0.028340995 0.73450553
-0.032613218 0.026990235 0.73232186
-0.032380331 0.025680959 0.73038316
-0.032170564 0.024405271 0.7286368
-0.031989001 0.023164451 0.72712529
-0.031821758 0.021946073 0.72573304
-0.031667169 0.020747483 0.72444612
-0.031533111 0.019572318 0.72333014
-0.031406168 0.018410563 0.72227335
-0.031295083 0.017266273 0.72134858
-0.031192424 0.016134024 0.72049397
-0.031100297 0.015013933 0.71972698
-0.031018259 0.01390475 0.71904403
-0.03094391 0.012804419 0.71842504
-0.030880557 0.011713326 0.71789765
-0.030822702 0.010628521 0.71741605
-0.030750848 0.0095433593 0.71681786
-0.030605046 0.0084427893 0.71560407
-0.030358396 0.0073279142 0.71355075
-0.030160388 0.0062400997 0.71190238
-0.030033411 0.0051782131 0.71084523
-0.029954797 0.0041317344 0.71019083
-0.029917615 0.0030949116 0.70988131
-0.029924158 0.002063781 0.70993572
-0.029988473 0.001034081 0.71047115
-0.030160511 -0 0.71190339
-0.030644733 -0.0010566711 0.71593446
-0.030799018 -0.0021240115 0.71721888
-0.03086558 -0.0031929612 0.71777302
-0.030940212 -0.0042675734 0.71839434
-0.031028073 -0.0053496659 0.71912569
-0.0311362 -0.0064419806 0.7200259
-0.031264875 -0.0075466931 0.72109705
-0.031417593 -0.0086669028 0.72236836
-0.031601515 -0.0098073184 0.72389954
-0.031826925 -0.010974765 0.72577608
-0.032111615 -0.012180269 0.72814602
-0.032509319 -0.013452113 0.73145688
-0.033181809 -0.014874578 0.7370553
-0.034903269 -0.016849816 0.75138623
-0.035144705 -0.018178254 0.75339621
-0.033823371 0.038655311 0.75245249
-0.033621907 0.037224263 0.75071543
-0.033498265 0.035891026 0.74964935
-0.033278178 0.034466714 0.74775171
-0.032738496 0.032738507 0.7430985
-0.032298777 0.031145275 0.73930717
-0.031943377 0.029661745 0.73624277
-0.031644098 0.028253704 0.73366237
-0.031384371 0.026900917 0.7314229
-0.031154066 0.025590867 0.72943717
-0.030952943 0.024320155 0.72770309
-0.030772775 0.023079574 0.72614962
-0.030606994 0.021862179 0.72472024
-0.030459004 0.020668656 0.72344428
-0.030325297 0.019494891 0.72229141
-0.030199921 0.01833564 0.72121042
-0.0300925 0.017195731 0.72028416
-0.029989563 0.016065836 0.71939671
-0.029901363 0.014950693 0.71863616
-0.02981825 0.013844252 0.71791959
-0.029747086 0.012748748 0.71730596
-0.029682048 0.011660814 0.7167452
-0.029626684 0.010580957 0.71626782
-0.029565288 0.0095031559 0.71573853
-0.029452048 0.0084148645 0.71476209
-0.029239859 0.0073099732 0.71293253
-0.02902397 0.0062194467 0.71107107
-0.028883712 0.0051578581 0.70986181
-0.028792297 0.0041131675 0.7090736
-0.028743977 0.0030797124 0.70865697
-0.02874044 0.002052933 0.70862651
-0.028783189 0.0010280013 0.7089951
-0.028894672 2.9802322e-08 0.70995629
-0.0292594 -0.0010449588 0.71310103
-0.029553315 -0.0021109283 0.7156353
-0.029627936 -0.0031744242 0.71627867
-0.029692363 -0.0042417645 0.71683419
-0.029774271 -0.0053167939 0.71754038
-0.029871272 -0.0064010024 0.71837676
-0.029984942 -0.0074962378 0.71935683
-0.030119542 -0.0086055696 0.72051734
-0.030281514 -0.0097333193 0.72191393
-0.030479811 -0.010885626 0.72362369
-0.030729175 -0.012072176 0.72577369
-0.031055313 -0.013309389 0.72858572
-0.031546626 -0.01464662 0.73282194
-0.033452034 -0.016726017 0.74925077
-0.033627715 -0.018014848 0.7507655
-0.032517262 0.038539022 0.75157499
-0.032282602 0.037065238 0.74947679
-0.032162707 0.035736352 0.74840474
-0.031992096 0.034361929 0.74687928
-0.031516828 0.032684147 0.74262953
-0.031068895 0.031068891 0.73862439
-0.030716259 0.029578656 0.73547131
-0.030420098 0.028166771 0.73282313
-0.030163497 0.026811987 0.73052877
-0.029939955 0.02550438 0.72852993
-0.029743783 0.024235696 0.72677588
-0.02956556 0.022995472 0.72518229
-0.029401481 0.021778911 0.72371513
-0.029259857 0.020590276 0.72244883
-0.029127002 0.019418031 0.72126091
-0.029007051 0.018263727 0.72018838
-0.028899701 0.017125756 0.71922851
-0.028798791 0.015999347 0.71832621
-0.028712491 0.014887959 0.71755451
-0.028628645 0.0137842 0.7168048
-0.028560616 0.012693644 0.71619654
-0.028494114 0.01160872 0.71560198
-0.028441204 0.01053378 0.7151289
-0.028388014 0.0094627142 0.71465325
-0.028299766 0.0083851516 0.71386415
-0.028129708 0.0072929263 0.71234357
-0.027898395 0.0061996281 0.71027529
-0.027746212 0.0051382184 0.70891452
-0.027649786 0.0040962696 0.7080524
-0.027593989 0.0030660629 0.70755339
-0.027575063 0.0020426214 0.70738423
-0.027597709 0.0010221303 0.70758671
-0.027678676 5.9604645e-08 0.7083106
-0.027873987 -0.0010323524 0.71005702
-0.028305458 -0.0020966828 0.71391511
-0.028404608 -0.0031560361 0.71480161
-0.028464695 -0.0042169392 0.71533889
-0.02853745 -0.0052847266 0.71598941
-0.02862246 -0.0063605011 0.71674955
-0.028722012 -0.0074464083 0.71763968
-0.028844168 -0.008546412 0.718732
-0.028989622 -0.0096631944 0.72003251
-0.029164225 -0.010801554 0.72159374
-0.029378207 -0.011968851 0.72350705
-0.029653037 -0.013179094 0.72596449
-0.030040752 -0.014464051 0.72943127
-0.030775597 -0.015957683 0.73600185
-0.032194439 -0.017885774 0.74868846
-0.032463972 -0.019237876 0.75109851
-0.031219142 0.038423598 0.75070429
-0.030967368 0.036922663 0.74836648
-0.030837586 0.035581827 0.74716133
-0.030698307 0.034240425 0.74586809
-0.030309374 0.032640874 0.74225664
-0.029849272 0.030997336 0.73798442
-0.029495999 0.029496014 0.73470414
-0.029203601 0.028080404 0.73198915
-0.028953884 0.026726693 0.72967041
-0.028736813 0.025421053 0.72765481
-0.028542997 0.024151802 0.72585511
-0.028367111 0.022911936 0.72422189
-0.028209886 0.021699935 0.72276199
-0.028069889 0.02051264 0.72146213
-0.027938234 0.019341886 0.72023964
-0.02782351 0.018192321 0.71917439
-0.02771657 0.017056376 0.71818137
-0.027620183 0.015934706 0.71728635
-0.02753355 0.014825761 0.71648198
-0.027453484 0.013726771 0.71573853
-0.027384369 0.012638986 0.71509677
-0.027319729 0.011558354 0.71449649
-0.027266249 0.01048705 0.71399993
-0.027215939 0.0094209313 0.71353281
-0.027150504 0.008354038 0.7129252
-0.027017547 0.007273972 0.71169055
-0.026800366 0.006184727 0.70967406
-0.026631171 0.0051213801 0.70810294
-0.02652215 0.0040803552 0.70709062
-0.026454087 0.0030524135 0.70645869
-0.026421312 0.0020324588 0.70615435
-0.026425499 0.0010163784 0.70619321
-0.026478639 -2.9802322e-08 0.70668668
-0.02662136 -0.0010238886 0.70801181
-0.027044058 -0.0020803213 0.71193677
-0.027193068 -0.0031376481 0.71332043
-0.02725254 -0.0041926801 0.71387267
-0.027315484 -0.0052529573 0.71445715
-0.027390247 -0.0063208044 0.71515131
-0.027483178 -0.0073992908 0.71601421
-0.027591828 -0.0084897876 0.71702313
-0.027720116 -0.0095953643 0.71821427
-0.027874064 -0.01072076 0.71964377
-0.028062262 -0.01187247 0.72139126
-0.028298864 -0.013060987 0.72358823
-0.028608276 -0.014304101 0.72646129
-0.029097654 -0.015667945 0.73100531
-0.030781109 -0.01775831 0.74663699
-0.030941734 -0.019041032 0.74812841
-0.029945396 0.038330138 0.74999923
-0.029664602 0.036784142 0.74728769
-0.029526243 0.035431474 0.74595153
-0.029409342 0.034114867 0.74482268
-0.029104976 0.032597631 0.7418834
-0.028644964 0.030936569 0.73744112
-0.028290467 0.029422075 0.73401785
-0.028001435 0.028001428 0.73122668
-0.027756013 0.026645809 0.72885662
-0.027541632 0.025338322 0.72678643
-0.027350497 0.024068445 0.72494066
-0.02717722 0.022828877 0.72326738
-0.027027136 0.021621764 0.72181803
-0.026888749 0.020435512 0.72048163
-0.026760701 0.019267738 0.71924514
-0.026649188 0.018121451 0.7181682
-0.026542991 0.016987562 0.7171427
-0.026450943 0.015870601 0.71625376
-0.02636442 0.014764071 0.71541834
-0.026288072 0.013669848 0.71468103
-0.026218206 0.012584776 0.7140063
-0.026156474 0.011508882 0.7134102
-0.026101787 0.010440737 0.71288204
-0.02605373 0.0093793273 0.71241796
-0.025999144 0.0083197355 0.71189082
-0.025896877 0.0072511435 0.71090329
-0.025707515 0.0061698258 0.70907462
-0.0255234 0.0051047206 0.70729661
-0.025403149 0.0040645301 0.70613539
-0.025324257 0.003038913 0.70537364
-0.025282493 0.0020225942 0.7049703
-0.025279017 0.0010111928 0.70493674
-0.025314724 -0 0.70528156
-0.025408411 -0.001016289 0.70618629
-0.025696637 -0.0020556748 0.70896959
-0.025986612 -0.003118366 0.71176982
-0.026054161 -0.0041686296 0.71242213
-0.02610876 -0.0052217245 0.7129494
-0.026179029 -0.0062829256 0.71362793
-0.026260696 -0.007352978 0.71441662
-0.026355976 -0.0084338784 0.71533674
-0.026468294 -0.0095285475 0.71642137
-0.026604524 -0.010641783 0.7177369
-0.026769405 -0.011778504 0.71932918
-0.026972936 -0.012946963 0.72129464
-0.027240666 -0.014165133 0.72388005
-0.02761252 -0.015462995 0.72747099
-0.028506184 -0.017103672 0.73610097
-0.029535865 -0.018902957 0.74604446
-0.029895296 -0.02032876 0.74951541
-0.028715132 0.038286835 0.74967289
-0.028371714 0.036646843 0.74621826
-0.028226066 0.035282612 0.74475318
-0.028121892 0.033980608 0.74370527
-0.027897418 0.032546997 0.74144727
-0.027445367 0.03087607 0.73689997
-0.027093528 0.029351354 0.73336077
-0.026807446 0.027924478 0.73048294
-0.026565254 0.026565284 0.72804677
-0.026354207 0.025256127 0.72592372
-0.026166197 0.023985684 0.72403252
-0.026000654 0.022750616 0.72236729
-0.025852988 0.021544158 0.72088194
-0.025716461 0.02035889 0.71950853
-0.025594562 0.019195914 0.71828234
-0.025483975 0.018051177 0.71716988
-0.025380669 0.016920477 0.71613079
-0.025291188 0.015807033 0.71523058
-0.025204873 0.014702857 0.71436238
-0.025132289 0.013613343 0.71363223
-0.025062004 0.012531042 0.7129252
-0.025003247 0.011459827 0.71233416
-0.024947461 0.010394782 0.71177298
-0.024901832 0.0093382299 0.71131396
-0.024855444 0.0082851648 0.71084738
-0.024774527 0.0072259009 0.71003336
-0.024621934 0.0061555207 0.70849848
-0.024423033 0.0050881505 0.70649761
-0.024294466 0.0040490925 0.70520437
-0.024212468 0.0030265749 0.7043795
-0.024164623 0.0020137131 0.70389825
-0.024148004 0.001006186 0.70373106
-0.024166178 2.9802322e-08 0.70391393
-0.02423338 -0.0010096729 0.70458984
-0.024395743 -0.0020329654 0.70622313
-0.024773812 -0.0030966997 0.71002614
-0.024869446 -0.0041448474 0.71098816
-0.024921365 -0.005191952 0.71151054
-0.024982337 -0.0062455833 0.71212375
-0.025053428 -0.0073072314 0.71283895
-0.025138495 -0.0083794594 0.71369463
-0.025241427 -0.0094654858 0.71473002
-0.025362765 -0.010567784 0.71595061
-0.025508117 -0.011691183 0.71741277
-0.025685439 -0.012842685 0.71919644
-0.025908209 -0.014033616 0.72143734
-0.026213262 -0.015291065 0.72450602
-0.026713464 -0.016695887 0.72953761
-0.028156314 -0.018770844 0.74405152
-0.028323131 -0.020062208 0.74572963
-0.027088437 0.036510527 0.74515688
-0.026936775 0.035134971 0.7435649
-0.026840277 0.033842117 0.74255204
-0.026670586 0.032468557 0.74077088
-0.026250336 0.030815661 0.73635966
-0.025902217 0.029280782 0.73270559
-0.025620008 0.027847886 0.72974336
-0.025381668 0.026485234 0.72724164
-0.025174346 0.025174379 0.72506547
-0.024991535 0.023904949 0.72314656
-0.02483245 0.02267313 0.72147673
-0.024687234 0.021467209 0.71995246
-0.024553031 0.020282984 0.71854377
-0.024437079 0.019124687 0.71732664
-0.024327768 0.01798141 0.71617931
-0.02422953 0.016855329 0.71514809
-0.024140684 0.015743941 0.71421552
-0.024058022 0.014644057 0.71334785
-0.023986017 0.013557345 0.71259207
-0.023917323 0.01247862 0.71187109
-0.023859803 0.01141125 0.71126723
-0.023804329 0.010349751 0.71068496
-0.023759902 0.0092973709 0.71021867
-0.023716712 0.0082493424 0.70976532
-0.023657331 0.0072000623 0.70914197
-0.023538394 0.0061404407 0.70789361
-0.023349749 0.0050760508 0.70591342
-0.023207171 0.0040360093 0.70441681
-0.023114691 0.0030149817 0.70344609
-0.023056528 0.0020049512 0.70283556
-0.023028105 0.0010012388 0.7025373
-0.023030505 -0 0.70256239
-0.023074001 -0.001003176 0.70301902
-0.023190243 -0.0020165145 0.70423913
-0.023549471 -0.0030716658 0.70800978
-0.023694348 -0.0041207373 0.70953053
-0.023747448 -0.0051624477 0.7100879
-0.023799898 -0.0062086284 0.71063846
-0.023863958 -0.0072629452 0.71131086
-0.023941604 -0.0083274841 0.7121259
-0.024031896 -0.0094037652 0.71307367
-0.024138253 -0.010494858 0.71419001
-0.024265291 -0.011605114 0.71552348
-0.024420071 -0.01274088 0.71714813
-0.024613842 -0.013912141 0.71918207
-0.024866039 -0.015135795 0.7218293
-0.025235623 -0.016458005 0.72570866
-0.026775831 -0.01862663 0.74187565
-0.02692581 -0.019901693 0.74344987
-0.025833091 0.036401153 0.74430549
-0.025658229 0.034988463 0.74238658
-0.025565505 0.033700019 0.74136901
-0.025434604 0.032371312 0.7399326
-0.025072185 0.030770421 0.73595548
-0.024716731 0.029210687 0.73205483
-0.024439067 0.027771682 0.72900784
-0.024205299 0.026405811 0.72644258
-0.02400252 0.025093555 0.72421736
-0.023828359 0.023828387 0.72230613
-0.023672175 0.02259618 0.7205922
-0.023529684 0.021390617 0.71902859
-0.023401929 0.020210803 0.71762657
-0.023288058 0.019053876 0.71637702
-0.023180561 0.017912269 0.71519738
-0.023087217 0.016790748 0.71417302
-0.022999326 0.015681386 0.71320856
-0.022920884 0.014586031 0.71234775
-0.022849139 0.013501823 0.71156049
-0.022783969 0.012427628 0.71084529
-0.022726018 0.011363 0.71020937
-0.022673404 0.01030612 0.70963198
-0.022627912 0.0092569292 0.70913279
-0.022586964 0.0082134902 0.70868337
-0.022539051 0.0071715117 0.70815766
-0.022448042 0.0061222315 0.70715892
-0.022281557 0.0050640106 0.70533198
-0.022126861 0.0040231049 0.70363438
-0.022025209 0.0030034482 0.70251894
-0.021958165 0.0019962192 0.70178318
-0.021922395 0.00099647045 0.70139068
-0.021919163 2.9802322e-08 0.70135522
-0.021948446 -0.00099766254 0.70167649
-0.022026179 -0.0020023584 0.70252955
-0.022248683 -0.0030339062 0.70497125
-0.022525584 -0.0040955544 0.70800984
-0.022586685 -0.005133301 0.70868033
-0.022633312 -0.0061726868 0.70919198
-0.02269182 -0.0072200894 0.7098341
-0.022759473 -0.0082761347 0.71057653
-0.022838045 -0.0093427896 0.71143872
-0.02293282 -0.010423988 0.71247882
-0.023046613 -0.011523277 0.71372747
-0.023182612 -0.012645036 0.71521986
-0.023348318 -0.013796717 0.71703827
-0.023557883 -0.014991343 0.719338
-0.023853559 -0.016263813 0.7225827
-0.024359349 -0.017715842 0.72813308
-0.025575483 -0.019762874 0.7414785
-0.025747772 -0.021066338 0.74336916
-0.024586851 0.036294878 0.74347758
-0.024398224 0.034854591 0.74130917
-0.02430027 0.033557534 0.740183
-0.024193961 0.03225863 0.73896092
-0.023901511 0.030730516 0.7355988
-0.023543656 0.029149324 0.73148477
-0.023266008 0.027697653 0.72829288
-0.023038087 0.026329249 0.72567266
-0.022843458 0.02501902 0.72343516
-0.022672713 0.023752391 0.72147214
-0.022519747 0.022519767 0.71971369
-0.022380453 0.02131474 0.71811235
-0.022259271 0.020139366 0.71671915
-0.022147514 0.018983632 0.71543437
-0.022044176 0.017845273 0.71424639
-0.021953627 0.016726583 0.7132054
-0.021867005 0.015619308 0.71220952
-0.021792628 0.014528424 0.71135449
-0.021721449 0.013446659 0.71053618
-0.021659836 0.012377113 0.7098279
-0.02160177 0.011315256 0.70916045
-0.021551969 0.010262877 0.70858788
-0.021505829 0.0092167854 0.70805734
-0.021467077 0.0081779659 0.70761192
-0.021426542 0.007142216 0.70714587
-0.021354431 0.0061012805 0.70631683
-0.021219622 0.0050522983 0.70476711
-0.021053467 0.0040102005 0.7028569
-0.020944441 0.0029921234 0.70160353
-0.020875782 0.0019882321 0.70081425
-0.020835463 0.00099220872 0.7003507
-0.020820931 -0 0.70018369
-0.020835381 -0.00099214911 0.70034975
-0.020890227 -0.0019895434 0.70098031
-0.021022802 -0.0030032396 0.7025044
-0.021348877 -0.0040664077 0.70625299
-0.021438869 -0.0051044822 0.70728767
-0.021483053 -0.0061379671 0.70779556
-0.021533418 -0.0071777701 0.70837456
-0.021591738 -0.0082254112 0.70904505
-0.021664035 -0.0092845857 0.70987618
-0.021748874 -0.010356575 0.71085155
-0.021848453 -0.01144442 0.71199632
-0.021967305 -0.012552738 0.71336269
-0.022111906 -0.013688296 0.71502501
-0.022292707 -0.014861763 0.71710348
-0.022528147 -0.016091526 0.71981025
-0.022889836 -0.017439842 0.72396827
-0.024242524 -0.019624889 0.73951912
-0.024362924 -0.020882487 0.74090326
-0.023347758 0.036189049 0.74265325
-0.023151467 0.034727216 0.74028385
-0.023047812 0.033419371 0.73903263
-0.022959083 0.032142758 0.73796153
-0.022733867 0.03069073 0.73524296
-0.022379605 0.029093504 0.73096657
-0.022105826 0.027632296 0.72766185
-0.021881929 0.02625832 0.72495914
-0.02169135 0.02494508 0.72265869
-0.021524416 0.023676872 0.72064364
-0.021375088 0.022443861 0.71884108
-0.021242507 0.021242499 0.71724063
-0.02112475 0.020068526 0.71581924
-0.021015441 0.018913895 0.71449971
-0.020917658 0.017780036 0.71331936
-0.020828666 0.016662985 0.71224517
-0.020745847 0.015559405 0.71124542
-0.020673333 0.014471352 0.71037006
-0.020603612 0.013392389 0.70952845
-0.020544816 0.012326926 0.70881879
-0.020487025 0.0112679 0.70812112
-0.020439908 0.010219991 0.70755237
-0.020393338 0.0091770291 0.70699024
-0.02035675 0.0081427395 0.70654863
-0.020320291 0.0071120858 0.70610857
-0.020267447 0.00608024 0.70547068
-0.020161772 0.005040437 0.70419502
-0.020001946 0.0040003955 0.70226574
-0.019883752 0.0029825568 0.70083904
-0.019806616 0.0019806921 0.6999079
-0.019757813 0.00098788738 0.69931883
-0.019733423 2.9802322e-08 0.69902444
-0.019734513 -0.00098672509 0.69903755
-0.019771241 -0.0019771159 0.69948089
-0.019862283 -0.0029793382 0.70057988
-0.020158278 -0.0040316284 0.70415282
-0.020299105 -0.0050747693 0.70585275
-0.020345658 -0.0061036646 0.7064147
-0.020388519 -0.0071359575 0.70693207
-0.020442581 -0.008177042 0.70758468
-0.020506335 -0.0092278421 0.70835429
-0.020580139 -0.010290027 0.70924509
-0.020666586 -0.011366576 0.7102887
-0.020770477 -0.012462288 0.71154279
-0.020896429 -0.013582677 0.71306312
-0.021050364 -0.014735252 0.71492124
-0.02125207 -0.015939057 0.71735609
-0.021528028 -0.017222404 0.72068715
-0.022082316 -0.01876995 0.72737801
-0.023042185 -0.020737916 0.73896468
-0.023226049 -0.022064745 0.74118412
-0.022154629 0.036147058 0.7423262
-0.021913692 0.034600586 0.73926479
-0.021805527 0.033282161 0.73789036
-0.021727186 0.032019019 0.73689491
-0.021562884 0.030642003 0.73480719
-0.021220004 0.029037923 0.73045045
-0.0209512 0.027567387 0.72703493
-0.020731982 0.026187807 0.72424948
-0.02054595 0.024871439 0.72188568
-0.02038331 0.023601741 0.71981913
-0.020238206 0.02236855 0.71797538
-0.02011301 0.021171629 0.71638459
-0.019998182 0.019998223 0.71492553
-0.019891566 0.018844664 0.71357083
-0.019799432 0.017715275 0.71240014
-0.019712316 0.016599894 0.71129316
-0.019634148 0.015500665 0.71029997
-0.019562798 0.014414698 0.70939338
-0.019497082 0.013340116 0.70855832
-0.019438798 0.012277156 0.70781779
-0.019384179 0.011222422 0.70712376
-0.019337103 0.010177433 0.70652556
-0.019292993 0.0091388226 0.70596516
-0.019255947 0.0081077814 0.7054944
-0.019221609 0.0070816875 0.7050581
-0.019180113 0.006056875 0.70453084
-0.019099426 0.0050261617 0.70350564
-0.018957442 0.0039910674 0.70170152
-0.018829778 0.0029731691 0.70007932
-0.018745422 0.001973182 0.69900751
-0.018689407 0.00098368526 0.69829571
-0.018659474 -0 0.69791538
-0.018656397 -0.00098189712 0.69787633
-0.018680079 -0.0019662678 0.69817722
-0.018743204 -0.0029594302 0.69897932
-0.01891008 -0.003981024 0.70109969
-0.019165266 -0.0050434768 0.70434225
-0.019220831 -0.0060697198 0.7050482
-0.019260004 -0.0070957839 0.70554596
-0.019307647 -0.0081295073 0.70615137
-0.019362623 -0.0091717541 0.70684993
-0.01942688 -0.01022464 0.7076664
-0.019505642 -0.011292726 0.70866716
-0.019597964 -0.01237762 0.70984018
-0.019707983 -0.013484389 0.71123815
-0.019841582 -0.014620095 0.71293569
-0.02000862 -0.015796274 0.71505821
-0.020232521 -0.017037898 0.71790314
-0.020587953 -0.018420786 0.72241938
-0.021740302 -0.020596057 0.73706156
-0.021849928 -0.02184993 0.73845458
-0.021056311 0.036263674 0.7432344
-0.020685004 0.034475029 0.73825437
-0.020573491 0.033146232 0.73675871
-0.020501653 0.031891495 0.73579514
-0.020376878 0.030565351 0.73412162
-0.020064734 0.028982401 0.72993517
-0.019801898 0.027502686 0.72640979
-0.019588197 0.026117623 0.72354364
-0.019407291 0.024798185 0.72111726
-0.019249503 0.023527175 0.71900094
-0.019112818 0.022298336 0.71716774
-0.018991029 0.021101147 0.71553421
-0.018879404 0.019928306 0.71403706
-0.018778788 0.018778801 0.71268761
-0.018689239 0.017650962 0.71148658
-0.018604308 0.01653716 0.71034741
-0.018530812 0.015442371 0.70936167
-0.018460924 0.01435855 0.70842433
-0.018399073 0.01328823 0.70759481
-0.018341595 0.012227744 0.70682383
-0.018290343 0.01117745 0.70613641
-0.018243438 0.010135263 0.7055074
-0.018201996 0.0091010332 0.70495147
-0.018164624 0.0080731511 0.70445025
-0.01813237 0.0070514977 0.70401764
-0.018097684 0.0060325861 0.70355242
-0.018034771 0.0050096512 0.7027086
-0.017918376 0.0039818883 0.70114756
-0.017782452 0.0029637814 0.69932443
-0.017692259 0.0019658208 0.69811475
-0.017635375 0.00097975135 0.69735181
-0.017602012 2.9802322e-08 0.6969043
-0.017589705 -0.00097715855 0.69673926
-0.017600842 -0.0019556284 0.69688869
-0.017644566 -0.0029407442 0.69747508
-0.017750559 -0.0039445758 0.69889665
-0.018025819 -0.0050071478 0.70258856
-0.01810809 -0.0060360134 0.70369196
-0.018145155 -0.0070564151 0.70418918
-0.018185824 -0.0080825686 0.70473456
-0.018233687 -0.0091168284 0.70537651
-0.018292943 -0.010162741 0.70617127
-0.018361339 -0.011220843 0.70708871
-0.018441418 -0.012294233 0.70816267
-0.018536611 -0.013387531 0.7094394
-0.018651852 -0.014506966 0.71098512
-0.018795405 -0.015662819 0.71291041
-0.018981423 -0.016872376 0.7154054
-0.019246211 -0.018176943 0.71895683
-0.020423735 -0.02042371 0.73475015
-0.02055396 -0.021695822 0.73649675
-0.020793315 -0.023103654 0.73970699
-0.019474918 0.034367532 0.73738921
-0.019351482 0.033011377 0.73563629
-0.01928331 0.031760782 0.73466808
-0.019187871 0.030474871 0.73331273
-0.018925657 0.028945148 0.72958899
-0.018658062 0.027438372 0.72578883
-0.018450607 0.026047945 0.72284263
-0.018275393 0.024725556 0.72035444
-0.018125772 0.023456901 0.71822965
-0.017994557 0.022228599 0.71636617
-0.017876489 0.021031141 0.71468955
-0.017768495 0.019858897 0.71315587
-0.017674129 0.018713802 0.71181571
-0.017587155 0.017587185 0.71058059
-0.017506583 0.01647681 0.70943642
-0.017435746 0.015384495 0.70843041
-0.017367536 0.014302701 0.70746171
-0.017309645 0.013236791 0.70663965
-0.017253259 0.012178749 0.70583886
-0.01720524 0.011132836 0.70515692
-0.017158801 0.010093421 0.70449746
-0.017119914 0.0090635121 0.70394516
-0.017082507 0.0080388486 0.70341396
-0.017052302 0.0070215762 0.70298499
-0.017022001 0.0060077608 0.7025547
-0.016975055 0.0049927235 0.70188802
-0.016884683 0.003972888 0.70060468
-0.016752267 0.0029562712 0.69872415
-0.016656479 0.0019596219 0.69736379
-0.016593639 0.00097611547 0.69647145
-0.016553594 5.9604645e-08 0.69590271
-0.016533196 -0.00097250938 0.69561303
-0.016533261 -0.0019451082 0.69561398
-0.016563522 -0.0029229522 0.69604373
-0.016632965 -0.0039136112 0.69702989
-0.016864998 -0.0049602687 0.70032507
-0.017002607 -0.0060009062 0.70227927
-0.017042669 -0.0070175827 0.7028482
-0.017077021 -0.0080361962 0.703336
-0.017121568 -0.0090643466 0.7039687
-0.017172588 -0.010101527 0.70469326
-0.017231518 -0.011149764 0.70553005
-0.017301336 -0.012212694 0.70652163
-0.017385853 -0.013295054 0.70772189
-0.017486356 -0.014400512 0.70914912
-0.017608272 -0.015536666 0.71088046
-0.017760703 -0.016715944 0.71304524
-0.017974023 -0.017973989 0.71607459
-0.018323975 -0.019401819 0.7210443
-0.019280862 -0.021549165 0.73463333
-0.019392069 -0.022814184 0.73621267
-0.018277112 0.034269631 0.73660117
-0.018143814 0.032885671 0.73458993
-0.018074015 0.031629562 0.73353672
-0.017997384 0.030370623 0.73238045
-0.017789822 0.028908491 0.72924864
-0.017527005 0.02738595 0.72528297
-0.017322518 0.025983781 0.72219747
-0.017154152 0.024659097 0.71965712
-0.017010109 0.023388922 0.71748364
-0.016883263 0.022159338 0.71556967
-0.01676932 0.020961672 0.71385044
-0.016667236 0.019792348 0.71231008
-0.016577089 0.01864925 0.7109499
-0.016492942 0.017523766 0.70968014
-0.016417719 0.016417742 0.70854521
-0.016348854 0.015327066 0.70750606
-0.016285002 0.014249384 0.70654261
-0.016228618 0.013185769 0.70569187
-0.016174911 0.012131184 0.70488149
-0.016128767 0.01108855 0.70418519
-0.016084116 0.010052592 0.70351148
-0.016046846 0.0090263784 0.70294917
-0.016010709 0.0080053806 0.7024039
-0.015981371 0.0069918931 0.70196116
-0.015953282 0.0059825182 0.70153731
-0.015918326 0.004974544 0.70100987
-0.015848305 0.0039620697 0.69995332
-0.015730532 0.002949506 0.69817632
-0.015627846 0.0019534528 0.6966269
-0.015559566 0.00097250938 0.69559664
-0.015513977 2.9802322e-08 0.69490874
-0.015489423 -0.00096809864 0.69453824
-0.015486726 -0.0019358397 0.69449759
-0.015505322 -0.0029072464 0.69477814
-0.015555274 -0.0038888156 0.69553185
-0.015675705 -0.0048986375 0.69734901
-0.015902199 -0.0059632957 0.70076656
-0.0159522 -0.0069791079 0.70152104
-0.015984241 -0.0079920888 0.70200449
-0.016022181 -0.0090124607 0.70257688
-0.016065717 -0.010041028 0.70323384
-0.016118247 -0.011081278 0.70402646
-0.016180795 -0.012135565 0.70497024
-0.01625379 -0.013206184 0.70607162
-0.016340444 -0.014297843 0.70737916
-0.016445307 -0.015417457 0.70896149
-0.016575854 -0.016575813 0.71093118
-0.016744977 -0.01779151 0.7134831
-0.016998263 -0.019123018 0.71730489
-0.0180165 -0.021394551 0.73266888
-0.018109502 -0.022636861 0.73407221
-0.017086111 0.034172207 0.73581773
-0.016949134 0.032768339 0.73361307
-0.016876265 0.031502396 0.73244029
-0.016813131 0.030263633 0.73142421
-0.016656935 0.028872043 0.72891021
-0.016400831 0.02733472 0.72478831
-0.016202418 0.025923878 0.72159481
-0.016039675 0.024594158 0.7189756
-0.015900826 0.023321241 0.71674085
-0.015778812 0.022090375 0.71477699
-0.015669443 0.02089262 0.71301675
-0.015574367 0.019727558 0.71148646
-0.01548753 0.018585086 0.71008897
-0.01540665 0.017460853 0.70878726
-0.015336571 0.016359061 0.70765924
-0.015270047 0.015270054 0.70658863
-0.015210691 0.014196634 0.70563328
-0.015155894 0.013135135 0.70475137
-0.015105928 0.012084752 0.70394719
-0.015060763 0.011044562 0.70322019
-0.015019293 0.010012895 0.7025528
-0.014982474 0.0089894831 0.70196021
-0.014948873 0.0079727471 0.70141941
-0.014919513 0.0069624186 0.70094681
-0.0148934 0.005957365 0.7005266
-0.014864554 0.0049548745 0.70006227
-0.014811282 0.0039497018 0.69920492
-0.014713606 0.0029427409 0.69763279
-0.014605545 0.001947403 0.69589359
-0.0145332 0.0009689033 0.69472921
-0.014487137 2.9802322e-08 0.69398791
-0.014460342 -0.00096401572 0.69355661
-0.014450152 -0.0019266903 0.69339257
-0.014458449 -0.0028916895 0.69352609
-0.014492285 -0.0038645864 0.69407076
-0.014574573 -0.004858166 0.69539505
-0.014800592 -0.0059202313 0.6990329
-0.014873097 -0.0069407523 0.70019972
-0.014903339 -0.0079484284 0.70068651
-0.014935307 -0.0089611709 0.70120102
-0.014973985 -0.0099826455 0.70182359
-0.015020615 -0.011015087 0.70257401
-0.015074315 -0.01205945 0.70343828
-0.01513682 -0.013118535 0.70444435
-0.01521106 -0.014196962 0.70563924
-0.015301489 -0.015301466 0.70709461
-0.015411081 -0.016438425 0.70885849
-0.015553324 -0.01762706 0.7111479
-0.015747361 -0.018896818 0.71427089
-0.016102582 -0.02039659 0.71998799
-0.016862994 -0.022483975 0.73222667
-0.016973589 -0.023763001 0.73400676
-0.015919566 0.034113377 0.73534399
-0.015762877 0.032651693 0.73264205
-0.015688108 0.031376243 0.73135269
-0.01563314 0.030149639 0.73040473
-0.015521188 0.028825104 0.7284742
-0.015278862 0.027283728 0.7242955
-0.015087537 0.025864363 0.72099614
-0.014931052 0.024529606 0.71829766
-0.014797946 0.023253947 0.71600235
-0.014681273 0.022021919 0.71399039
-0.014579035 0.020827204 0.71222734
-0.014488633 0.019663125 0.71066844
-0.014405504 0.018521369 0.70923495
-0.014330181 0.01740095 0.70793599
-0.014263188 0.016300797 0.70678079
-0.014199292 0.015213519 0.70567894
-0.014144245 0.014144242 0.70472968
-0.01409138 0.013084859 0.70381808
-0.014045045 0.012038648 0.70301902
-0.014001251 0.011000991 0.70226383
-0.01396285 0.0099734664 0.70160156
-0.013926762 0.0089529455 0.70097935
-0.013895655 0.0079404116 0.70044285
-0.013866498 0.0069333017 0.69994009
-0.01384233 0.0059324503 0.69952333
-0.013817974 0.0049349964 0.69910336
-0.013777697 0.0039365292 0.69840872
-0.01370288 0.0029363632 0.69711864
-0.013596598 0.0019423664 0.69528586
-0.013521381 0.00096583366 0.69398874
-0.013471713 -0 0.69313228
-0.013439819 -0.00095996261 0.69258231
-0.013423336 -0.0019176006 0.69229805
-0.013423336 -0.0028764307 0.69229805
-0.013446939 -0.0038419962 0.69270509
-0.013500066 -0.0048214495 0.69362122
-0.013669295 -0.0058582723 0.69653946
-0.013800714 -0.0069003701 0.69880575
-0.013834238 -0.0079052746 0.69938385
-0.013861724 -0.008911103 0.69985777
-0.013896426 -0.0099259913 0.7004562
-0.013936071 -0.010949731 0.70113981
-0.013981633 -0.011984259 0.70192552
-0.014037388 -0.013034672 0.70288694
-0.014102898 -0.014102846 0.70401669
-0.014180436 -0.015193313 0.7053538
-0.014274231 -0.016313374 0.70697129
-0.014390885 -0.017474622 0.70898283
-0.014543982 -0.018699378 0.71162295
-0.014778903 -0.020057082 0.71567398
-0.01563335 -0.022333324 0.73040831
-0.015707668 -0.023561478 0.73168993
-0.014766614 0.03407684 0.73504984
-0.014585102 0.032536 0.73167902
-0.014509429 0.031251073 0.73027372
-0.01445995 0.030032247 0.7293548
-0.014375265 0.028750569 0.72778213
-0.014162803 0.027236164 0.72383654
-0.013977703 0.025805026 0.72039908
-0.013828294 0.024465412 0.71762443
-0.013701412 0.023187041 0.71526814
-0.013591477 0.02195549 0.7132265
-0.013496161 0.020763338 0.71145636
-0.013409963 0.019599169 0.70985562
-0.013330868 0.018458158 0.70838678
-0.0132614 0.017341852 0.7070967
-0.013197362 0.016242951 0.70590746
-0.01313808 0.015159339 0.70480657
-0.013085641 0.014092237 0.70383275
-0.013035292 0.013035297 0.70289767
-0.012992281 0.011992931 0.70209891
-0.012950066 0.010957778 0.70131493
-0.012914688 0.0099344254 0.7006579
-0.012879604 0.008916676 0.70000637
-0.01285095 0.0079082847 0.69947433
-0.012822478 0.006904453 0.69894552
-0.012800021 0.0059077144 0.69852853
-0.012777844 0.004914552 0.6981166
-0.012748542 0.0039226413 0.69757247
-0.012690935 0.002928704 0.69650263
-0.012596756 0.0019379854 0.69475365
-0.01251696 0.00096285343 0.69327176
-0.012463666 2.9802322e-08 0.69228208
-0.012427804 -0.00095593929 0.69161612
-0.012408459 -0.0019089878 0.69125682
-0.01240614 -0.0028629303 0.69121373
-0.012420211 -0.0038215816 0.69147503
-0.012458366 -0.0047916472 0.69218367
-0.012544526 -0.0057897568 0.6937837
-0.012732171 -0.006855756 0.69726843
-0.012776637 -0.0078625381 0.69809425
-0.012801935 -0.0088628531 0.69856405
-0.012831026 -0.0098699927 0.69910431
-0.012864321 -0.010885209 0.69972253
-0.012905719 -0.011912972 0.70049143
-0.012953626 -0.012953609 0.70138109
-0.013009326 -0.014010012 0.70241547
-0.013075173 -0.01508671 0.70363826
-0.013154499 -0.016190141 0.7051115
-0.013252808 -0.017330557 0.70693707
-0.013379456 -0.018525392 0.70928907
-0.013554601 -0.019810528 0.7125417
-0.013929988 -0.021430701 0.71951294
-0.014488034 -0.023403734 0.72987634
-0.014598327 -0.024704844 0.73192459
-0.013419661 0.032430887 0.73080361
-0.013340114 0.031126916 0.72920322
-0.013294273 0.029912144 0.72828102
-0.013230529 0.028666168 0.72699857
-0.013057151 0.027202398 0.7235105
-0.012874386 0.025748789 0.71983355
-0.012731235 0.024401546 0.71695358
-0.012612443 0.023122847 0.71456361
-0.012510271 0.021892995 0.71250808
-0.012419855 0.020699829 0.71068907
-0.012338288 0.019535661 0.70904815
-0.012264647 0.018396974 0.70756656
-0.012199854 0.017283142 0.70626301
-0.012139129 0.016185522 0.70504129
-0.012084743 0.015105933 0.70394719
-0.012034797 0.014040619 0.70294231
-0.011988659 0.012987703 0.70201415
-0.011947487 0.011947542 0.7011857
-0.011908672 0.010916293 0.70040488
-0.01187471 0.0098956525 0.69972157
-0.011842436 0.0088818669 0.6990723
-0.011814659 0.007876426 0.69851351
-0.011788587 0.0068766773 0.69798899
-0.011766409 0.0058832467 0.69754279
-0.011746108 0.0048942566 0.69713426
-0.011722989 0.0039076507 0.69666928
-0.011679799 0.0029199421 0.6958003
-0.011601445 0.0019336045 0.69422394
-0.011518739 0.000959903 0.69256002
-0.011463014 2.9802322e-08 0.69143891
-0.011427237 -0.00095227361 0.69071913
-0.011406483 -0.0019010603 0.69030166
-0.011398384 -0.0028495491 0.69013864
-0.011404316 -0.0038014352 0.69025809
-0.011429455 -0.0047622621 0.69076377
-0.011490656 -0.0057452917 0.69199502
-0.011665411 -0.0068047941 0.69551086
-0.011729128 -0.0078193843 0.69679272
-0.01175351 -0.0088151395 0.69728327
-0.011777625 -0.0098146796 0.69776845
-0.011807689 -0.010823697 0.69837326
-0.011842903 -0.011842906 0.69908172
-0.011883264 -0.012873501 0.69989371
-0.011930299 -0.013918638 0.70084
-0.011987702 -0.014984608 0.70199484
-0.012055626 -0.016074151 0.70336139
-0.012137656 -0.017194957 0.70501167
-0.012239694 -0.018359542 0.70706451
-0.012379755 -0.019601285 0.70988238
-0.012602436 -0.021004051 0.71436238
-0.013285624 -0.023249805 0.72810698
-0.013350377 -0.024475664 0.72940975
-0.012267085 0.032340497 0.73005146
-0.012182047 0.031008869 0.72818506
-0.012137186 0.029791296 0.72720051
-0.012087286 0.028569996 0.72610533
-0.01195429 0.02716887 0.72318649
-0.011779901 0.025701642 0.71935904
-0.011643882 0.024346322 0.7163738
-0.011531564 0.023063153 0.71390879
-0.01143525 0.021830946 0.71179485
-0.011350168 0.020636678 0.70992756
-0.011273542 0.01947251 0.70824587
-0.01120647 0.018337876 0.70677376
-0.011145427 0.017224759 0.70543402
-0.011088304 0.016128451 0.7041803
-0.011038844 0.015052974 0.70309478
-0.010991668 0.013989419 0.70205945
-0.010949682 0.012940556 0.7011379
-0.010910569 0.011902452 0.70027947
-0.010875214 0.010875225 0.69950348
-0.010842778 0.0098570883 0.69879162
-0.010813465 0.0088473558 0.69814831
-0.010786679 0.0078448653 0.69756043
-0.010762969 0.0068491399 0.69704002
-0.010741292 0.0058588684 0.69656432
-0.010722836 0.0048740804 0.69615918
-0.010704109 0.0038924217 0.69574821
-0.010671318 0.0029103756 0.69502854
-0.010611938 0.001929462 0.69372535
-0.010530803 0.0009573698 0.69194466
-0.010474488 -0 0.69070864
-0.010437028 -0.00094878674 0.68988651
-0.01041282 -0.0018932223 0.68935525
-0.01040003 -0.0028363466 0.68907452
-0.01040003 -0.0037817955 0.68907446
-0.010417589 -0.0047352612 0.68945986
-0.010457055 -0.0057038367 0.69032609
-0.010575318 -0.0067297518 0.69292158
-0.010689349 -0.0077740848 0.69542432
-0.010716364 -0.0087679327 0.69601721
-0.010737353 -0.0097611845 0.69647789
-0.01076318 -0.010763168 0.69704467
-0.010792516 -0.011773646 0.69768852
-0.010826952 -0.012795448 0.69844425
-0.010868642 -0.013832778 0.6993593
-0.010917018 -0.014886826 0.70042104
-0.010974091 -0.015962273 0.70167363
-0.011042787 -0.017066091 0.70318133
-0.011127939 -0.018209338 0.70505023
-0.01123768 -0.019410521 0.70745873
-0.011397693 -0.020723075 0.71097058
-0.012084686 -0.023070782 0.72604835
-0.012153856 -0.024307698 0.72756636
-0.012289491 -0.025696188 0.7305432
-0.011120962 0.032250822 0.72930467
-0.011035995 0.030900806 0.72725338
-0.010990422 0.029674172 0.72615319
-0.010950399 0.028471053 0.72518694
-0.010854051 0.027135134 0.72286093
-0.010689416 0.025654614 0.71888626
-0.010561483 0.024291456 0.71579766
-0.010456293 0.023003846 0.71325815
-0.010366262 0.021769196 0.7110846
-0.01028698 0.020574003 0.70917058
-0.010216698 0.019411772 0.70747381
-0.010155073 0.018279135 0.70598602
-0.010098139 0.017166823 0.70461154
-0.010046314 0.016074151 0.70336038
-0.010000214 0.015000373 0.70224744
-0.0099560795 0.013938516 0.70118195
-0.0099181887 0.012893677 0.7002672
-0.0098814424 0.011857748 0.69938004
-0.0098495418 0.010834485 0.69860989
-0.0098188873 0.0098189116 0.69786984
-0.0097924452 0.0088132024 0.69723147
-0.0097669074 0.0078135431 0.69661486
-0.0097455261 0.0068219006 0.69609869
-0.0097246151 0.0058347881 0.69559395
-0.0097079743 0.0048540235 0.6951921
-0.0096913893 0.0038765669 0.69479173
-0.009668244 0.002900511 0.69423294
-0.0096233925 0.0019246936 0.69315016
-0.0095520383 0.00095522404 0.69142747
-0.009493392 2.9802322e-08 0.69001162
-0.0094540017 -0.00094535947 0.68906069
-0.009427282 -0.0018854141 0.68841565
-0.0094128111 -0.0028238297 0.68806624
-0.0094108991 -0.0037643611 0.68802011
-0.0094209993 -0.0047104955 0.68826395
-0.0094485385 -0.0056691468 0.68892884
-0.0095107146 -0.0066574812 0.69042987
