# .PCD v0.7 - Point Cloud Data file format
VERSION 0.7
FIELDS x y z
SIZE 4 4 4
TYPE F F F
COUNT 1 1 1
WIDTH 553
HEIGHT 1
VIEWPOINT 0 0 0 1 0 0 0
POINTS 553
DATA ascii
-0.019506505 -0.017416507 0.62900972
-0.021604069 -0.014634967 0.62906873
-0.02236983 -0.010485858 0.62958825
-0.0217051 -0.010502487 0.62985557
-0.018277528 -0.02460435 0.63053572
-0.01665296 -0.023455262 0.63069999
-0.019653283 -0.012634218 0.63027525
-0.022451321 -0.009120822 0.63020301
-0.02667411 -0.0063175559 0.63028669
-0.018409228 -0.028321892 0.63175863
-0.032481797 -0.0045900643 0.63129485
-0.025594007 -0.0049766004 0.63245809
-0.017525785 -0.012519106 0.63352287
-0.038666666 -0.00250642 0.63369054
-0.018682536 -0.035569236 0.63429642
-0.014395494 -0.026631653 0.63458991
-0.019440517 -0.0086401999 0.63464892
-0.016619224 -0.034683585 0.63526595
-0.015197761 -0.031481728 0.63553822
-0.014484464 -0.016657114 0.63566387
-0.015208556 -0.014484316 0.63566232
-0.015208556 -0.014484316 0.63566232
-0.041546643 -0.0014450699 0.63525832
-0.01379697 -0.018516764 0.63613057
-0.042897183 -0.0043624043 0.63635141
-0.042833824 -0.0036299527 0.63609207
-0.026548631 -0.0021820813 0.63642472
-0.036329791 5.9604645e-08 0.63623661
-0.020494262 -0.04025659 0.63752633
-0.013178776 -0.017571688 0.63757861
-0.012542682 -0.016969502 0.63894272
-0.025418978 -0.001473546 0.63869977
-0.011834124 -0.022558808 0.63938403
-0.015557216 -0.0088898242 0.63967061
-0.025929155 -0.00074082613 0.63967377
-0.022282328 -0.043079138 0.64013529
-0.030438058 0.00074240565 0.64005005
-0.027689187 -0.044901401 0.6414901
-0.011206795 -0.017557085 0.64119148
-0.01127855 -0.01428616 0.64234644
-0.053356115 -0.0067634284 0.64224774
-0.052154541 -0.007558614 0.64330238
-0.02155502 -0.00075632334 0.64341736
-0.026552433 0.0015172958 0.64397305
-0.034284078 -0.044950247 0.64475226
-0.011405103 -0.010644764 0.64438331
-0.013683712 -0.0068418384 0.64435089
-0.0091577312 -0.017552316 0.6450603
-0.056721829 -0.011497617 0.64587307
-0.011469661 -0.0091757178 0.64542234
-0.033025652 -0.044546187 0.64624178
-0.036471449 -0.043765679 0.64618886
-0.012310274 -0.0065391213 0.6465686
-0.028502034 0.0030813217 0.64679384
-0.0077413432 -0.018579215 0.64771348
-0.017398346 -0.00077328086 0.64751053
-0.037077561 0.0030897856 0.64730668
-0.010094795 -0.030284375 0.64829004
-0.05955508 -0.017126977 0.64876729
-0.0077596391 -0.015519261 0.64815521
-0.053685043 -0.011670619 0.64865732
-0.007804275 -0.024973691 0.64923275
-0.057935439 -0.021921515 0.64983243
-0.0070286491 -0.016400158 0.64936155
-0.0078189587 -0.011728436 0.64958727
-0.0078189587 -0.011728436 0.64958727
-0.027335089 0.0039050579 0.64937162
-0.036128677 -0.042411864 0.65043467
-0.0070763407 -0.024374038 0.6506409
-0.059659392 -0.022764742 0.65033472
-0.0062935818 -0.019667417 0.65074652
-0.0062935818 -0.019667417 0.65074652
-0.058773156 -0.017240107 0.6500088
-0.014108607 -0.0015676022 0.65004975
-0.020383377 0.0023519695 0.6500895
-0.020383377 0.0023519695 0.6500895
-0.044317342 -0.043525964 0.65187722
-0.044317342 -0.043525964 0.65187722
-0.058353987 -0.027599812 0.65119791
-0.053605344 -0.010248065 0.65113676
-0.048923716 -0.0063127577 0.65132463
-0.011863098 -0.0023725927 0.65175462
-0.013524109 -0 0.65288019
-0.016633788 0.0015842021 0.65204716
-0.028799368 -0.042399079 0.65395379
-0.050184663 -0.040625662 0.6531328
-0.049526062 -0.040739179 0.65367007
-0.052554332 -0.03822127 0.65305936
-0.051989216 -0.036792338 0.65391791
-0.055938136 -0.020776987 0.65374458
-0.0079882788 -0.0055917799 0.65367496
-0.012784593 -0 0.6537255
-0.019970762 0.0039941669 0.65367562
-0.022387339 0.0047972798 0.65384877
-0.02879771 0.0055995584 0.65394264
-0.050562192 -0.039326131 0.65457952
-0.054605719 -0.024090737 0.65468836
-0.0048050359 -0.020421624 0.65416062
-0.016007069 0.0024010539 0.65404338
-0.027472699 -0.042017043 0.65589428
-0.054813668 -0.033451974 0.65542662
-0.0544439 -0.024600103 0.65554857
-0.050040059 -0.0096851587 0.6556716
-0.0048441021 -0.0096881986 0.65573251
-0.051592343 -0.0088674128 0.65543801
-0.0072935978 -0.029984772 0.65646869
-0.0032493668 -0.017465428 0.65693754
-0.041592978 -0.040777415 0.65771174
-0.050525635 -0.03178224 0.65756232
-0.003258328 -0.012218714 0.65747839
-0.0057071471 -0.0048918426 0.65765339
-0.025201088 0.0065035224 0.65708154
-0.025201088 0.0065035224 0.65708154
-0.048283894 -0.038463444 0.6583932
-0.054949135 -0.016402721 0.65881938
-0.013090169 0.0032725632 0.65833628
-0.048552543 -0.037442297 0.65949249
-0.052646298 -0.01974231 0.6594137
-0.048525166 -0.0082246065 0.65938044
-0.048525166 -0.0082246065 0.65938044
-0.050130535 -0.0073963106 0.65922391
-0.037228081 -0.042191803 0.66054654
-0.053780414 -0.028544649 0.66057074
-0.051978026 -0.020626187 0.66000515
-0.047880575 -0.0082552433 0.66012073
-0.017411392 0.0066329241 0.66098672
-0.027415089 -0.039045721 0.66138422
-0.051645368 -0.023323715 0.66192245
-0.039258227 -0.039258242 0.66247571
-0.039258227 -0.039258242 0.66247571
-0.025465542 -0.039242908 0.66239703
-0.0041674604 -0.0025004745 0.66204369
-0.0016815838 -0.023542166 0.66380602
0 -0.016817272 0.66382372
-0.0092464117 0.0042029321 0.66375554
-0.021792332 0.0083816946 0.66317219
-0.038027987 -0.038450718 0.66483796
-0.037389789 -0.036540002 0.66597307
-0.050499737 -0.016550392 0.66572386
0.00084855163 -0.010182589 0.6656794
0 -0.0076149106 0.66508842
0 -0.0076149106 0.66508842
-0.0059268549 0.0025400817 0.66523081
-0.010177993 0.0059371591 0.66558629
-0.014388483 0.0076174736 0.66515541
-0.043434352 -0.036621094 0.66642833
0 -0.021256655 0.66609359
-0.048809797 -0.021407783 0.66755295
-0.02446777 -0.03691642 0.66808647
-0.044675034 -0.031788021 0.66823453
-0.045558106 -0.028366357 0.66834354
0.00086070475 -0.021517575 0.66861343
-0.0051610502 0.0043008924 0.66848552
0.0017271613 -0.0051814616 0.66930771
-0.047807515 -0.027815253 0.67067099
-0.047807515 -0.027815253 0.67067099
0.0017358013 -0.0034715831 0.67035067
-0.034853626 -0.037467659 0.67118108
0.0026130846 -0.019162595 0.67110568
-0.048812076 -0.012203008 0.6712544
0.0034866619 -0.0078449547 0.67125958
0 0.001745224 0.67148638
-0.0095793419 0.0087085068 0.67106247
-0.042985838 -0.031581432 0.6726107
-0.045684103 -0.018449336 0.67291927
0.0052723722 -0.01230219 0.67296481
0.0043779742 -0.0087559223 0.67220819
0.0026283297 -0.0017521977 0.67233253
-0.0096582137 0.0096582174 0.67279357
-0.047597818 -0.022477001 0.67361963
-0.045832336 -0.014983654 0.67360759
-0.045832336 -0.014983654 0.67360759
-0.046010155 -0.026544333 0.67443311
-0.041642953 -0.026580602 0.67472512
-0.046865795 -0.024759263 0.67430019
0.0017692959 -0.023885459 0.67439383
0.0017692959 -0.023885459 0.67439383
-0.040488623 -0.032479689 0.67565143
-0.03217287 -0.033513188 0.67657697
-0.03217287 -0.033513188 0.67657697
-0.04635625 -0.021395177 0.67603993
-0.044732872 -0.013419837 0.67681032
0.0044978485 -0.021589637 0.67799628
-0.016158557 0.014363199 0.6775443
-0.030633505 -0.036039412 0.67833799
-0.030633505 -0.036039412 0.67833799
-0.044164192 -0.018927515 0.67841643
-0.043207467 -0.014402479 0.67813772
-0.030801894 -0.033519685 0.67953372
-0.043441925 -0.025341123 0.67931688
-0.042645182 -0.017239511 0.67987323
-0.01089228 0.01361537 0.67995667
-0.038132939 -0.026329875 0.68001395
-0.016387353 0.017297775 0.68061298
-0.016387353 0.017297775 0.68061298
-0.026513962 -0.035656661 0.68154621
-0.036636315 -0.031140834 0.68194067
-0.04384448 -0.020095408 0.68134165
0.0091265021 -0.0036505461 0.68115413
-0.0018275406 0.010965258 0.6814245
0.0092096208 -0.0018419027 0.68316084
0.0036938563 0.0083112419 0.68376482
0.011121924 -0.0027804673 0.68457669
-0.041842852 -0.018596828 0.68530446
0.0074872049 0.0065513551 0.68676734
-0.033861402 -0.029158413 0.68790048
-0.039361719 -0.023429573 0.68707716
-0.039361719 -0.023429573 0.68707716
-0.040375587 -0.020657241 0.68750763
0.010330809 -0.01596579 0.68755525
0.013172138 -0.0018817186 0.68796629
-0.01405623 0.019678712 0.68705255
0.010394296 -0.017008811 0.68894863
0.016015336 -0.003768295 0.68825877
-0.012279252 0.019835711 0.68885732
0.017222799 -0.0019136369 0.69181824
0.017222799 -0.0019136369 0.69181824
-0.037437629 -0.020158678 0.69257069
-0.0019281496 0.017353326 0.69356918
0.0019363428 0.016458929 0.69455814
0.011680617 0.0097338855 0.69581681
0.0029162625 0.016525477 0.69550359
-0.029337946 -0.026404172 0.69691443
-0.031185318 -0.025338054 0.69609594
-0.0068399599 0.020519912 0.69672263
0.0068723308 0.015708208 0.69783908
0.016736511 0.0029534996 0.69850039
-0.0019746663 0.019746721 0.69918418
0.014920877 -0.015915543 0.70096874
0.016873697 0.0059554577 0.70044863
-0.0059498991 0.022807956 0.70022637
0.012933895 0.01293391 0.70101464
0.006984293 0.017959625 0.70170057
0.018186927 0.0090934932 0.70474935
0.0050419257 0.020167708 0.70426667
0.019400716 -0.011231959 0.70733386
0.025535699 0.0020428598 0.7074154
0.020452524 0.0081810057 0.70770472
0.021648502 0.0082470775 0.7096976
0.0082446365 0.021642178 0.70962483
0.024867902 0.0051808059 0.71097267
-0.0010324807 0.02581203 0.71008378
0.028059829 0.0020785332 0.71171874
0.028174644 2.9802322e-08 0.71274537
0.0010413423 0.024992257 0.71222317
0.024181569 0.0094623864 0.71464473
0.022054356 0.013652712 0.71436346
0.0010509751 0.027325362 0.71454877
0.025450923 0.0095441043 0.71683741
0.030814977 0.0031877458 0.71735173
0.026742052 0.0096271634 0.71906495
0.026742052 0.0096271634 0.71906495
0.013960604 0.024699539 0.72008145
0.013960604 0.024699539 0.72008145
0.0021480708 0.030073017 0.72011596
0.031263798 0.0075464845 0.72108805
0.020503145 0.021582276 0.72134179
0.015102043 0.024810523 0.7212463
0.015102043 0.024810523 0.7212463
0.017419688 0.025040835 0.72366369
0.027433515 0.017557472 0.72574234
0.03519316 0.0054989457 0.72633278
0.031034263 -0.0011083484 0.72840428
0.033356659 0.011118948 0.72925454
0.017782394 0.027785003 0.72913653
0.027875513 0.021185428 0.73001069
0.021199184 0.026777923 0.73018599
0.02919744 0.021336615 0.73193192
0.013511706 0.030401319 0.73265553
0.032736093 0.016932487 0.73334473
0.036580946 0.01371786 0.73680282
0.027534222 0.027534276 0.7377938
0.020645838 0.030968785 0.73772907
0.033318345 0.021829277 0.73819196
0.015048663 0.033570111 0.74028766
0.015048663 0.033570111 0.74028766
0.043171596 0.011667997 0.74251133
0.035122428 0.024585724 0.74346435
0.035122428 0.024585724 0.74346435
0.042300921 0.015275329 0.74449718
0.03889202 0.020035326 0.74534708
0.043168701 0.017986983 0.75031656
0.040950425 0.0024088323 0.75159466
0.040950425 0.0024088323 0.75159466
0.02048843 0.037361264 0.75178242
0.044132646 0.024518162 0.75678098
0.043043628 0.0024596751 0.75772524
0.043043628 0.0024596751 0.75772524
0.045793884 0.024753481 0.7596215
0.047161512 0.022339702 0.76044714
0.05235235 0.018697292 0.76174891
0.050435074 0.02269578 0.7652235
0.036706213 0.039237708 0.76639551
0.027842993 0.041764498 0.76636153
0.049837302 0.029391259 0.76932836
0.029521361 0.043640286 0.77069426
0.046264313 0.035983413 0.77107626
0.038645707 0.041222125 0.77181756
0.053207852 0.028550565 0.77412605
0.053425122 0.029970229 0.77540541
0.047056429 0.039213687 0.77638835
0.032986749 0.047500938 0.77936912
0.032986749 0.047500938 0.77936912
0.054219231 0.034382969 0.78008139
-0.02450713 -0.01260367 0.62986505
-0.028190734 -0.0066535249 0.62990975
-0.028190734 -0.0066535249 0.62990975
-0.018623857 -0.034382463 0.63375151
-0.01577658 -0.015776545 0.63394833
-0.013744744 -0.022968218 0.63546693
-0.017321231 -0.011096992 0.63507158
-0.040871371 -0.0047022104 0.6354602
-0.039154351 -0.0010793246 0.63466215
-0.039154351 -0.0010793246 0.63466215
-0.022732306 -0.041064769 0.63785523
-0.021212818 -0.040506538 0.63741684
-0.020968949 -0.005172824 0.63716286
-0.029025763 -0.00091202557 0.63710958
-0.043555789 2.9802322e-08 0.63904625
-0.013437295 -0.032100201 0.64104593
-0.051106818 -0.0047141216 0.64050269
-0.017291602 -0.0053274259 0.64134562
-0.036960222 0.0014933497 0.64108253
-0.014294067 -0.034606665 0.64244688
-0.011349767 -0.0291318 0.64349264
-0.021013454 -0.0012578368 0.64308989
-0.021013454 -0.0012578368 0.64308989
-0.027566113 -0.044412076 0.64568335
-0.055507109 -0.013255363 0.64544374
-0.013790442 -0.0053629279 0.64578235
-0.030351527 0.0022763908 0.64400864
-0.037409998 -0.046654623 0.64682192
-0.034984343 -0.043560985 0.64696056
-0.016163442 -0.0023090541 0.64663994
-0.027983394 -0.044307023 0.64848173
-0.032875802 -0.043159593 0.64890659
-0.023306457 -0.041951627 0.64837682
-0.022898223 0.0028634868 0.64927733
-0.06004278 -0.026071191 0.65155256
-0.05767012 -0.015799999 0.65154421
-0.013163558 -0.0013158818 0.65150368
-0.055023611 -0.036770433 0.6524142
-0.011691193 -0.0013281306 0.65327108
-0.048877027 -0.040440887 0.65479773
-0.042963453 -0.040856417 0.65470028
-0.056492172 -0.030789983 0.65473425
-0.056349594 -0.027369767 0.65516371
-0.014889663 0.0024147034 0.65513849
-0.049651317 -0.034594223 0.65732729
-0.049516026 -0.010552585 0.65679181
-0.05093867 -0.0083205029 0.65680486
-0.017053964 0.004467383 0.65687472
-0.040766656 -0.039022855 0.65915632
-0.0065571787 -0.00245893 0.6587013
-0.005758096 -0.0028782338 0.65941048
-0.016701618 0.0054770811 0.65912014
-0.032941952 0.0065884292 0.65964317
-0.048458226 -0.036447778 0.66080451
-0.051603891 -0.020973554 0.66069007
-0.021136537 0.0074600875 0.66093445
-0.051634625 -0.029386073 0.66351891
-0.051898692 -0.011719048 0.66290885
-0.00083785283 -0.0087970644 0.66309649
-0.0033656335 -0.0016827881 0.66395491
-0.0069618812 0.0013929408 0.66252416
-0.0069618812 0.0013929408 0.66252416
-0.046508521 -0.033402205 0.66496909
-0.045815259 -0.029695034 0.66565019
-0.044970017 -0.034937054 0.66696417
-0.04974477 -0.027445346 0.66788042
-0.050390083 -0.023487911 0.66701144
-0.00085197884 -0.023855358 0.66650677
0 -0.022202343 0.66697925
-0.01277594 0.0076656044 0.66644657
-0.04141413 -0.036237359 0.66911793
-0.049152393 -0.027164556 0.66901058
-0.049173128 -0.015097439 0.66909623
0.0025846553 -0.013138764 0.66881788
0.0017192884 -0.0070909634 0.66835737
-0.03130383 -0.039129764 0.67074901
-0.0026060166 0.0034747422 0.67053694
-0.034209602 -0.03486748 0.67258835
-0.046749353 -0.014703885 0.67277044
0.0048223631 -0.010959752 0.67249191
0.0029311758 -0.0014651021 0.67304248
0.0029311758 -0.0014651021 0.67304248
-0.045273114 -0.027074575 0.67513263
-0.046081699 -0.0079756677 0.67476529
-0.019154279 0.012472495 0.67590117
-0.030871296 -0.036688134 0.67685264
-0.030871296 -0.036688134 0.67685264
-0.043927442 -0.026894361 0.67724991
-0.039493971 -0.027151257 0.67751837
-0.04477486 -0.019254923 0.67701304
-0.043618988 -0.016879773 0.67720675
0.0098448582 -0.01252979 0.6768899
0.0066287806 -0.0015064478 0.67900771
-0.020709688 0.017108023 0.67820179
-0.030766688 -0.031223625 0.68091047
-0.043323647 -0.023258083 0.68102133
0.0082273884 -0.0018282831 0.6815173
0 0.010073483 0.68190747
-0.028512608 -0.034489974 0.68287098
-0.042628683 -0.010427068 0.68294233
-0.042628683 -0.010427068 0.68294233
0.013787234 -0.0068932474 0.68272316
0.0073420741 0.0018355548 0.68238759
0.0074352473 -0.020446897 0.68519932
0.0093113203 -0.016760349 0.68561608
0.0093113203 -0.016760349 0.68561608
0.013890055 -0.0046300292 0.68437797
-0.012691822 0.017026922 0.68503612
-0.028999291 -0.028999826 0.68666542
-0.03204298 -0.030158073 0.68834615
-0.037936427 -0.022761881 0.68978751
-0.034439281 -0.022645652 0.6886189
-0.039767969 -0.017043382 0.68941224
0.012320044 -0.012319982 0.68961489
0.0018886591 0.013220668 0.68880224
-0.0071325363 0.017119199 0.69042832
-0.031830538 -0.021220326 0.69368672
-0.038352977 -0.018217683 0.69230157
-0.038352977 -0.018217683 0.69230157
0.012495606 -0.01537919 0.69287521
0.013573623 -0.014543176 0.69488972
0.011315545 0.0093753543 0.69495857
0.0038721911 0.015488803 0.69452828
0.0053397599 0.015051082 0.69523847
0.016949873 0.0013047159 0.69689846
0.0092881937 0.013199478 0.69686419
-0.0071700281 0.021187048 0.69689512
0.017750209 0.0019722581 0.698892
0.015759703 0.0059099197 0.69861645
0.017416079 0.0054719746 0.70106685
-0.0034842542 0.020912066 0.70123142
0.018119749 0.0080532134 0.70384836
0.02291128 0.0026964447 0.70484579
0.02291128 0.0026964447 0.70484579
0.015114386 0.013099134 0.70408326
0.0010073296 0.021153927 0.7040118
0.017427243 -0.015376955 0.70830965
-0.0010278949 0.024669498 0.70897675
-0.0046175299 0.0266819 0.70857382
0.028059829 0.0020785332 0.71171874
0.013465148 0.019679844 0.71088052
0.0067366627 0.022798121 0.71100032
0.024376413 -0.0074188709 0.71668994
0.018723672 0.021396756 0.71910244
0.0032110231 0.028899252 0.7192241
0.0043367478 0.030357242 0.72256684
0.032760426 0.0087361336 0.72445649
0.029604428 0.012610108 0.72552985
0.019622937 0.023983628 0.72400963
0.012568176 0.027320266 0.72464836
0.035221625 0.0071550906 0.72654754
0.027923675 -0.0089355409 0.73047578
0.031336077 0.016787201 0.7310065
0.029118966 0.020720795 0.73120326
0.024735505 0.025859892 0.73226082
0.011279554 0.031582832 0.73313344
0.0090127131 0.033797681 0.73280358
0.034128401 2.9802322e-08 0.73546505
0.035218772 0.013633102 0.73509717
0.02327371 0.028380796 0.73488986
0.014896951 0.032085776 0.73747033
0.036579903 0.024779946 0.74569732
0.036787771 0.02610749 0.74731618
0.03521689 0.029248208 0.74902916
0.021565434 0.035942435 0.75006294
0.022817932 0.036028326 0.75075442
0.043670643 0.020622253 0.75368273
0.041391611 0.0012174249 0.75472736
0.037822414 0.031722039 0.75537378
0.018324761 0.041536152 0.75575346
0.025771322 0.03804341 0.75709462
0.046045821 0.0062224269 0.7612654
0.048826244 0.022535205 0.76306957
0.036278553 0.037529528 0.76283532
0.036278553 0.037529528 0.76283532
0.027526617 0.040038764 0.76288962
0.026717423 0.04452908 0.76797122
0.045281295 0.03507717 0.76876128
0.053120222 0.012956172 0.77361012
0.058471959 0.019490659 0.77451825
0.044280007 0.040372968 0.77523679
0.030309604 0.048758954 0.77896804
0.051057719 0.039122388 0.78098845
-0.017877741 -0.018344894 0.63012576
-0.02214515 -0.0063423384 0.63423812
-0.026503844 -0.0032375241 0.63456404
-0.012916439 -0.025952572 0.6377821
-0.037362605 -0.0043956041 0.63768625
-0.024928674 -0.00074414909 0.64047623
-0.0088056792 -0.017996145 0.64570934
-0.050457723 -0.0057595628 0.64606315
-0.038072966 0.0024886765 0.64557898
-0.014006232 -0.036571801 0.64867663
-0.012429611 -0.0046610832 0.64836925
-0.033903409 0.0038967878 0.64897346
-0.039595433 -0.043635786 0.65590632
-0.057413083 -0.030059699 0.65360278
-0.05572664 -0.031093478 0.65580058
-0.0059378427 -0.0099024214 0.65383512
-0.051939316 -0.021435231 0.6598568
-0.0031385752 -0.021431971 0.6585325
-0.051898692 -0.011719048 0.66290885
-0.023634711 -0.037900843 0.666448
-0.049810972 -0.022108275 0.66610265
-0.014313871 0.0085465685 0.66715324
-0.043141056 -0.027889684 0.67123246
-0.049071521 -0.014019846 0.6699332
-0.0026733512 0.0080200732 0.67595553
-0.031248432 -0.031702057 0.6794939
0.0068624089 -0.0047728322 0.6769011
0.0054964456 -0.021979272 0.68191832
-0.0045484337 0.011825979 0.6804387
-0.034193471 -0.030071158 0.68614668
-0.013571536 0.018522505 0.6859504
-0.039354213 -0.017985638 0.69011635
0.014316699 -0.001653567 0.68933046
-0.032660887 -0.0258158 0.69273365
0.011254802 -0.018329185 0.6937077
0.0076843193 0.011526465 0.69271576
0.021111863 -0.0024537556 0.69785619
0.014890409 0.0066425423 0.69781125
0.018905304 0.0028195134 0.70103598
0.02595588 0.0064248219 0.71400422
0.01046558 0.02267177 0.71343154
-0.0018338595 0.028307207 0.71393049
-0.0018338595 0.028307207 0.71393049
0.024720464 0.013696159 0.71842855
0.019040411 0.019040465 0.71619654
0.020360347 0.020360351 0.71952736
0.029240595 0.0097473226 0.72226655
0.012168958 0.028763026 0.72789788
0.024194073 -0.013825178 0.73896211
0.037003651 0.016189128 0.7399919
0.013696014 0.031957358 0.73636347
0.019427149 0.030854911 0.73671079
0.019427149 0.030854911 0.73671079
0.034837361 0.022645801 0.74117035
0.043534629 0.0094129145 0.74488002
0.044971041 0.013610452 0.74653065
0.026985917 0.031679153 0.74408078
0.021653181 0.036694795 0.75126839
0.049855918 0.018466145 0.75800902
0.046799228 0.025998151 0.76209891
0.037892118 0.038314175 0.7657541
0.041904844 0.038389049 0.76973343
0.051726598 0.030390933 0.77301854
0.051726598 0.030390933 0.77301854
0.043835033 0.03867799 0.77207714
0.033264115 0.049230903 0.78204763
