# .PCD v0.7 - Point Cloud Data file format
VERSION 0.7
FIELDS x y z
SIZE 4 4 4
TYPE F F F
COUNT 1 1 1
WIDTH 1337
HEIGHT 1
VIEWPOINT 0 0 0 1 0 0 0
POINTS 1337
DATA ascii
-0.0054954877 0.067777693 0.68194228
-0.0045241881 0.055044323 0.64286017
-0.004508954 0.054107487 0.6422472
-0.0045105661 0.053375065 0.64231205
-0.0045122472 0.052642912 0.6423797
-0.0045143371 0.051914871 0.6424638
-0.0045269029 0.051304877 0.64296937
-0.0045397314 0.050693721 0.64348555
-0.0045526186 0.050078869 0.64400411
-0.0045655933 0.04946062 0.64452624
-0.0045786421 0.048838854 0.64505124
-0.0045917518 0.048213392 0.64557874
-0.0046049505 0.047584504 0.64610982
-0.0046182261 0.046952009 0.64664394
-0.0046315631 0.04631567 0.64718062
-0.0046449928 0.045675755 0.64772099
-0.0046585002 0.045032173 0.64826447
-0.0046720714 0.044384688 0.64881051
-0.0046857367 0.043733567 0.64936042
-0.0046994826 0.043078601 0.64991349
-0.0047133537 0.042420208 0.65047157
-0.0047274404 0.041759104 0.65103841
-0.0047416273 0.041094095 0.65160924
-0.0047558839 0.040425032 0.65218288
-0.0047702417 0.039752036 0.65276057
-0.0047846716 0.039074808 0.65334123
-0.0047992039 0.038393676 0.65392601
-0.0048138099 0.037708223 0.65451366
-0.0048285201 0.037018687 0.65510553
-0.0048433053 0.036324799 0.6557005
-0.0048581967 0.035626769 0.65629965
-0.0048731645 0.034924358 0.6569019
-0.0048882398 0.034217715 0.65750849
-0.0049034096 0.033506662 0.65811884
-0.0049186735 0.032791167 0.65873301
-0.0049340166 0.032071114 0.6593504
-0.0049494719 0.031346679 0.65997231
-0.0049650245 0.030617654 0.6605981
-0.0049807415 0.029884458 0.66123044
-0.0049966909 0.029147387 0.66187221
-0.0050127432 0.028405547 0.66251808
-0.0050289156 0.027659029 0.66316885
-0.0050451756 0.026907653 0.66382307
-0.0050615412 0.026151299 0.66448158
-0.0050780303 0.025390148 0.6651451
-0.0050946274 0.02462402 0.66581291
-0.0051113334 0.023852915 0.66648507
-0.0051281317 0.023076624 0.66716099
-0.0051450585 0.022295296 0.66784203
-0.005162097 0.021508723 0.66852766
-0.0051792492 0.020717025 0.66921777
-0.0051965155 0.019919991 0.66991258
-0.0052138977 0.019117653 0.67061198
-0.0052313781 0.018309861 0.67131531
-0.0052489946 0.017496645 0.67202413
-0.005266841 0.016678333 0.67274225
-0.005284939 0.015854865 0.67347044
-0.0052929898 0.014996827 0.67379439
-0.005311287 0.014163435 0.67453063
-0.0053297305 0.01332435 0.6752727
-0.0053483024 0.012479424 0.67601997
-0.0053669852 0.011628509 0.6767717
-0.0053858184 0.010771662 0.67752945
-0.0054047643 0.0099087656 0.6782918
-0.0054238639 0.0090397894 0.67906034
-0.005443099 0.008164674 0.67983431
-0.0054624504 0.0072832704 0.68061292
-0.0054819612 0.006395638 0.68139803
-0.0055016107 0.0055015981 0.68218863
-0.0055213817 0.0046011806 0.68298411
-0.0055415207 0.0036943853 0.6837945
-0.0055618687 0.0027809739 0.68461317
-0.0055823456 0.0018607974 0.6854372
-0.0056029949 0.00093388557 0.68626797
-0.0056237979 -0 0.68710506
-0.0056447345 -0.00094079971 0.68794751
-0.005665849 -0.001888603 0.688797
-0.0056871222 -0.0028435588 0.68965298
-0.0057085338 -0.0038056672 0.69051456
-0.0057301288 -0.0047751069 0.69138348
-0.0057518883 -0.0057518482 0.69225907
-0.0057737916 -0.0067360699 0.69314039
-0.0057958844 -0.0077278018 0.69402927
-0.0058181467 -0.0087271929 0.69492507
-0.0058406945 -0.0097344518 0.69583231
-0.0058636013 -0.010749906 0.69675404
-0.0058866888 -0.011773348 0.69768298
-0.0059099579 -0.012804896 0.69861925
-0.0059334356 -0.013844699 0.69956392
-0.0059570763 -0.014892668 0.70051521
-0.0059809075 -0.01594907 0.70147401
-0.0060049291 -0.017013937 0.70244056
-0.0060291449 -0.018087417 0.70341498
-0.0060535562 -0.019169569 0.7043972
-0.006078166 -0.020260543 0.70538747
-0.0061029773 -0.021360397 0.70638579
-0.0061279922 -0.022469312 0.70739228
-0.006153313 -0.023587704 0.7084111
-0.006179099 -0.024716377 0.7094487
-0.0062051015 -0.025854558 0.71049488
-0.0062313243 -0.027002394 0.71155
-0.0062577697 -0.028159946 0.71261406
-0.0062844399 -0.029327363 0.71368718
-0.0063113389 -0.030504793 0.71476954
-0.0063384692 -0.031692326 0.7158612
-0.0063658063 -0.032889992 0.71696115
-0.0063934075 -0.034098148 0.71807176
-0.0064212494 -0.035316855 0.71919203
-0.0064493348 -0.036546201 0.72032207
-0.0064776107 -0.037786007 0.72145987
-0.0065057981 -0.039034754 0.72259396
-0.0065338616 -0.040292114 0.72372317
-0.0065621682 -0.041560411 0.72486222
-0.0065907207 -0.042839676 0.72601104
-0.0066193193 -0.044128776 0.72716171
-0.0066470481 -0.045421481 0.7282775
-0.0066742087 -0.046719402 0.7293703
-0.0067014727 -0.048027217 0.73046738
-0.0067289607 -0.049345702 0.7315734
-0.0067566438 -0.050674796 0.73268729
-0.0067827785 -0.052001297 0.73373878
-0.0068074791 -0.053325236 0.73473275
-0.0068323915 -0.054659098 0.73573512
-0.0068571107 -0.055999756 0.73672974
-0.0068818829 -0.057349026 0.73772645
-0.006906963 -0.058709174 0.73873562
-0.0069321934 -0.060079008 0.73975086
-0.0069576409 -0.061459124 0.74077475
-0.0069843819 -0.062859416 0.74185073
-0.0070135565 -0.064290911 0.74302459
-0.0070429756 -0.065734416 0.74420834
-0.007072642 -0.067190081 0.74540198
-0.0071025267 -0.068657756 0.74660456
-0.0071328343 -0.070139498 0.74782401
-0.0071658297 -0.071658254 0.74915159
-0.007199096 -0.073190808 0.75049019
-0.0072327089 -0.074737996 0.75184274
-0.0072666369 -0.076299638 0.7532078
-0.007300884 -0.077876091 0.75458586
-0.007336353 -0.079477131 0.75601292
-0.0073736156 -0.081109732 0.75751233
-0.007411296 -0.08275944 0.75902849
-0.0043264907 0.080472738 0.66972238
-0.0043318244 0.079705566 0.66997993
-0.0043461225 0.079099447 0.67067027
-0.0043601352 0.078482449 0.6713469
-0.004374254 0.077861756 0.67202854
-0.0043884488 0.077236712 0.67271394
-0.0044025192 0.076603889 0.67339337
-0.0044166334 0.07596612 0.67407483
-0.0044308384 0.075324297 0.6747607
-0.0044451198 0.074678034 0.67545027
-0.0044595087 0.074027866 0.67614502
-0.0044739912 0.073373467 0.67684436
-0.0044885683 0.072714835 0.67754817
-0.004503224 0.072051615 0.6782558
-0.004517993 0.071384311 0.67896891
-0.0045328583 0.070712626 0.67968667
-0.0045478218 0.070036501 0.68040919
-0.0045628683 0.069355637 0.68113565
-0.0045780311 0.068670481 0.68186784
-0.004593295 0.067980796 0.68260479
-0.0046086614 0.067286432 0.68334675
-0.0037497347 0.053996176 0.64187407
-0.0037514665 0.053270876 0.64195776
-0.0037531997 0.052544862 0.64204139
-0.0037549348 0.051818103 0.64212519
-0.0037617101 0.051159292 0.64245236
-0.0037723284 0.050549179 0.64296502
-0.0037830179 0.049935848 0.64348119
-0.0037937686 0.049318999 0.64400029
-0.0038046034 0.048698962 0.64452338
-0.0038156167 0.048076779 0.64505517
-0.0038267057 0.047451198 0.6455906
-0.0038378476 0.046821743 0.64612859
-0.0038490663 0.046188802 0.64667022
-0.0038603391 0.045552015 0.64721453
-0.0038716898 0.044911623 0.64776266
-0.0038830955 0.044267327 0.64831334
-0.0038945808 0.043619365 0.64886791
-0.0039061219 0.042967349 0.64942515
-0.0039177444 0.042311698 0.64998633
-0.0039294232 0.041651905 0.65055025
-0.0039411848 0.040988356 0.65111816
-0.0039530043 0.040320665 0.65168881
-0.003964907 0.039649069 0.65226358
-0.0039768824 0.038973451 0.65284181
-0.00398893 0.038293749 0.65342349
-0.0040010381 0.037609756 0.65400815
-0.0040132324 0.036921769 0.65459692
-0.0040256316 0.036230713 0.65519559
-0.0040381332 0.035535604 0.65579921
-0.0040507126 0.034836143 0.65640658
-0.0040633841 0.034132451 0.65701842
-0.0040761218 0.033424199 0.65763348
-0.0040889396 0.032711506 0.65825242
-0.004101838 0.031994343 0.65887517
-0.0041148183 0.03127262 0.65950191
-0.0041278945 0.030546427 0.66013324
-0.0041410541 0.029815614 0.66076869
-0.0041542985 0.029080093 0.66140819
-0.0041676271 0.028339863 0.6620518
-0.0041810274 0.027594805 0.66269875
-0.0041945288 0.026845008 0.6633507
-0.0042081177 0.026090324 0.66400677
-0.0042217947 0.025330782 0.66466719
-0.0042355605 0.024566293 0.66533184
-0.0042495034 0.023797244 0.66600513
-0.004263611 0.023023486 0.6666863
-0.0042778277 0.022244751 0.6673727
-0.0042921389 0.021460682 0.6680637
-0.0043065608 0.020671546 0.66876006
-0.0043210806 0.019877017 0.66946113
-0.0043356982 0.019077063 0.67016697
-0.004350415 0.018271774 0.67087752
-0.0043652174 0.017460883 0.6715923
-0.0043801358 0.016644508 0.6723125
-0.0043951562 0.015822619 0.67303777
-0.0044046124 0.014975697 0.6734944
-0.004417039 0.014134526 0.67409444
-0.0044323299 0.013296992 0.6748327
-0.0044477433 0.012453735 0.67557693
-0.0044632955 0.011604607 0.67632788
-0.0044791177 0.010749936 0.67709184
-0.0044950685 0.0098891556 0.67786205
-0.0045111333 0.0090222955 0.67863768
-0.0045272969 0.008149147 0.67941815
-0.0045435932 0.0072697699 0.68020499
-0.0045600072 0.0063840151 0.68099755
-0.0045765406 0.0054918826 0.68179584
-0.0045931772 0.0045931637 0.68259913
-0.0046099522 0.0036879778 0.68340909
-0.0046268501 0.0027761459 0.68422496
-0.0046438552 0.0018575191 0.68504608
-0.0046610031 0.00093221664 0.68587404
-0.0046782778 2.9802322e-08 0.68670815
-0.0046956642 -0.00093910098 0.68754762
-0.0047132862 -0.0018853247 0.68839848
-0.0047311843 -0.0028386712 0.68926275
-0.0047492189 -0.0037993789 0.69013351
-0.0047673914 -0.0047673583 0.69101095
-0.0047857035 -0.0057428479 0.69189513
-0.0048041567 -0.0067257881 0.6927861
-0.0048227529 -0.0077163577 0.69368398
-0.0048414939 -0.0087146759 0.6945889
-0.0048603807 -0.0097207725 0.69550085
-0.0048794155 -0.010734707 0.69641995
-0.0048986003 -0.011756599 0.69734621
-0.0049179364 -0.012786597 0.69827986
-0.0049374257 -0.013824761 0.6992209
-0.0049570696 -0.01487118 0.70016944
-0.0049770894 -0.015926629 0.70113599
-0.0049973303 -0.01699087 0.70211333
-0.0050177369 -0.018063843 0.70309865
-0.0050383112 -0.019145548 0.70409209
-0.0050590546 -0.020236194 0.70509368
-0.0050799698 -0.02133584 0.70610356
-0.0051010582 -0.022444636 0.70712179
-0.0051223226 -0.0235627 0.70814854
-0.0051437649 -0.024690062 0.70918381
-0.0051653665 -0.025826812 0.71022683
-0.0051871715 -0.026973248 0.71127969
-0.0052091614 -0.028129458 0.71234149
-0.0052312734 -0.029295146 0.71340919
-0.0052533969 -0.030469656 0.7144773
-0.0052753747 -0.031652242 0.7155385
-0.0052975146 -0.032844543 0.71660757
-0.005319796 -0.03404665 0.71768337
-0.0053421059 -0.035257876 0.71876061
-0.005363937 -0.036474764 0.71981478
-0.0053851814 -0.037696242 0.72084045
-0.0054065012 -0.03892678 0.72186989
-0.0054279678 -0.040166944 0.72290635
-0.0054496047 -0.041417003 0.72395116
-0.0054702908 -0.042668283 0.72494996
-0.0054900018 -0.04392001 0.7259016
-0.005509418 -0.045177221 0.72683918
-0.0055288016 -0.046441913 0.7277751
-0.0055480022 -0.047712773 0.72870213
-0.0055675344 -0.048994273 0.72964525
-0.0055872044 -0.050284803 0.73059499
-0.0056070397 -0.051584721 0.73155272
-0.0056270161 -0.052893966 0.7325173
-0.0056492775 -0.054233044 0.73359215
-0.0056721526 -0.055587083 0.73469669
-0.0056952406 -0.056952357 0.73581141
-0.0057185167 -0.058328867 0.73693532
-0.0057419841 -0.059716582 0.73806834
-0.005766362 -0.061123431 0.73924547
-0.0057922085 -0.06255585 0.74049348
-0.0058183149 -0.064001471 0.74175406
-0.0058446578 -0.065460145 0.74302596
-0.0058712396 -0.066932112 0.74430943
-0.0058980645 -0.068417549 0.74560463
-0.0059260628 -0.069927514 0.74695653
-0.0059552626 -0.071463108 0.74836642
-0.0059847236 -0.073013604 0.74978894
-0.0060145059 -0.074579865 0.75122696
-0.0060445871 -0.076161742 0.75267941
-0.0060749403 -0.077759236 0.75414497
-0.0061070607 -0.079391778 0.75569588
-0.0061400346 -0.081048459 0.75728804
-0.0061733974 -0.082723498 0.75889891
-0.0034655316 0.080573648 0.66998422
-0.0034764633 0.079958647 0.67064404
-0.0034874519 0.079339534 0.67130727
-0.0034985223 0.078716755 0.67197537
-0.0035096633 0.078090012 0.67264783
-0.0035208755 0.077459276 0.67332453
-0.0035321473 0.076824218 0.67400479
-0.0035435036 0.076185316 0.67469025
-0.0035549335 0.075542331 0.67538011
-0.0035664372 0.074895203 0.67607439
-0.003578003 0.074243575 0.67677248
-0.0035896569 0.073587984 0.67747587
-0.0036013867 0.072928101 0.67818379
-0.0036131805 0.072263628 0.67889565
-0.0036248812 0.071591437 0.67960185
-0.0036366447 0.070914567 0.68031186
-0.0036484981 0.070233613 0.68102723
-0.0036604288 0.06954819 0.68174732
-0.0036724247 0.068857998 0.68247133
-0.0036845128 0.068163514 0.68320096
-0.0036966805 0.067464441 0.68393528
-0.0030024338 0.054043859 0.64203382
-0.0029955942 0.053171813 0.64162099
-0.0029969849 0.05244723 0.64170492
-0.002998637 0.05172652 0.6418047
-0.0030015514 0.051026374 0.64198053
-0.0030101284 0.050419658 0.6424982
-0.0030187455 0.049809307 0.64301831
-0.0030274214 0.049195617 0.64354193
-0.0030361379 0.048578233 0.644068
-0.0030449145 0.04795742 0.64459777
-0.0030537322 0.047332853 0.64512992
-0.0030626107 0.046704859 0.64566576
-0.0030715314 0.04607299 0.64620423
-0.0030805138 0.045437574 0.64674634
-0.003089539 0.044798344 0.64729106
-0.0030986276 0.044155478 0.64783955
-0.0031077692 0.043508798 0.64839137
-0.0031169942 0.04285869 0.64894813
-0.0031263621 0.0422059 0.64951354
-0.0031357864 0.041549176 0.65008235
-0.0031452775 0.040888608 0.65065521
-0.0031548163 0.040223926 0.65123093
-0.0031644134 0.039555162 0.65181011
-0.0031740686 0.038882345 0.65239286
-0.0031837833 0.038205415 0.65297925
-0.0031935575 0.037524343 0.65356916
-0.0032033918 0.036839038 0.6541627
-0.0032132976 0.036149621 0.65476054
-0.0032232539 0.035455823 0.65536153
-0.0032332831 0.034757793 0.65596676
-0.0032433746 0.034055442 0.65657592
-0.0032535291 0.03334868 0.65718871
-0.0032637476 0.032637507 0.6578055
-0.0032740305 0.031921804 0.65842611
-0.0032843677 0.031201512 0.65904999
-0.0032948568 0.030477434 0.65968311
-0.0033054573 0.029749185 0.6603229
-0.0033161368 0.029016197 0.66096747
-0.0033268859 0.028278559 0.66161621
-0.0033376934 0.027536005 0.66226852
-0.0033485829 0.026788682 0.66292572
-0.0033595548 0.026036561 0.66358799
-0.0033705987 0.025279522 0.66425455
-0.0033817156 0.024517447 0.66492552
-0.0033928945 0.023750246 0.66560018
-0.0034041593 0.022978097 0.66628009
-0.0034154989 0.022200733 0.66696453
-0.0034269143 0.021418244 0.66765344
-0.0034384066 0.020630449 0.66834712
-0.0034499641 0.01983729 0.66904467
-0.0034616115 0.019038886 0.66974765
-0.0034733382 0.018235028 0.67045546
-0.0034852657 0.017426342 0.6711753
-0.0034972995 0.016612232 0.67190158
-0.0035094295 0.015792459 0.67263371
-0.0035206899 0.014962971 0.67331326
-0.0035273291 0.014109343 0.67371404
-0.003539681 0.013273805 0.67445958
-0.0035521321 0.012432456 0.67521107
-0.0035646714 0.011585176 0.67596787
-0.0035772868 0.010731906 0.6767292
-0.0035900045 0.0098725259 0.67749685
-0.003602813 0.0090070069 0.67826992
-0.0036156999 0.0081353188 0.6790477
-0.0036286931 0.0072574019 0.67983186
-0.0036417795 0.0063731372 0.68062174
-0.0036550011 0.0054825246 0.68141973
-0.0036684531 0.0045856237 0.68223166
-0.003682005 0.0036820173 0.68304956
-0.0036956568 0.002771765 0.68387353
-0.0037094103 0.0018547773 0.68470359
-0.003723267 0.00093084574 0.68553996
-0.0037372273 2.9802322e-08 0.68638253
-0.0037512928 -0.00093781948 0.68723148
-0.0037654645 -0.0018827319 0.68808675
-0.0037797436 -0.0028347969 0.68894863
-0.0037941316 -0.0037941039 0.68981695
-0.0038086292 -0.0047607422 0.69069207
-0.0038232384 -0.0057348311 0.69157374
-0.0038379598 -0.0067164302 0.69246233
-0.0038528549 -0.0077056587 0.69336122
-0.003868015 -0.0087029934 0.69427621
-0.003883295 -0.0097082257 0.69519848
-0.0038986965 -0.010721385 0.69612807
-0.0039142203 -0.011742651 0.697065
-0.0039298683 -0.012772083 0.69800943
-0.0039456422 -0.013809711 0.69896144
-0.0039615426 -0.014855802 0.69992113
-0.0039775721 -0.015910268 0.70088857
-0.0039937319 -0.016973346 0.70186394
-0.0040100077 -0.018045038 0.70284629
-0.0040264325 -0.019125491 0.70383757
-0.0040429924 -0.020214975 0.70483714
-0.0040596398 -0.021313071 0.7058419
-0.0040763416 -0.02241984 0.70684987
-0.0040928638 -0.02353394 0.70784706
-0.00410952 -0.0246571 0.70885241
-0.0041262787 -0.025789231 0.70986384
-0.0041430024 -0.026929498 0.71087325
-0.0041595344 -0.028076857 0.71187103
-0.0041755019 -0.029228479 0.71283472
-0.0041915742 -0.030388892 0.71380478
-0.0042076833 -0.03155762 0.71477711
-0.0042239334 -0.032735437 0.71575785
-0.0042395918 -0.033916712 0.71670294
-0.0042548054 -0.035102129 0.71762109
-0.0042694001 -0.036289871 0.71850193
-0.0042840033 -0.037485033 0.71938336
-0.0042983009 -0.038684696 0.72024632
-0.0043129539 -0.039894819 0.72113067
-0.0043277261 -0.041113406 0.72202229
-0.0043425816 -0.042340189 0.72291887
-0.0043575577 -0.043575555 0.72382277
-0.00437323 -0.044825613 0.7247687
-0.0043903827 -0.046098977 0.72580397
-0.0044076703 -0.047382444 0.72684735
-0.0044250949 -0.048675984 0.72789901
-0.0044426378 -0.049979687 0.72895789
-0.0044603404 -0.05129388 0.73002625
-0.0044792066 -0.052630693 0.73116499
-0.0044986987 -0.053984374 0.73234135
-0.0045183813 -0.055350155 0.73352933
-0.0045382367 -0.056727946 0.73472774
-0.004558268 -0.058117867 0.73593664
-0.0045784763 -0.059520185 0.73715639
-0.0045997528 -0.060946703 0.73844051
-0.0046217395 -0.062393457 0.73976755
-0.0046439166 -0.06385383 0.74110603
-0.0046663289 -0.065328598 0.74245876
-0.0046889368 -0.066817343 0.74382323
-0.0047117868 -0.0683209 0.74520236
-0.004735847 -0.069853693 0.74665451
-0.0047606518 -0.071409762 0.74815172
-0.0047857184 -0.072982192 0.74966455
-0.0048110494 -0.074571252 0.75119346
-0.0048366277 -0.076176882 0.75273716
-0.0048628096 -0.077804923 0.75431746
-0.0048907581 -0.079474777 0.75600427
-0.004919054 -0.08116436 0.75771213
-0.0049476796 -0.082873613 0.75943983
-0.0026065053 0.080801696 0.67057627
-0.0026147503 0.080185711 0.67123973
-0.0026230479 0.079565853 0.67190748
-0.0026313707 0.078941107 0.67257726
-0.002639635 0.078309208 0.67324233
-0.0026479606 0.077673495 0.67391229
-0.002656339 0.077033848 0.67458659
-0.0026647612 0.076389849 0.67526436
-0.0026732464 0.075741976 0.67594719
-0.0026817857 0.075090021 0.67663437
-0.00269038 0.074433863 0.67732596
-0.0026990196 0.073773205 0.67802131
-0.0027077249 0.073108584 0.67872173
-0.0027164863 0.072439641 0.67942679
-0.0027252948 0.071766108 0.68013567
-0.0027341705 0.071088463 0.68084997
-0.0027431042 0.070406377 0.68156886
-0.0027520864 0.069719553 0.68229169
-0.0027611379 0.069028467 0.68302011
-0.002770249 0.068332851 0.68375331
-0.0027794205 0.067632586 0.6844914
-0.002788601 0.06692645 0.6852302
-0.0022429156 0.053082377 0.64131683
-0.0022441428 0.052363336 0.6414156
-0.0022453782 0.051643699 0.64151502
-0.002246615 0.050923288 0.6416145
-0.0022520619 0.050296068 0.64205283
-0.0022584931 0.049686879 0.64257038
-0.0022649679 0.049074322 0.64309144
-0.0022715419 0.04845956 0.64362049
-0.002278175 0.047841698 0.64415425
-0.0022848467 0.04722017 0.64469117
-0.0022915648 0.046595186 0.64523184
-0.0022983155 0.045966297 0.64577508
-0.002305106 0.045333743 0.64632154
-0.0023119366 0.044697464 0.64687121
-0.0023188081 0.044057369 0.64742422
-0.0023257206 0.04341349 0.64798045
-0.0023326813 0.042765826 0.64854062
-0.0023396767 0.042114168 0.64910358
-0.0023467145 0.041458666 0.64966989
-0.0023537942 0.040799141 0.65023965
-0.0023609246 0.040135711 0.65081346
-0.0023680907 0.039468199 0.65139014
-0.002375308 0.038796723 0.65197092
-0.0023825692 0.038121104 0.65255529
-0.0023898752 0.037441403 0.65314323
-0.002397272 0.036758184 0.65373844
-0.0024047608 0.036071479 0.6543411
-0.0024122968 0.035380363 0.65494758
-0.0024198722 0.034684837 0.65555722
-0.0024275035 0.033985078 0.65617126
-0.0024351827 0.03328082 0.6567893
-0.0024429108 0.03257215 0.65741122
-0.0024506801 0.031858861 0.65803635
-0.0024585151 0.031141222 0.65866685
-0.0024663922 0.030418843 0.65930086
-0.002474328 0.029691964 0.65993947
-0.0024823153 0.028960377 0.66058218
-0.002490354 0.028224021 0.66122913
-0.0024984453 0.027482927 0.66188025
-0.0025065807 0.026736885 0.66253495
-0.0025147777 0.025986016 0.6631946
-0.0025230288 0.025230318 0.66385859
-0.0025313767 0.024469972 0.66453034
-0.0025398401 0.023705214 0.66521144
-0.0025483517 0.022935182 0.66589642
-0.0025569291 0.022160053 0.66658664
-0.0025655734 0.021379799 0.66728228
-0.0025742676 0.02059415 0.66798198
-0.0025830297 0.019803256 0.66868705
-0.0025918514 0.019006908 0.669397
-0.0026007339 0.018205136 0.67011178
-0.0026096774 0.017397881 0.67083144
-0.0026186826 0.016585022 0.67155617
-0.0026277502 0.015766531 0.67228591
-0.0026368806 0.014942348 0.67302066
-0.0026411212 0.014085978 0.6733619
-0.0026503638 0.013251841 0.67410576
-0.0026596903 0.012411892 0.67485625
-0.0026691868 0.01156649 0.67562044
-0.0026787515 0.010715038 0.67639017
-0.0026883851 0.009857446 0.67716539
-0.0026980883 0.0089936554 0.67794627
-0.0027078616 0.0081235766 0.67873275
-0.0027177059 0.0072472394 0.67952502
-0.0027276222 0.006364435 0.680323
-0.0027376111 0.0054752529 0.68112683
-0.0027476735 0.0045794547 0.68193662
-0.0027578101 0.0036770999 0.68275231
-0.0027680218 0.0027680397 0.68357408
-0.0027783092 0.0018522143 0.68440193
-0.0027886736 0.00092962384 0.68523598
-0.0027991154 2.9802322e-08 0.68607628
-0.0028097515 -0.00093653798 0.68693221
-0.0028205004 -0.0018803179 0.68779731
-0.0028313322 -0.00283131 0.68866897
-0.0028422473 -0.0037896335 0.6895473
-0.0028532469 -0.0047553778 0.69043243
-0.0028643317 -0.0057286322 0.69132459
-0.0028755036 -0.0067094862 0.69222355
-0.0028867624 -0.0076979995 0.69312954
-0.0028981098 -0.0086942911 0.69404274
-0.0029095472 -0.0096984804 0.69496322
-0.0029210749 -0.010710597 0.6958909
-0.0029326829 -0.011730701 0.69682497
-0.0029443952 -0.01275903 0.6977675
-0.0029561659 -0.013795406 0.69871479
-0.0029679965 -0.014839947 0.6996668
-0.0029796856 -0.015891671 0.70060748
-0.0029914547 -0.016951561 0.7015546
-0.0030032697 -0.018019587 0.70250535
-0.0030150688 -0.019095421 0.70345491
-0.0030267292 -0.020178169 0.70439327
-0.0030380867 -0.02126658 0.70530725
-0.0030494307 -0.0223625 0.70622015
-0.0030608347 -0.023466408 0.70713788
-0.0030722865 -0.024578273 0.70805943
-0.0030834191 -0.025695145 0.70895529
-0.003094339 -0.02681759 0.7098341
-0.0031047328 -0.027942568 0.71067053
-0.0031150801 -0.029074073 0.71150315
-0.0031251453 -0.03020972 0.71231318
-0.0031354073 -0.03135404 0.713139
-0.0031458156 -0.032506764 0.71397656
-0.0031562799 -0.033666998 0.71481872
-0.0031668274 -0.0348351 0.71566749
-0.0031774323 -0.036010891 0.71652091
-0.0031892329 -0.037207723 0.71747059
-0.0032013808 -0.038416535 0.71844816
-0.0032136352 -0.039634824 0.71943438
-0.0032259841 -0.040862441 0.72042805
-0.0032384142 -0.042099357 0.72142839
-0.0032509544 -0.043346047 0.7224375
-0.0032646568 -0.044616967 0.72354019
-0.0032784613 -0.045898408 0.7246511
-0.0032923969 -0.047190994 0.7257725
-0.003306452 -0.048494607 0.72690356
-0.0033206271 -0.049809396 0.72804439
-0.0033349248 -0.05113548 0.72919494
-0.0033501084 -0.052485019 0.73041677
-0.0033656419 -0.053850263 0.73166692
-0.0033813356 -0.055228502 0.73292977
-0.003397176 -0.056619555 0.73420453
-0.0034131508 -0.058023542 0.73549002
-0.0034292757 -0.059440762 0.73678768
-0.0034462344 -0.060883462 0.73815244
-0.0034637451 -0.062347382 0.73956156
-0.0034814186 -0.063825965 0.74098384
-0.0034992897 -0.065320075 0.74242204
-0.0035173455 -0.066829532 0.74387503
-0.003535588 -0.068354696 0.74534309
-0.0035552334 -0.069919586 0.74692404
-0.003575149 -0.071502984 0.74852669
-0.0035953065 -0.073104531 0.75014883
-0.0036156923 -0.074724257 0.75178933
-0.0036363991 -0.076364398 0.75345576
-0.0036590914 -0.078060597 0.75528181
-0.0036820509 -0.079777747 0.75712949
-0.0037053002 -0.081516623 0.75900048
-0.0017419775 0.081001967 0.67109615
-0.0017474162 0.080381155 0.67175269
-0.001752889 0.079756439 0.67241335
-0.0017583899 0.07912758 0.67307734
-0.0017639318 0.078494966 0.67374629
-0.0017695087 0.077858418 0.67441952
-0.0017751209 0.077217788 0.67509699
-0.0017807626 0.076572835 0.67577797
-0.0017864465 0.075924009 0.67646408
-0.001792167 0.07527104 0.6771546
-0.0017979176 0.074613601 0.67784882
-0.0018037118 0.073952198 0.67854822
-0.0018094584 0.073283076 0.6792419
-0.0018152416 0.072609723 0.67993993
-0.0018210555 0.07193172 0.68064177
-0.0018269133 0.071249664 0.68134886
-0.0018328023 0.070562929 0.68205965
-0.001838736 0.069871962 0.68277597
-0.0018447014 0.069176346 0.68349612
-0.0018507058 0.068476111 0.68422091
-0.0018567563 0.067771614 0.68495119
-0.0015039423 0.054141939 0.64236283
-0.001494433 0.053052396 0.64121491
-0.0014937103 0.05227986 0.64112771
-0.0014946338 0.051564902 0.64123911
-0.0014955722 0.050849468 0.64135242
-0.0014981111 0.050186753 0.6416589
-0.0015024384 0.049580455 0.64218128
-0.001506791 0.048970729 0.64270663
-0.0015111734 0.048357606 0.64323568
-0.0015155768 0.047740668 0.64376718
-0.0015200059 0.047120214 0.64430183
-0.0015244611 0.046496093 0.64483964
-0.0015289424 0.045868307 0.64538056
-0.00153345 0.045236766 0.64592469
-0.0015379891 0.044601709 0.64647257
-0.0015425551 0.043962836 0.6470238
-0.0015471434 0.04332006 0.64757764
-0.001551798 0.042674482 0.64813948
-0.0015565045 0.042025626 0.64870763
-0.0015612398 0.041372895 0.64927918
-0.0015659991 0.040715992 0.64985371
-0.0015707924 0.040055245 0.65043235
-0.0015756149 0.039390355 0.65101445
-0.0015804624 0.038721353 0.65159959
-0.0015853449 0.038048327 0.65218896
-0.0015902575 0.037371069 0.65278196
-0.0015952006 0.036689609 0.65337861
-0.0016001696 0.036003828 0.65397847
-0.0016051797 0.035313964 0.65458322
-0.0016102215 0.034619778 0.6551919
-0.0016152951 0.033921212 0.65580422
-0.0016203953 0.033218116 0.65641999
-0.0016255332 0.032510668 0.65704006
-0.0016307038 0.03179875 0.6576643
-0.0016359127 0.031082362 0.65829307
-0.0016412089 0.030362397 0.65893233
-0.0016465394 0.029637724 0.65957582
-0.00165191 0.028908461 0.66022414
-0.0016573105 0.028174341 0.66087598
-0.0016627519 0.027435422 0.66153288
-0.0016682291 0.026691735 0.66219395
-0.0016737481 0.0259431 0.66286021
-0.0016793038 0.025189579 0.66353083
-0.0016848964 0.02443102 0.66420591
-0.0016905208 0.023667276 0.66488481
-0.0016961885 0.022898555 0.66556895
-0.0017018943 0.022124648 0.66625774
-0.0017076386 0.021345526 0.66695112
-0.001713422 0.020561069 0.66764921
-0.0017192446 0.019771338 0.66835213
-0.0017251068 0.018976212 0.66905975
-0.0017310574 0.018176138 0.66977799
-0.0017370729 0.01737076 0.67050421
-0.0017431427 0.016559899 0.67123681
-0.0017492489 0.015743256 0.67197394
-0.0017554042 0.01492095 0.67271698
-0.0017583467 0.014066786 0.67307216
-0.0017645726 0.013234317 0.67382365
-0.0017708426 0.012395889 0.67458057
-0.0017771573 0.011551529 0.6753428
-0.0017835173 0.01070112 0.67611051
-0.0017899229 0.009844631 0.6768837
-0.0017963749 0.0089819133 0.67766249
-0.0018028733 0.0081129372 0.67844701
-0.0018094191 0.0072377324 0.67923713
-0.001816039 0.0063561499 0.68003619
-0.0018227737 0.0054683387 0.68084919
-0.0018295586 0.0045738816 0.68166816
-0.0018363943 0.0036728084 0.68249333
-0.0018432812 0.0027649403 0.68332464
-0.0018502199 0.0018502176 0.6841622
-0.001857211 0.00092864037 0.68500614
-0.0018642554 -0 0.6858564
-0.0018713531 -0.00093564391 0.68671322
-0.0018785052 -0.0018785 0.68757659
-0.0018857124 -0.0028285384 0.68844652
-0.0018929748 -0.003785938 0.68932319
-0.0019002935 -0.0047506988 0.69020665
-0.0019076617 -0.0057229698 0.69109607
-0.0019150653 -0.0067027211 0.69198978
-0.0019225192 -0.0076900721 0.69288951
-0.0019298899 -0.0086844862 0.69377923
-0.0019372874 -0.0096864104 0.69467211
-0.001944719 -0.010695904 0.69556922
-0.0019521242 -0.01171273 0.69646311
-0.0019594631 -0.012736499 0.69734907
-0.0019666487 -0.013766527 0.69821644
-0.0019737782 -0.01480332 0.69907701
-0.0019809597 -0.015847653 0.69994384
-0.0019881618 -0.016899347 0.70081329
-0.0019952019 -0.017956823 0.70166314
-0.0020020674 -0.019019604 0.70249182
-0.0020087711 -0.020087689 0.70330101
-0.0020152759 -0.021160364 0.70408618
-0.0020216105 -0.022237688 0.70485091
-0.0020280099 -0.023322105 0.70562339
-0.002034541 -0.02441448 0.70641172
-0.0020411059 -0.025513828 0.70720416
-0.0020477218 -0.026620328 0.70800275
-0.0020543719 -0.027734011 0.70880556
-0.0020613202 -0.028858453 0.70964426
-0.0020689403 -0.029999584 0.71056408
-0.0020766167 -0.031149238 0.71149075
-0.0020843416 -0.032307267 0.71242321
-0.002092133 -0.033474118 0.71336365
-0.0020999741 -0.034649521 0.71431023
-0.0021080961 -0.03583762 0.71529061
-0.0021167288 -0.037042737 0.71633267
-0.0021254418 -0.038257927 0.71738446
-0.0021342265 -0.03948316 0.71844482
-0.0021430843 -0.040718585 0.71951407
-0.0021520159 -0.041964293 0.7205922
-0.0021610223 -0.043220431 0.72167933
-0.0021706691 -0.044498712 0.72284383
-0.0021804499 -0.04578945 0.72402453
-0.0021903289 -0.04709208 0.72521704
-0.0022002882 -0.048406303 0.72641921
-0.0022103484 -0.049732774 0.72763348
-0.0022204909 -0.051071286 0.72885793
-0.002231115 -0.052431166 0.73014027
-0.0022421225 -0.053810894 0.73146904
-0.002253239 -0.055204332 0.73281085
-0.0022644664 -0.056611627 0.73416615
-0.0022757959 -0.058032781 0.73553383
-0.0022872498 -0.059468478 0.73691642
-0.0022994112 -0.060934395 0.73838449
-0.0023119163 -0.062421709 0.73989391
-0.0023245472 -0.063925028 0.7414186
-0.0023373279 -0.065445185 0.74296135
-0.0023502498 -0.06698209 0.74452114
-0.0023641083 -0.06855911 0.74619406
-0.0023784817 -0.070165217 0.74792904
-0.0023930308 -0.071790874 0.74968523
-0.002407759 -0.073436588 0.75146312
-0.002424031 -0.075144976 0.75342739
-0.0024411557 -0.07689634 0.75549448
-0.0024585242 -0.078672796 0.75759107
-0.0024785821 -0.080553889 0.76001221
-0.00087303424 0.081192225 0.67158997
-0.00087576645 0.080570519 0.67224962
-0.00087849103 0.079942703 0.67290741
-0.00088121719 0.079309583 0.67356557
-0.00088395714 0.0786722 0.67422706
-0.0008867142 0.078030884 0.67489266
-0.0008894917 0.077385783 0.67556322
-0.00089228345 0.076736391 0.67623723
-0.00089509599 0.076083183 0.67691618
-0.00089792308 0.075425565 0.67759871
-0.00090077129 0.074764013 0.67828637
-0.00090363447 0.074098021 0.67897761
-0.00090651587 0.073427826 0.67967319
-0.00090941892 0.072753549 0.68037409
-0.00091233745 0.072074682 0.68107861
-0.00091527798 0.071391672 0.68178856
-0.00091823417 0.070704043 0.68250227
-0.00092121301 0.070012212 0.6832214
-0.00092420774 0.069315612 0.6839444
-0.00092722202 0.068614453 0.68467212
-0.00093017996 0.067903131 0.68538618
-0.00075265439 0.054191142 0.6425277
-0.00074789108 0.053100258 0.64137781
-0.0007458399 0.052208781 0.64088261
-0.00074630929 0.051495343 0.64099586
-0.00074677716 0.050780863 0.64110887
-0.00074749335 0.050082088 0.64128172
-0.00074965029 0.049476922 0.64180249
-0.00075181754 0.04886815 0.6423257
-0.0007540154 0.048257023 0.64285636
-0.00075623766 0.047642976 0.64339286
-0.00075847073 0.047025204 0.64393198
-0.00076071935 0.046403885 0.64447486
-0.00076298136 0.045778871 0.6450209
-0.00076525455 0.045150071 0.64556968
-0.00076754356 0.044517577 0.64612234
-0.00076984643 0.043881267 0.64667833
-0.0007721631 0.043241113 0.64723754
-0.0007744914 0.042597026 0.64779967
-0.00077683618 0.041949183 0.64836574
-0.00077919516 0.041297376 0.64893526
-0.00078156608 0.040641457 0.64950764
-0.00078395644 0.039981812 0.65008467
-0.00078636146 0.039318085 0.65066534
-0.00078877871 0.038650155 0.65124893
-0.00079121336 0.037978292 0.65183675
-0.00079366314 0.037302166 0.65242815
-0.0007961485 0.036622852 0.65302819
-0.00079865701 0.035939604 0.65363371
-0.00080118142 0.035252005 0.65424323
-0.0008037244 0.034560174 0.65485716
-0.00080628094 0.033863783 0.65547442
-0.00080885645 0.03316313 0.65609616
-0.00081144588 0.032457858 0.65672123
-0.00081405457 0.031748146 0.65735108
-0.00081668003 0.031033874 0.65798491
-0.00081932521 0.030315042 0.65862352
-0.00082198752 0.02959156 0.65926623
-0.00082466734 0.02886337 0.65991318
-0.00082736451 0.028130412 0.66056436
-0.00083007675 0.027392566 0.66121912
-0.00083280948 0.026649952 0.66187888
-0.00083556038 0.02590242 0.662543
-0.00083832949 0.025149882 0.66321158
-0.00084114808 0.02439335 0.66389203
-0.00084398576 0.023631603 0.66457713
-0.00084684259 0.022864789 0.66526681
-0.00084972463 0.022092849 0.66596258
-0.00085262634 0.021315664 0.66666311
-0.00085555087 0.020533264 0.66736913
-0.00085849257 0.01974532 0.66807938
-0.00086145749 0.018952072 0.66879517
-0.00086444005 0.01815325 0.66951519
-0.0008674463 0.017348945 0.67024094
-0.0008704706 0.016538948 0.67097104
-0.00087351899 0.015723377 0.67170703
-0.00087658886 0.014902025 0.67244816
-0.00087886147 0.014061809 0.67299682
-0.00088115822 0.01321739 0.67355132
-0.00088431645 0.012380451 0.67431384
-0.00088751008 0.011537641 0.67508477
-0.00089072681 0.010688752 0.67586136
-0.00089396699 0.0098336637 0.67664361
-0.0008972307 0.0089722872 0.67743158
-0.00090051844 0.0081047118 0.67822528
-0.00090383028 0.0072306693 0.67902482
-0.00090716669 0.0063501894 0.67983031
-0.00091052777 0.0054632127 0.68064177
-0.00091391383 0.0045695603 0.68145919
-0.00091732515 0.0036692917 0.68228281
-0.00092076208 0.0027622879 0.6831125
-0.00092422479 0.0018484592 0.68394852
-0.00092771027 0.00092771649 0.68478996
-0.00093121169 2.9802322e-08 0.68563533
-0.00093473622 -0.00093472004 0.68648618
-0.00093823113 -0.0018764436 0.68732989
-0.00094172044 -0.0028251112 0.68817234
-0.00094523223 -0.0037809312 0.68902016
-0.00094872352 -0.004743576 0.68986303
-0.00095218996 -0.0057131052 0.69069993
-0.00095560885 -0.0066892505 0.69152528
-0.00095897511 -0.0076717734 0.69233799
-0.00096236891 -0.0086612701 0.69315732
-0.00096577191 -0.0096577108 0.69397891
-0.00096912018 -0.010660291 0.6947872
-0.0009723595 -0.011668295 0.69556928
-0.0009756129 -0.012682945 0.69635469
-0.00097867753 -0.013701469 0.69709456
-0.0009816807 -0.014725208 0.69781959
-0.00098467898 -0.015754849 0.69854343
-0.00098775409 -0.016791791 0.69928581
-0.00099084852 -0.017835259 0.70003289
-0.00099396636 -0.018885344 0.70078564
-0.00099709991 -0.019941986 0.70154214
-0.0010002573 -0.021005392 0.70230442
-0.0010037487 -0.022082448 0.70314723
-0.0010073619 -0.023169309 0.70401961
-0.0010110013 -0.024264038 0.70489824
-0.0010146629 -0.025366575 0.70578223
-0.0010183554 -0.026477218 0.70667362
-0.0010220747 -0.027595997 0.70757157
-0.0010260191 -0.028728485 0.70852387
-0.0010301085 -0.029873133 0.70951116
-0.001034235 -0.031027019 0.71050727
-0.0010383945 -0.032190233 0.71151149
-0.0010425878 -0.033362776 0.71252388
-0.001046815 -0.034544855 0.71354437
-0.0010510898 -0.035737067 0.71457648
-0.0010556759 -0.036948621 0.71568358
-0.0010603067 -0.038171053 0.71680158
-0.0010649738 -0.039404035 0.71792829
-0.0010696866 -0.040648073 0.71906614
-0.0010744367 -0.041903019 0.72021282
-0.0010792339 -0.04316932 0.72137105
-0.0010842385 -0.04445377 0.72257918
-0.0010894369 -0.04575634 0.72383428
-0.0010946805 -0.047071248 0.72510016
-0.0010999796 -0.048399121 0.72637951
-0.0011053304 -0.049739808 0.72767127
-0.0011107285 -0.051093489 0.72897452
-0.0011163838 -0.052469999 0.73033977
-0.0011222782 -0.053869367 0.73176289
-0.0011282352 -0.055283517 0.73320103
-0.0011342505 -0.056712508 0.73465323
-0.0011403357 -0.058157116 0.73612231
-0.0011466651 -0.059626549 0.73765033
-0.0011534266 -0.061131597 0.73928273
-0.0011602738 -0.062654734 0.7409358
-0.0011671972 -0.064195871 0.74260724
-0.0011743968 -0.065766215 0.74434537
-0.001182434 -0.067398697 0.74628574
-0.0011905821 -0.069053769 0.74825287
-0.0011992168 -0.070753783 0.75033742
-0.0012096129 -0.072576731 0.75284731
-0.001222367 -0.074564368 0.75592643
-0.0012332007 -0.076458424 0.75854182
-0.0012418748 -0.0782381 0.76063597
-0.0012506532 -0.080041766 0.76275527
0 0.081352323 0.67200565
0 0.080726266 0.67265821
0 0.080096006 0.67331409
0 0.079462081 0.67397475
0 0.078824013 0.67463881
0 0.078181893 0.67530698
0 0.077536047 0.67598009
0 0.076885819 0.67665672
0 0.076231867 0.67733836
0 0.075573415 0.67802358
0 0.07491076 0.67871308
0 0.074236929 0.6793865
0 0.073559225 0.6800648
0 0.07287699 0.68074661
0 0.072190493 0.6814326
0 0.071499765 0.68212295
0 0.070804626 0.68281758
0 0.070105135 0.68351662
0 0.069397628 0.68420845
0 0.068679869 0.6848855
0 0.067957759 0.68556666
0 0.054240406 0.64269298
0 0.05314827 0.64154094
0 0.052138567 0.64064026
0 0.05142805 0.6407603
0 0.050718039 0.64088577
0 0.050007045 0.64101148
0 0.049387723 0.64147604
0 0.048781514 0.64200389
0 0.048171937 0.64253539
0 0.047558755 0.64307004
0 0.046941936 0.64360774
0 0.046321332 0.64414817
0 0.045697212 0.64469224
0 0.045069367 0.64523965
0 0.044437647 0.64578974
0 0.04380241 0.6463443
0 0.043163359 0.64690214
0 0.042520821 0.64746511
0 0.041875422 0.64803618
0 0.041226238 0.64861119
0 0.040572912 0.64918929
0 0.039915651 0.64977151
0 0.039254218 0.65035671
0 0.038588732 0.65094614
0 0.037919015 0.65153873
0 0.037245125 0.65213501
0 0.036567122 0.65273565
0 0.035884708 0.65333939
0 0.035198241 0.65394819
0 0.034507394 0.65456092
0 0.033812165 0.65517747
0 0.033112496 0.65579796
0 0.032408357 0.6564225
0 0.031699687 0.65705091
0 0.030986547 0.65768415
0 0.030269712 0.65832788
0 0.029548347 0.65897655
0 0.028822154 0.65962881
0 0.028091133 0.66028535
0 0.027355373 0.66094691
0 0.026614636 0.66161287
0 0.02586922 0.66228467
0 0.025118649 0.66296029
0 0.02436316 0.6636411
0 0.023602486 0.66432583
0 0.022836715 0.66501588
0 0.022065639 0.66570997
0 0.021289438 0.66640943
0 0.020507812 0.66711307
0 0.019720852 0.66782224
0 0.018928647 0.66853768
0 0.018131495 0.66926455
0 0.017328769 0.66999727
0 0.01652047 0.6707359
0 0.01570648 0.67148048
0 0.014886618 0.67222965
0 0.014056534 0.67291713
0 0.013205171 0.67335445
0 0.012369126 0.67411852
0 0.011527061 0.67488813
0 0.010678887 0.67566323
0 0.009824574 0.67644405
0 0.0089639723 0.67723054
0 0.0080971122 0.6780228
0 0.0072238445 0.67882013
0 0.00634408 0.67962009
0 0.0054578185 0.68042594
0 0.0045647919 0.68122816
0 0.0036650002 0.68202406
0 0.0027587414 0.68282658
0 0.001845777 0.68362343
0 0.00092619658 0.68441433
0 -0 0.68520105
0 -0.00093257427 0.68596971
0 -0.0018715858 0.68674451
0 -0.0028170943 0.68752289
0 -0.0037688315 0.6882931
0 -0.0047264099 0.6890322
0 -0.0056901276 0.68977535
0 -0.0066593587 0.69049448
0 -0.0076334774 0.69118214
0 -0.0086131692 0.69186592
0 -0.0095990002 0.69256175
0 -0.01059106 0.69326735
0 -0.011589199 0.69397795
0 -0.012593389 0.69469208
0 -0.013603866 0.69541156
0 -0.014622062 0.69615924
0 -0.015651345 0.69698185
0 -0.01668781 0.69780928
0 -0.017731696 0.69864362
0 -0.018782884 0.69948375
0 -0.019841433 0.70032889
0 -0.02090767 0.70118093
0 -0.021987617 0.7021066
0 -0.023076385 0.7030443
0 -0.024173617 0.70398921
0 -0.025279522 0.70494157
0 -0.026394069 0.7059015
0 -0.027517408 0.70686889
0 -0.028651088 0.70785618
0 -0.029800355 0.70890534
0 -0.030959547 0.70996451
0 -0.032128572 0.71103168
0 -0.033307791 0.71210921
0 -0.034497112 0.71319491
0 -0.035696834 0.71429104
0 -0.036911905 0.71543002
0 -0.038143545 0.71661729
0 -0.039386719 0.71781564
0 -0.040641636 0.71902519
0 -0.041908205 0.72024518
0 -0.043187052 0.72147787
0 -0.04448247 0.72274834
0 -0.045801193 0.72409219
0 -0.047133565 0.72544986
0 -0.048479438 0.72682047
0 -0.049839556 0.7282064
0 -0.05121401 0.72960699
0 -0.052626401 0.73114318
0 -0.054055572 0.73269951
0 -0.055501282 0.73427385
0 -0.056963801 0.73586655
0 -0.058476955 0.73763639
0 -0.060021877 0.73948568
0 -0.061587602 0.74135989
0 -0.063223928 0.74348027
0 -0.06501022 0.74618196
0 -0.066841483 0.748981
0 -0.068559408 0.75120187
0 -0.070240408 0.75319225
0 -0.071923554 0.75512403
0 -0.073581457 0.75688982
0 -0.075259358 0.75867695
0 -0.076953441 0.76046944
0 -0.078655094 0.76223397
0.00087722501 0.082459182 0.67260176
0.00087642606 0.081507653 0.67240888
0.00087912701 0.080879718 0.67306095
0.00088177313 0.080241382 0.67369974
0.00088443531 0.079599172 0.67434251
0.00088711671 0.078953415 0.67498982
0.0008898112 0.078303397 0.67564034
0.00089252216 0.077649474 0.6762948
0.00089524972 0.076991498 0.67695332
0.00089799397 0.076329529 0.67761582
0.00090071623 0.075660139 0.67827308
0.00090337341 0.074980021 0.67891455
0.00090604968 0.074296117 0.67956066
0.00090873847 0.073607862 0.68020976
0.00091144332 0.072915524 0.68086278
0.00091416424 0.072219014 0.68151969
0.00091690151 0.071518332 0.68218052
0.00091965526 0.070813477 0.68284529
0.00092236092 0.070099443 0.68349856
0.00092502101 0.069376588 0.68414074
0.00092769653 0.06864956 0.68478668
0.00093039096 0.067918539 0.68543714
0.00075402675 0.054289937 0.64285904
0.00074924395 0.053196341 0.64170438
0.00074451923 0.052116334 0.64056373
0.00074451033 0.051371247 0.64056158
0.00074502919 0.050662011 0.64068687
0.00074554869 0.049951762 0.64081228
0.00074698898 0.049301326 0.64116001
0.00074916991 0.048696041 0.64168656
0.00075136364 0.048087269 0.64221615
0.00075359526 0.04747653 0.64275491
0.00075584243 0.046862274 0.64329737
0.00075810531 0.046244442 0.64384371
0.00076037948 0.045622826 0.64439273
0.00076266966 0.044997513 0.64494562
0.00076497142 0.044368356 0.64550138
0.00076728698 0.043735385 0.64606035
0.00076961907 0.043098718 0.64662337
0.00077196298 0.042457968 0.64718926
0.00077432359 0.041813493 0.64775914
0.00077669625 0.041164905 0.648332
0.00077908597 0.040512502 0.64890891
0.00078148796 0.039855897 0.64948875
0.00078390975 0.039195508 0.65007341
0.00078634662 0.038531005 0.65066177
0.00078879856 0.03786236 0.6512537
0.00079126592 0.037189513 0.65184939
0.0007937589 0.036512911 0.65245122
0.00079628528 0.035832852 0.65306115
0.00079883041 0.035148531 0.65367562
0.00080138928 0.03445977 0.65429342
0.00080396462 0.033766538 0.65491509
0.00080655655 0.033068836 0.65554088
0.00080916786 0.032366723 0.65617132
0.00081179338 0.031659961 0.65680516
0.0008144388 0.030948699 0.65744382
0.00081710686 0.030232996 0.65808791
0.00081978965 0.029512435 0.65873569
0.00082249288 0.028787255 0.6593883
0.00082521408 0.028057277 0.66004521
0.00082795054 0.027322412 0.6607058
0.0008307079 0.026582688 0.66137153
0.00083348097 0.025837898 0.66204107
0.0008362782 0.02508834 0.66271633
0.00083911966 0.02433452 0.66340232
0.00084198324 0.023575544 0.66409361
0.00084486644 0.022811413 0.66478974
0.00084777235 0.022042096 0.66549122
0.00085070124 0.021267593 0.66619837
0.00085365033 0.020487636 0.66691035
0.000856623 0.019702375 0.66762799
0.00085961347 0.018911511 0.66834992
0.00086262485 0.018115133 0.66907698
0.00086565741 0.017313182 0.6698091
0.00086871441 0.016505599 0.67054713
0.00087179005 0.015692264 0.67128962
0.00087488751 0.014873087 0.67203742
0.00087797933 0.014047712 0.67278385
0.00087953801 0.013193071 0.6731602
0.00088268158 0.012357563 0.67391908
0.00088584766 0.011516035 0.67468345
0.00088900176 0.010668039 0.6754449
0.00089212757 0.0098134279 0.67619956
0.00089527859 0.0089527965 0.67696029
0.00089840032 0.0080856085 0.67771393
0.00090150815 0.0072120726 0.67846423
0.00090461143 0.0063322783 0.6792134
0.00090763072 0.0054458082 0.67994231
0.00091067026 0.0045533478 0.68067622
0.00091372686 0.0036549568 0.68141407
0.00091677724 0.0027503371 0.68215048
0.00091967219 0.0018393099 0.68284941
0.00092258537 0.0009226203 0.68355274
0.00092548301 -0 0.68425226
0.00092819211 -0.00092816353 0.6849063
0.00093087216 -0.0018616915 0.68555331
0.00093357818 -0.002800703 0.68620664
0.00093634194 -0.0037453473 0.68687385
0.00093912572 -0.0046955943 0.6875459
0.00094192254 -0.0056515038 0.6882211
0.00094473967 -0.0066131651 0.68890125
0.00094757369 -0.0075805485 0.68958539
0.0009506956 -0.0085562468 0.69033909
0.00095393631 -0.0095393658 0.69112152
0.00095719931 -0.01052919 0.69190931
0.00096048089 -0.01152575 0.69270146
0.00096378883 -0.012529224 0.6935001
0.00096711592 -0.013539582 0.69430333
0.00097054505 -0.014558166 0.69513118
0.00097420352 -0.01558727 0.69601446
0.00097789336 -0.016624182 0.69690526
0.00098161132 -0.017668992 0.6978029
0.00098535768 -0.018721759 0.69870722
0.00098913268 -0.019782633 0.69961864
0.00099293666 -0.020851642 0.70053703
0.00099684962 -0.021930665 0.7014817
0.0010009777 -0.023022473 0.70247829
0.0010051359 -0.024123251 0.70348221
0.0010093331 -0.025233299 0.70449543
0.0010135613 -0.026352584 0.70551628
0.0010178292 -0.027481377 0.7065466
0.001022129 -0.028619587 0.70758462
0.0010265916 -0.029771149 0.70866203
0.0010312507 -0.030937463 0.70978683
0.0010359479 -0.032114357 0.71092087
0.0010406926 -0.033302158 0.71206629
0.0010454807 -0.034500837 0.71322227
0.0010503132 -0.035710663 0.71438897
0.0010552173 -0.036932588 0.71557295
0.001060482 -0.038177341 0.7168439
0.0010657994 -0.039434552 0.71812767
0.0010711704 -0.040704489 0.71942437
0.0010765913 -0.041987032 0.72073305
0.0010820719 -0.043282866 0.72205621
0.0010879067 -0.044604152 0.72346485
0.0010939912 -0.045947611 0.72493374
0.0011001441 -0.04730618 0.72641915
0.0011063715 -0.048680335 0.72792268
0.0011128827 -0.050079674 0.72949457
0.0011200975 -0.05152449 0.7312364
0.0011274064 -0.052988112 0.73300087
0.0011350174 -0.054480821 0.73483831
0.0011441165 -0.056061685 0.73703504
0.0011557231 -0.057786137 0.73983711
0.0011659515 -0.059463531 0.74230647
0.0011738512 -0.061040252 0.74421364
0.0011817024 -0.062630206 0.74610907
0.0011889978 -0.064205885 0.74787033
0.0011959492 -0.065777153 0.74954855
0.001202988 -0.067367315 0.75124794
0.0012099639 -0.068967938 0.75293207
0.0012169087 -0.070580691 0.75460863
0.0012239278 -0.072211683 0.75630319
0.0012310282 -0.073861688 0.75801742
0.0012382116 -0.075530857 0.75975162
0.0012454792 -0.077219665 0.76150614
0.0012528389 -0.078928828 0.76328301
0.0017563161 0.08254683 0.67282701
0.0017548132 0.081598848 0.67264557
0.0017598558 0.08095336 0.67325425
0.0017649273 0.080304205 0.67386645
0.0017700281 0.079651237 0.67448223
0.0017751588 0.078994632 0.67510152
0.001780319 0.078334063 0.67572439
0.0017855094 0.07766971 0.67635095
0.0017907302 0.077001393 0.67698115
0.00179593 0.076327026 0.67760885
0.001800972 0.075640827 0.67821747
0.0018060425 0.074950784 0.67882949
0.0018111481 0.074257135 0.6794458
0.0018162762 0.073559225 0.6800648
0.0018214334 0.07285738 0.68068731
0.0018266197 0.072151482 0.6813134
0.0018318427 0.071441889 0.68194389
0.0018368661 0.070719391 0.68255031
0.0018418495 0.069990337 0.68315184
0.0018468668 0.069257528 0.68375742
0.0018519044 0.068520516 0.68436557
0.0018569767 0.06777966 0.68497783
0.0015094274 0.054339409 0.64302492
0.0014998444 0.053244501 0.64186811
0.0014903779 0.052163243 0.64072543
0.0014873963 0.051315188 0.64036548
0.0014885201 0.050609708 0.64050114
0.0014896413 0.049903005 0.6406365
0.0014917286 0.049227059 0.64088845
0.0014961311 0.048624247 0.64141989
0.001500564 0.048018038 0.64195502
0.0015050189 0.047408134 0.64249277
0.0015095049 0.046794653 0.64303422
0.001514013 0.046177417 0.64357847
0.0015185482 0.045556486 0.64412588
0.0015231152 0.044931918 0.64467716
0.0015277052 0.044303477 0.64523125
0.0015323276 0.04367134 0.64578921
0.0015369827 0.043035507 0.64635116
0.0015416665 0.04239586 0.64691651
0.0015464119 0.041753143 0.64748937
0.0015512062 0.041106999 0.64806807
0.0015560301 0.040456831 0.64865035
0.0015608892 0.03980273 0.64923686
0.0015657736 0.039144367 0.64982653
0.0015706888 0.038481921 0.65041983
0.0015756398 0.037815362 0.65101749
0.0015806173 0.037144542 0.65161824
0.0015856262 0.03646943 0.65222287
0.0015906721 0.035790145 0.65283197
0.0015957501 0.03510654 0.65344501
0.0016008657 0.034418643 0.65406245
0.0016060197 0.033726454 0.6546846
0.0016112016 0.033029675 0.65531009
0.0016164221 0.032328457 0.65594029
0.0016216767 0.031622708 0.65657461
0.0016269604 0.03091225 0.65721238
0.001632337 0.030198216 0.65786141
0.0016377547 0.029479593 0.65851539
0.0016432031 0.028756022 0.65917307
0.0016486932 0.028027803 0.65983576
0.0016542203 0.027294636 0.66050297
0.0016597846 0.026556551 0.6611746
0.0016654029 0.025813758 0.66185278
0.0016710538 0.025065839 0.66253495
0.0016767433 0.024312794 0.66322172
0.0016824717 0.023554623 0.66391319
0.001688245 0.022791326 0.66461009
0.0016940521 0.022022724 0.6653111
0.0016998997 0.021248758 0.66601694
0.0017057933 0.020469517 0.66672838
0.0017117221 0.019684792 0.66744405
0.0017177277 0.01889503 0.66816902
0.0017238053 0.018099964 0.66890264
0.0017299261 0.017299265 0.66964144
0.0017360966 0.016492933 0.67038631
0.001742305 0.01568076 0.67113578
0.0017485581 0.014862776 0.67189056
0.0017548625 0.01403892 0.67265153
0.001756273 0.01317206 0.67282182
0.0017622047 0.012335479 0.67353785
