# .PCD v0.7 - Point Cloud Data file format
VERSION 0.7
FIELDS x y z
SIZE 4 4 4
TYPE F F F
COUNT 1 1 1
WIDTH 1353
HEIGHT 1
VIEWPOINT 0 0 0 1 0 0 0
POINTS 1353
DATA ascii
0.0087817833 -0.071229994 0.69638872
0.0087817833 -0.072205722 0.69638866
0.0087817833 -0.07318151 0.69638872
0.0087817833 -0.074157268 0.69638872
0.0087817833 -0.075133026 0.69638872
0.0087817833 -0.076108754 0.69638872
0.0087817833 -0.077084512 0.69638872
0.0087817833 -0.078060269 0.69638866
0.0087817833 -0.079036057 0.69638872
0.0087817833 -0.080011785 0.69638866
0.0087817833 -0.080987513 0.69638866
0.0087817833 -0.081963301 0.69638872
0.0087817833 -0.082939029 0.69638866
0.0087817833 -0.083914816 0.69638872
0.0087817833 -0.084890544 0.69638872
0.0087817833 -0.085866302 0.6963886
0.0087817833 -0.086842075 0.69638872
0.0098394314 0.092490673 0.69836581
0.009805033 0.091186821 0.6975354
0.0097872736 0.090042919 0.69710654
0.0097872736 0.089064181 0.6971066
0.0097872345 0.088085145 0.69710565
0.0097872345 0.087106407 0.69710565
0.0097872345 0.086127669 0.69710565
0.0097872345 0.08514899 0.69710565
0.0097872345 0.084170252 0.69710565
0.0097872345 0.083191514 0.69710565
0.0097872345 0.082212836 0.69710565
0.0097872345 0.081234068 0.69710565
0.0097872345 0.08025533 0.69710571
0.0097872345 0.079276621 0.69710565
0.0097872345 0.078297913 0.69710571
0.0097872345 0.077319175 0.69710571
0.0097872345 0.076340467 0.69710565
0.0097872345 0.075361729 0.69710565
0.0097872345 0.07438305 0.69710565
0.0097872345 0.073404282 0.69710565
0.0097872345 0.072425574 0.69710565
0.0097872345 0.071446866 0.69710565
0.0097872345 0.070468098 0.69710565
0.0097872345 0.06948939 0.69710565
0.0097872345 0.068510652 0.69710565
0.0097872345 0.067531943 0.69710565
0.0097872345 0.066553235 0.69710565
0.0097872345 0.065574497 0.69710565
0.0097872345 0.064595789 0.69710571
0.0097872345 0.06361708 0.69710565
0.0097872345 0.062638313 0.69710565
0.0097872345 0.061659604 0.69710565
0.0097872345 0.060680896 0.69710565
0.0097872345 0.059702158 0.69710565
0.0097872345 0.05872339 0.69710565
0.0097872345 0.057744682 0.69710565
0.0097872345 0.056766003 0.69710565
0.0097872345 0.055787265 0.69710571
0.0097872345 0.054808527 0.69710565
0.0097872345 0.053829789 0.69710565
0.0097872345 0.052851111 0.69710565
0.0097872345 0.051872373 0.69710565
0.0097872345 0.050893635 0.69710565
0.0097872345 0.049914926 0.69710565
0.0097872345 0.048936188 0.69710565
0.0097872345 0.04795748 0.69710565
0.0097872345 0.046978742 0.69710565
0.0097872345 0.046000034 0.69710565
0.0097872345 0.045021325 0.69710565
0.0097872345 0.044042617 0.69710565
0.0097872345 0.043063849 0.69710571
0.0097735086 0.042026103 0.6967743
0.0097735086 0.041048735 0.69677424
0.0097735086 0.040071398 0.6967743
0.0097735086 0.039094061 0.69677424
0.0097735086 0.038116693 0.69677424
0.0097735086 0.037139386 0.69677424
0.0097735086 0.036162019 0.6967743
0.0097735086 0.035184622 0.6967743
0.0097735086 0.034207314 0.6967743
0.0097735086 0.033229977 0.69677424
0.0097735086 0.03225258 0.6967743
0.0097735086 0.031275272 0.69677424
0.0097735086 0.030297905 0.6967743
0.0097735086 0.029320568 0.69677424
0.0097735086 0.028343201 0.69677424
0.0097735086 0.027365834 0.6967743
0.0097735086 0.026388496 0.69677424
0.0097735086 0.025411129 0.6967743
0.0097735086 0.024433792 0.69677424
0.0097735086 0.023456454 0.69677424
0.0097735086 0.022479087 0.69677424
0.0097735086 0.02150172 0.6967743
0.0097735086 0.020524383 0.6967743
0.0097735086 0.019547015 0.6967743
0.0097735086 0.018569708 0.69677424
0.0097735086 0.017592341 0.6967743
0.0097735086 0.016614944 0.6967743
0.0097735086 0.015637636 0.69677424
0.0097735086 0.014660299 0.69677424
0.0097735086 0.013682902 0.69677424
0.0097735086 0.012705564 0.6967743
0.0097735086 0.011728227 0.69677424
0.0097735086 0.01075086 0.6967743
0.0097735086 0.0097735226 0.69677424
0.0097735086 0.0087961853 0.6967743
0.0097735086 0.0078188479 0.69677424
0.0097735086 0.0068414509 0.6967743
0.0097735086 0.0058641434 0.69677424
0.0097735086 0.004886806 0.6967743
0.0097735086 0.003909409 0.69677424
0.0097735086 0.0029320717 0.6967743
0.0097735086 0.0019547343 0.6967743
0.0097735086 0.00097733736 0.69677424
0.0097735086 5.9604645e-08 0.69677424
0.0097735086 -0.00097730756 0.6967743
0.0097735086 -0.0019547045 0.69677424
0.0097735086 -0.0029320121 0.69677424
0.0097735086 -0.0039093792 0.69677436
0.0097735086 -0.0048867464 0.69677424
0.0097735086 -0.0058640838 0.6967743
0.0097735086 -0.0068414211 0.69677424
0.0097735086 -0.0078188181 0.6967743
0.0097735086 -0.0087961257 0.69677424
0.0097735086 -0.0097734928 0.6967743
0.0097735086 -0.01075083 0.69677424
0.0097735086 -0.011728197 0.6967743
0.0097735086 -0.012705564 0.6967743
0.0097735086 -0.013682902 0.6967743
0.0097735086 -0.014660239 0.69677424
0.0097735086 -0.015637606 0.6967743
0.0097735086 -0.016614944 0.6967743
0.0097735086 -0.017592281 0.69677424
0.0097735086 -0.018569618 0.69677424
0.0097735086 -0.019546986 0.69677424
0.0097735086 -0.020524353 0.6967743
0.0097735086 -0.02150169 0.69677424
0.0097735086 -0.022479057 0.6967743
0.0097735086 -0.023456395 0.69677424
0.0097735086 -0.024433762 0.6967743
0.0097735086 -0.025411099 0.69677424
0.0097735086 -0.026388466 0.6967743
0.0097735086 -0.027365834 0.6967743
0.0097735086 -0.028343171 0.6967743
0.0097735086 -0.029320508 0.6967743
0.0097735086 -0.030297875 0.69677424
0.0097735086 -0.031275243 0.6967743
0.0097735086 -0.03225252 0.6967743
0.0097735086 -0.033229887 0.69677424
0.0097735086 -0.034207284 0.69677424
0.0097735086 -0.035184592 0.69677436
0.0097735086 -0.036161959 0.69677424
0.0097735086 -0.037139326 0.6967743
0.0097735086 -0.038116634 0.69677424
0.0097735086 -0.039094031 0.6967743
0.0097735086 -0.040071368 0.69677424
0.0097735086 -0.041048706 0.6967743
0.0097735086 -0.042026103 0.6967743
0.0097735086 -0.04300341 0.6967743
0.0097735086 -0.043980747 0.69677424
0.0097735086 -0.044958115 0.6967743
0.0097735086 -0.045935482 0.69677424
0.0097735086 -0.046912819 0.6967743
0.0097735086 -0.047890157 0.69677424
0.0097735086 -0.048867524 0.69677424
0.0097735086 -0.049844891 0.69677424
0.0097735086 -0.050822228 0.69677424
0.0097735086 -0.051799595 0.69677436
0.0097735086 -0.052776933 0.69677424
0.0097735086 -0.0537543 0.6967743
0.0097735086 -0.054731637 0.69677424
0.0097735086 -0.055708975 0.6967743
0.0097735086 -0.056686312 0.69677424
0.0097735086 -0.057663679 0.6967743
0.0097735086 -0.058641016 0.69677424
0.0097735086 -0.059618384 0.6967743
0.0097735086 -0.060595751 0.6967743
0.0097735086 -0.061573088 0.69677424
0.0097735086 -0.062550426 0.6967743
0.0097735086 -0.063527763 0.69677424
0.0097735086 -0.06450516 0.69677424
0.0097735086 -0.065482497 0.69677424
0.0097735086 -0.066459835 0.6967743
0.0097735086 -0.067437202 0.69677436
0.0097735086 -0.068414569 0.6967743
0.0097735086 -0.069391876 0.69677424
0.0097735086 -0.070369244 0.6967743
0.0097735086 -0.071346611 0.69677424
0.0097735086 -0.072323918 0.6967743
0.0097735086 -0.073301286 0.69677424
0.0097735086 -0.074278653 0.6967743
0.0097735086 -0.07525599 0.6967743
0.0097735086 -0.076233357 0.6967743
0.0097735086 -0.077210724 0.69677424
0.0097735086 -0.078188032 0.6967743
0.0097735086 -0.079165429 0.69677424
0.0097735086 -0.080142766 0.69677424
0.0097735086 -0.081120074 0.69677424
0.0097735086 -0.082097441 0.69677424
0.0097735086 -0.083074838 0.6967743
0.0097735086 -0.084052145 0.69677424
0.0097735086 -0.085029513 0.6967743
0.0097735086 -0.086006835 0.69677424
0.0097735086 -0.086984232 0.6967743
0.010812955 0.091418654 0.6981371
0.010785748 0.090208083 0.69753999
0.010785748 0.089227587 0.69753999
0.010785748 0.088247061 0.69753999
0.010785748 0.087266564 0.69753999
0.010785748 0.086286008 0.69754004
0.010785706 0.085305154 0.69753909
0.010785706 0.084324658 0.69753903
0.010785706 0.083344102 0.69753909
0.010785706 0.082363605 0.69753909
0.010785706 0.081383079 0.69753903
0.010785706 0.080402583 0.69753903
0.010785706 0.079422027 0.69753909
0.010785706 0.07844153 0.69753909
0.010785706 0.077460974 0.69753909
0.010785706 0.076480508 0.69753909
0.010785706 0.075499952 0.69753909
0.010785706 0.074519455 0.69753903
0.010785706 0.073538929 0.69753909
0.010785706 0.072558403 0.69753909
0.010785706 0.071577907 0.69753903
0.010785706 0.070597351 0.69753903
0.010785706 0.069616854 0.69753909
0.010785706 0.068636358 0.69753909
0.010785706 0.067655861 0.69753909
0.010785706 0.066675305 0.69753909
0.010785706 0.065694749 0.69753909
0.010785664 0.064714015 0.69753814
0.010785664 0.063733459 0.69753814
0.010785664 0.062752962 0.69753814
0.010785664 0.061772466 0.69753814
0.010785664 0.060791969 0.69753814
0.010785664 0.059811443 0.69753814
0.010785664 0.058830917 0.69753814
0.010785664 0.057850391 0.69753814
0.010785664 0.056869864 0.69753814
0.010785664 0.055889338 0.69753814
0.010785664 0.054908872 0.69753814
0.010785664 0.053928316 0.69753814
0.010785664 0.052947819 0.69753814
0.010785664 0.051967293 0.69753808
0.010785664 0.050986797 0.69753814
0.010785664 0.05000627 0.6975382
0.010785664 0.049025774 0.69753814
0.010785664 0.048045278 0.69753814
0.010785664 0.047064751 0.69753814
0.010785664 0.046084225 0.69753814
0.010785664 0.045103699 0.69753814
0.010785664 0.044123203 0.69753814
0.010785664 0.043142706 0.69753814
0.010770087 0.042101264 0.6971963
0.010770087 0.041122168 0.69719625
0.010770087 0.040143073 0.69719625
0.010770087 0.039164007 0.6971963
0.010770087 0.038184851 0.69719625
0.010770087 0.037205786 0.6971963
0.010770087 0.03622669 0.6971963
0.010770087 0.035247594 0.6971963
0.010770087 0.034268469 0.6971963
0.010770087 0.033289373 0.69719625
0.010770087 0.032310307 0.6971963
0.010770087 0.031331182 0.6971963
0.010770087 0.030352116 0.69719625
0.010770087 0.02937296 0.6971963
0.010770087 0.028393894 0.6971963
0.010770087 0.027414769 0.6971963
0.010770087 0.026435703 0.69719625
0.010770087 0.025456607 0.69719625
0.010770087 0.024477512 0.69719625
0.010770087 0.023498416 0.69719625
0.010770087 0.02251929 0.69719625
0.010770087 0.021540195 0.69719625
0.010770087 0.020561129 0.69719625
0.010770087 0.019582003 0.69719625
0.010770087 0.018602908 0.69719625
0.010770087 0.017623812 0.6971963
0.010770087 0.016644686 0.69719625
0.010770087 0.015665591 0.6971963
0.010770087 0.014686495 0.69719625
0.010770087 0.013707429 0.6971963
0.010770087 0.012728304 0.6971963
0.010770087 0.011749178 0.69719625
0.010770087 0.010770082 0.6971963
0.010770087 0.0097910166 0.6971963
0.010770087 0.0088119209 0.6971963
0.010770087 0.0078327954 0.6971963
0.010770087 0.0068536997 0.6971963
0.010770087 0.005874604 0.69719636
0.010770087 0.0048955083 0.6971963
0.010770087 0.0039163828 0.6971963
0.010770087 0.0029373169 0.69719625
0.010770087 0.0019582212 0.6971963
0.010770087 0.0009791255 0.6971963
0.010770087 5.9604645e-08 0.6971963
0.010770087 -0.0009790659 0.69719625
0.010770087 -0.0019581616 0.69719625
0.010770087 -0.0029372871 0.6971963
0.010770087 -0.0039163828 0.6971963
0.010770087 -0.0048954785 0.6971963
0.010770087 -0.0058745742 0.69719625
0.010770087 -0.0068536699 0.6971963
0.010770087 -0.0078327954 0.6971963
0.010770087 -0.0088118613 0.6971963
0.010770087 -0.0097909868 0.6971963
0.010770087 -0.010770082 0.69719625
0.010770087 -0.011749208 0.6971963
0.010770087 -0.012728244 0.69719625
0.010770087 -0.01370734 0.69719625
0.010770087 -0.014686465 0.69719625
0.010770087 -0.015665561 0.6971963
0.010770087 -0.016644657 0.69719625
0.010770087 -0.017623752 0.69719625
0.010770087 -0.018602848 0.69719625
0.010770087 -0.019581944 0.6971963
0.010770087 -0.020561039 0.6971963
0.010770087 -0.021540165 0.69719625
0.010770087 -0.022519261 0.69719625
0.010770087 -0.023498356 0.69719625
0.010770087 -0.024477452 0.6971963
0.010770087 -0.025456548 0.6971963
0.010770087 -0.026435673 0.69719625
0.010770087 -0.027414739 0.69719625
0.010770087 -0.028393865 0.6971963
0.010770087 -0.02937296 0.6971963
0.010770087 -0.030352086 0.6971963
0.010770087 -0.031331152 0.6971963
0.010770087 -0.032310247 0.69719625
0.010770087 -0.033289343 0.69719636
0.010770087 -0.034268469 0.6971963
0.010770087 -0.035247564 0.6971963
0.010770087 -0.03622663 0.69719625
0.010770087 -0.037205726 0.6971963
0.010770087 -0.038184822 0.69719625
0.010770087 -0.039163917 0.69719625
0.010770087 -0.040143043 0.69719625
0.010770087 -0.041122139 0.6971963
0.010770087 -0.042101234 0.6971963
0.010770087 -0.04308033 0.6971963
0.010770087 -0.044059455 0.69719625
0.010770087 -0.045038551 0.69719625
0.010770087 -0.046017617 0.6971963
0.010770087 -0.046996742 0.6971963
0.010770087 -0.047975838 0.6971963
0.010770087 -0.048954964 0.69719625
0.010770087 -0.04993403 0.69719636
0.010770087 -0.050913125 0.69719636
0.010770087 -0.051892191 0.69719625
0.010770087 -0.052871317 0.69719625
0.010770087 -0.053850412 0.6971963
0.010770087 -0.054829508 0.69719625
0.010770087 -0.055808604 0.69719625
0.010770087 -0.056787699 0.69719625
0.010770087 -0.057766795 0.69719625
0.010770087 -0.058745921 0.6971963
0.010770087 -0.059725016 0.69719625
0.010770087 -0.060704112 0.69719625
0.010770087 -0.061683208 0.69719625
0.010770087 -0.062662333 0.6971963
0.010770087 -0.063641429 0.6971963
0.010770087 -0.064620495 0.6971963
0.010770087 -0.065599591 0.6971963
0.010770087 -0.066578716 0.69719625
0.010770087 -0.067557842 0.6971963
0.010770087 -0.068536907 0.6971963
0.010770087 -0.069516003 0.6971963
0.010770087 -0.070495099 0.6971963
0.010770087 -0.071474224 0.69719636
0.010770087 -0.07245332 0.69719636
0.010770087 -0.073432416 0.6971963
0.010770087 -0.074411511 0.6971963
0.010770087 -0.075390577 0.6971963
0.010770087 -0.076369703 0.6971963
0.010770087 -0.077348799 0.69719625
0.010770087 -0.078327894 0.6971963
0.010770087 -0.07930699 0.6971963
0.010770087 -0.080286086 0.6971963
0.010770087 -0.081265211 0.6971963
0.010770087 -0.082244277 0.6971963
0.010770087 -0.083223373 0.69719625
0.010770087 -0.084202468 0.6971963
0.010770087 -0.085181594 0.6971963
0.010770087 -0.086160675 0.69719625
0.010770087 -0.087139785 0.6971963
0.011830023 0.091682702 0.69882262
0.011791364 0.090400487 0.6980449
0.011791364 0.089417845 0.69804484
0.011791319 0.088434905 0.69804394
0.011791319 0.087452292 0.69804388
0.011791319 0.08646968 0.69804394
0.011791319 0.085487098 0.69804388
0.011791319 0.084504485 0.69804394
0.011791319 0.083521873 0.69804388
0.011791319 0.08253926 0.69804388
0.011791319 0.081556648 0.69804394
0.011791319 0.080574065 0.69804394
0.011791319 0.079591423 0.69804394
0.011791319 0.078608811 0.69804394
0.011791319 0.077626228 0.69804394
0.011791319 0.076643616 0.69804388
0.011791364 0.075661302 0.69804484
0.011791364 0.074678659 0.69804484
0.011791364 0.073696047 0.69804484
0.011791364 0.072713435 0.69804484
0.011791364 0.071730822 0.69804484
0.011791364 0.07074821 0.69804484
0.011791364 0.069765598 0.6980449
0.011791364 0.068782955 0.69804484
0.011791364 0.067800373 0.69804484
0.011791364 0.06681779 0.69804484
0.011791364 0.065835118 0.69804484
0.011791364 0.064852566 0.69804484
0.011791411 0.063870162 0.69804573
0.011791411 0.06288752 0.69804579
0.011791411 0.061904937 0.69804573
0.011791411 0.060922325 0.69804579
0.011791411 0.059939712 0.69804573
0.011791411 0.05895707 0.69804579
0.011791411 0.057974458 0.69804573
0.011791411 0.056991845 0.69804579
0.011791411 0.056009233 0.69804573
0.011791411 0.055026591 0.69804579
0.011791411 0.054043978 0.69804573
0.011791456 0.053061575 0.69804668
0.011791456 0.052078962 0.69804668
0.011791456 0.05109632 0.69804668
0.011791456 0.050113708 0.69804668
0.011791456 0.049131095 0.69804668
0.011791456 0.048148453 0.69804668
0.011791456 0.047165871 0.69804668
0.011791456 0.046183199 0.69804668
0.011791456 0.045200616 0.69804668
0.011791456 0.044217974 0.69804668
0.011791456 0.043235391 0.69804668
0.011774347 0.042191446 0.69770247
0.011774347 0.041210264 0.69770241
0.011774347 0.040229023 0.69770247
0.011774347 0.039247841 0.69770241
0.011774347 0.038266659 0.69770247
0.011774347 0.037285477 0.69770247
0.011774347 0.036304265 0.69770253
0.011774347 0.035323054 0.69770247
0.011774347 0.034341842 0.69770247
0.011774347 0.03336069 0.69770247
0.011774347 0.032379478 0.69770247
0.011774347 0.031398296 0.69770247
0.011774347 0.030417114 0.69770241
0.011774347 0.029435873 0.69770247
0.011774347 0.028454691 0.69770241
0.011774347 0.02747348 0.69770247
0.011774347 0.026492327 0.69770247
0.011774347 0.025511116 0.69770253
0.011774347 0.024529874 0.69770247
0.011774347 0.023548722 0.69770241
0.011774347 0.022567511 0.69770247
0.011774347 0.021586329 0.69770247
0.011774347 0.020605147 0.69770253
0.011774347 0.019623935 0.69770247
0.011774347 0.018642724 0.69770247
0.011774347 0.017661542 0.69770241
0.011774347 0.01668033 0.69770247
0.011774347 0.015699178 0.69770247
0.011774347 0.014717996 0.69770241
0.011774347 0.013736725 0.69770247
0.011774347 0.012755573 0.69770241
0.011774347 0.011774331 0.69770247
0.011774347 0.010793179 0.69770247
0.011774347 0.0098119974 0.69770247
0.011774347 0.0088307858 0.69770247
0.011774347 0.0078495741 0.69770247
0.011774347 0.0068683624 0.69770247
0.011774347 0.0058872104 0.69770241
0.011774347 0.0049059987 0.69770247
0.011774347 0.0039248168 0.69770241
0.011774347 0.0029435754 0.69770247
0.011774347 0.0019624233 0.69770241
0.011774347 0.00098118186 0.69770253
0.011774347 2.9802322e-08 0.69770247
0.011774347 -0.00098121166 0.69770253
0.011774347 -0.0019623637 0.69770247
0.011774347 -0.0029435456 0.69770247
0.011774347 -0.003924787 0.69770247
0.011774347 -0.0049059689 0.69770247
0.011774347 -0.0058871508 0.69770247
0.011774347 -0.0068683624 0.69770241
0.011774347 -0.0078495443 0.69770253
0.011774347 -0.0088307559 0.69770241
0.011774347 -0.0098119676 0.69770253
0.011774347 -0.01079312 0.69770247
0.011774347 -0.011774331 0.69770247
0.011774347 -0.012755513 0.69770247
0.011774347 -0.013736755 0.69770253
0.011774347 -0.014717937 0.69770247
0.011774347 -0.015699089 0.69770247
0.011774347 -0.01668033 0.69770253
0.011774347 -0.017661512 0.69770247
0.011774347 -0.018642694 0.69770253
0.011774347 -0.019623905 0.69770241
0.011774347 -0.020605087 0.69770241
0.011774347 -0.021586269 0.69770247
0.011774347 -0.022567511 0.69770253
0.011774347 -0.023548663 0.69770247
0.011774347 -0.024529904 0.69770247
0.011774347 -0.025511056 0.69770241
0.011774347 -0.026492238 0.69770247
0.011774347 -0.02747348 0.69770253
0.011774347 -0.028454661 0.69770247
0.011774347 -0.029435813 0.69770241
0.011774347 -0.030417055 0.69770253
0.011774347 -0.031398237 0.69770241
0.011774347 -0.032379448 0.69770247
0.011774347 -0.03336063 0.69770247
0.011774347 -0.034341782 0.69770247
0.011774347 -0.035323054 0.69770247
0.011774347 -0.036304206 0.69770241
0.011774347 -0.037285388 0.69770247
0.011774347 -0.038266599 0.69770241
0.011774347 -0.039247811 0.69770247
0.011774347 -0.040228993 0.69770241
0.011774347 -0.041210204 0.69770253
0.011774347 -0.042191386 0.69770247
0.011774347 -0.043172568 0.69770247
0.011774347 -0.04415378 0.69770247
0.011774347 -0.045134932 0.69770247
0.011774347 -0.046116203 0.69770247
0.011774347 -0.047097355 0.69770247
0.011774347 -0.048078567 0.69770247
0.011774347 -0.049059749 0.69770241
0.011774347 -0.05004096 0.69770247
0.011774347 -0.051022142 0.69770241
0.011774347 -0.052003324 0.69770241
0.011774347 -0.052984536 0.69770247
0.011774347 -0.053965718 0.69770247
0.011774347 -0.054946929 0.69770247
0.011774347 -0.055928111 0.69770247
0.011774347 -0.056909353 0.69770247
0.011774347 -0.057890505 0.69770247
0.011774347 -0.058871716 0.69770247
0.011774347 -0.059852898 0.69770253
0.011774347 -0.06083408 0.69770241
0.011774347 -0.061815321 0.69770241
0.011774347 -0.062796474 0.69770241
0.011774347 -0.063777715 0.69770247
0.011774347 -0.064758867 0.69770247
0.011774347 -0.065740079 0.69770247
0.011774347 -0.066721261 0.69770247
0.011774347 -0.067702502 0.69770247
0.011774347 -0.068683654 0.69770247
0.011774347 -0.069664836 0.69770241
0.011774347 -0.070646048 0.69770247
0.011774347 -0.071627289 0.69770247
0.011774347 -0.072608471 0.69770247
0.011774347 -0.073589623 0.69770241
0.011774347 -0.074570864 0.69770253
0.011774347 -0.075552016 0.69770247
0.011774347 -0.076533258 0.69770247
0.011774347 -0.07751441 0.69770247
0.011774347 -0.078495622 0.69770241
0.011774347 -0.079476833 0.69770247
0.011774347 -0.080458015 0.69770247
0.011774347 -0.081439197 0.69770247
0.011774347 -0.082420409 0.69770241
0.011774347 -0.08340162 0.69770247
0.011774347 -0.084382802 0.69770241
0.011774347 -0.085364014 0.69770253
0.011774347 -0.086345166 0.69770247
0.011774347 -0.087326378 0.69770247
0.012859691 0.091996312 0.69963658
0.012809751 0.090653628 0.69870919
0.012804657 0.089632571 0.6986146
0.012804657 0.088647634 0.69861454
0.012804606 0.087662339 0.69861364
0.012804606 0.086677402 0.69861364
0.012804606 0.085692406 0.69861364
0.012804606 0.084707409 0.69861364
0.012804606 0.083722413 0.69861364
0.012804606 0.082737505 0.69861364
0.012804606 0.081752479 0.69861364
0.012804606 0.080767542 0.69861364
0.012804606 0.079782605 0.69861358
0.012804606 0.078797579 0.69861358
0.012804606 0.077812612 0.69861364
0.012804606 0.076827675 0.69861364
0.012804606 0.075842679 0.69861364
0.012804606 0.074857712 0.69861364
0.012804606 0.073872715 0.69861364
0.012804606 0.072887748 0.69861364
0.012804606 0.071902812 0.69861364
0.012804606 0.070917845 0.69861364
0.012804555 0.06993258 0.69861269
0.012804555 0.068947613 0.69861269
0.012804555 0.067962676 0.69861269
0.012804555 0.06697771 0.69861269
0.012804555 0.065992713 0.69861269
0.012804555 0.065007746 0.69861275
0.012804555 0.064022809 0.69861269
0.012804555 0.063037843 0.69861269
0.012804606 0.062053084 0.69861364
0.012804606 0.061068118 0.69861364
0.012804606 0.060083181 0.69861364
0.012804606 0.059098214 0.69861364
0.012804606 0.058113247 0.69861358
0.012804606 0.057128251 0.69861358
0.012804606 0.056143284 0.69861364
0.012804606 0.055158317 0.69861364
0.012804606 0.05417335 0.69861364
0.012804606 0.053188413 0.69861364
0.012804606 0.052203387 0.69861364
0.012804657 0.051218659 0.69861454
0.012804657 0.050233692 0.69861454
0.012804657 0.049248725 0.6986146
0.012804657 0.048263699 0.6986146
0.012804657 0.047278732 0.6986146
0.012804657 0.046293795 0.6986146
0.012804657 0.045308799 0.6986146
0.012804657 0.044323832 0.6986146
0.012804657 0.043338865 0.69861454
0.012785276 0.042289764 0.6982547
0.012785276 0.041306287 0.69825464
0.012785276 0.040322781 0.6982547
0.012785276 0.039339364 0.6982547
0.012785276 0.038355857 0.6982547
0.012785276 0.03737238 0.69825464
0.012785276 0.036388904 0.6982547
0.012785276 0.035405368 0.6982547
0.012785276 0.034421921 0.69825464
0.012785276 0.033438444 0.6982547
0.012785276 0.032454967 0.6982547
0.012785276 0.031471491 0.69825464
0.012785276 0.030487984 0.6982547
0.012785276 0.029504508 0.69825464
0.012785276 0.028521001 0.6982547
0.012785276 0.027537555 0.6982547
0.012785276 0.026554048 0.69825464
0.012785276 0.025570571 0.6982547
0.012785276 0.024587095 0.69825464
0.012785276 0.023603618 0.6982547
0.012785276 0.022620112 0.6982547
0.012785276 0.021636665 0.69825464
0.012785276 0.020653158 0.6982547
0.012785276 0.019669682 0.6982547
0.012785276 0.018686175 0.69825464
0.012785276 0.017702729 0.6982547
0.012785276 0.016719222 0.69825464
0.012785276 0.015735775 0.6982547
0.012785276 0.014752239 0.6982547
0.012785276 0.013768792 0.69825464
0.012785276 0.012785286 0.69825464
0.012785276 0.011801839 0.69825464
0.012785276 0.010818332 0.69825464
0.012785276 0.0098348558 0.6982547
0.012785276 0.0088513792 0.69825464
0.012785276 0.0078679025 0.69825464
0.012785276 0.0068843663 0.6982547
0.012785276 0.0059009194 0.69825464
0.012785276 0.004917413 0.6982547
0.012785227 0.0039339364 0.69825369
0.012785227 0.0029504299 0.69825375
0.012785227 0.0019669831 0.69825375
0.012785276 0.00098350644 0.69825464
0.012785276 -0 0.69825464
0.012785276 -0.00098344684 0.69825464
0.012785276 -0.0019669533 0.69825464
0.012785276 -0.0029504299 0.69825464
0.012785276 -0.0039339066 0.69825464
0.012785276 -0.0049173832 0.69825464
0.012785276 -0.0059008896 0.6982547
0.012785276 -0.0068843663 0.69825464
0.012785276 -0.0078678429 0.6982547
0.012785276 -0.0088513196 0.6982547
0.012785276 -0.009834826 0.6982547
0.012785276 -0.010818273 0.6982547
0.012785276 -0.011801779 0.6982547
0.012785276 -0.012785256 0.69825464
0.012785276 -0.013768703 0.6982547
0.012785276 -0.014752209 0.69825464
0.012785276 -0.015735716 0.69825464
0.012785276 -0.016719192 0.69825464
0.012785276 -0.017702669 0.69825464
0.012785276 -0.018686175 0.6982547
0.012785276 -0.019669622 0.69825464
0.012785276 -0.020653129 0.6982547
0.012785276 -0.021636635 0.6982547
0.012785276 -0.022620082 0.6982547
0.012785276 -0.023603588 0.6982547
0.012785276 -0.024587035 0.6982547
0.012785276 -0.025570512 0.6982547
0.012785276 -0.026554018 0.69825459
0.012785276 -0.027537495 0.69825464
0.012785276 -0.028521001 0.69825464
0.012785276 -0.029504418 0.6982547
0.012785276 -0.030487955 0.69825464
0.012785276 -0.031471431 0.6982547
0.012785276 -0.032454908 0.69825464
0.012785276 -0.033438414 0.6982547
0.012785276 -0.034421891 0.6982547
0.012785276 -0.035405368 0.69825464
0.012785276 -0.036388844 0.6982547
0.012785276 -0.037372291 0.69825459
0.012785276 -0.038355827 0.6982547
0.012785276 -0.039339304 0.6982547
0.012785276 -0.040322781 0.6982547
0.012785276 -0.041306257 0.6982547
0.012785276 -0.042289734 0.69825464
0.012785276 -0.04327324 0.69825464
0.012785276 -0.044256717 0.69825464
0.012785276 -0.045240194 0.69825464
0.012785276 -0.04622367 0.69825464
0.012785276 -0.047207177 0.6982547
0.012785276 -0.048190624 0.69825464
0.012785276 -0.04917413 0.6982547
0.012785276 -0.050157607 0.69825459
0.012785276 -0.051141083 0.6982547
0.012785276 -0.05212459 0.6982547
0.012785276 -0.053108037 0.6982547
0.012785276 -0.054091543 0.6982547
0.012785276 -0.05507502 0.69825464
0.012785276 -0.056058466 0.6982547
0.012785276 -0.057042003 0.69825464
0.012785276 -0.05802545 0.69825464
0.012785276 -0.059008956 0.69825464
0.012785276 -0.059992433 0.6982547
0.012785276 -0.060975909 0.69825464
0.012785276 -0.061959416 0.6982547
0.012785276 -0.062942863 0.69825464
0.012785276 -0.063926369 0.6982547
0.012785276 -0.064909846 0.6982547
0.012785276 -0.065893382 0.6982547
0.012785276 -0.066876829 0.6982547
0.012785276 -0.067860276 0.69825459
0.012785276 -0.068843782 0.69825464
0.012785276 -0.069827259 0.6982547
0.012785276 -0.070810735 0.69825464
0.012785276 -0.071794242 0.69825464
0.012785276 -0.072777718 0.6982547
0.012785276 -0.073761195 0.69825464
0.012785276 -0.074744672 0.6982547
0.012785276 -0.075728148 0.69825464
0.012785276 -0.076711625 0.69825464
0.012785276 -0.077695131 0.6982547
0.012785276 -0.078678608 0.6982547
0.012785276 -0.079662085 0.6982547
0.012785276 -0.080645561 0.69825459
0.012785276 -0.081629038 0.6982547
0.012785276 -0.082612574 0.6982547
0.012785276 -0.083596021 0.69825464
0.012785276 -0.084579498 0.69825464
0.012785276 -0.085563004 0.69825464
0.012785276 -0.086546436 0.69825464
0.013903598 0.092359632 0.70057982
0.013845887 0.090987295 0.69958466
0.013826156 0.089870036 0.69924438
0.013826156 0.088882446 0.69924438
0.013826101 0.087894499 0.69924349
0.013826101 0.08690697 0.69924349
0.013826101 0.08591938 0.69924349
0.013826101 0.084931791 0.69924349
0.013826101 0.083944201 0.69924343
0.013826101 0.082956642 0.69924343
0.013826101 0.081969053 0.69924349
0.013826101 0.080981433 0.69924349
0.013826046 0.079993576 0.69924253
0.013826046 0.079005986 0.69924259
0.013826046 0.078018457 0.69924253
0.013826046 0.077030867 0.69924253
0.013826046 0.076043278 0.69924253
0.013826046 0.075055718 0.69924253
0.013826046 0.074068159 0.69924253
0.013825991 0.073080242 0.69924158
0.013825991 0.072092682 0.69924164
0.013825991 0.071105152 0.69924158
0.013825991 0.070117593 0.69924158
0.013825991 0.069129974 0.69924164
0.013825991 0.068142444 0.69924158
0.013825991 0.067154855 0.69924158
0.013825991 0.066167295 0.69924164
0.013825938 0.065179467 0.69924062
0.013825938 0.064191878 0.69924068
0.013825938 0.063204288 0.69924068
0.013825938 0.062216759 0.69924068
0.013825938 0.061229169 0.69924068
0.013825938 0.06024164 0.69924062
0.013825938 0.05925402 0.69924062
0.013825938 0.058266461 0.69924068
0.013825883 0.057278663 0.69923973
0.013825883 0.056291103 0.69923973
0.013825883 0.055303544 0.69923967
0.013825883 0.054315954 0.69923973
0.013825883 0.053328395 0.69923973
0.013825883 0.052340865 0.69923973
0.013825883 0.051353335 0.69923967
0.013825883 0.050365746 0.69923973
0.013825883 0.049378186 0.69923973
0.013825883 0.048390627 0.69923973
0.013825883 0.047403067 0.69923973
0.013825883 0.046415478 0.69923973
0.013825883 0.045427948 0.69923973
0.013825938 0.044440538 0.69924068
0.013825938 0.043452978 0.69924062
0.013803924 0.042397797 0.69886106
0.013803924 0.041411787 0.698861
0.013803924 0.040425807 0.69886106
0.013803924 0.039439797 0.69886106
0.013803924 0.038453817 0.69886106
0.013803924 0.037467837 0.698861
0.013803924 0.036481827 0.69886106
0.013803924 0.035495818 0.698861
0.013803924 0.034509808 0.69886106
0.013803924 0.033523828 0.69886106
0.013803924 0.032537848 0.698861
0.013803924 0.031551868 0.698861
0.013803924 0.030565858 0.69886106
0.013803924 0.029579848 0.69886106
0.013803924 0.028593838 0.69886106
0.013803924 0.027607888 0.698861
0.013803924 0.026621878 0.69886106
0.013803924 0.025635839 0.69886106
0.013803924 0.024649918 0.698861
0.013803924 0.023663878 0.698861
0.013803924 0.022677898 0.698861
0.013803924 0.021691889 0.69886106
0.013803924 0.020705909 0.69886106
0.013803924 0.019719899 0.698861
0.013803924 0.018733919 0.69886106
0.013803924 0.017747909 0.69886106
0.013803924 0.016761929 0.69886106
0.013803924 0.015775949 0.69886112
0.013803924 0.014789939 0.698861
0.013803924 0.013803929 0.698861
0.013803924 0.012817949 0.69886106
0.013803924 0.011831999 0.698861
0.013803924 0.010845959 0.698861
0.013803924 0.0098599792 0.698861
0.013803924 0.0088739693 0.698861
0.013803924 0.0078879297 0.698861
0.013803924 0.0069020092 0.698861
0.013803924 0.0059159994 0.69886106
0.013803924 0.0049299896 0.698861
0.013803924 0.0039439797 0.69886106
0.013803924 0.0029579997 0.69886106
0.013803924 0.0019719899 0.698861
0.013803924 0.00098600984 0.69886106
0.013803924 2.9802322e-08 0.69886106
0.013803924 -0.00098598003 0.698861
0.013803924 -0.0019719601 0.698861
0.013803924 -0.0029579699 0.698861
0.013803869 -0.0039439797 0.69886011
0.013803869 -0.00492993 0.69886005
0.013803869 -0.0059159398 0.69886017
0.013803869 -0.0069019198 0.69886017
0.013803869 -0.0078878999 0.69886005
0.013803869 -0.0088738799 0.69886011
0.013803869 -0.0098598897 0.69886011
0.013803869 -0.01084584 0.69886005
0.013803869 -0.01183188 0.69886011
0.013803869 -0.012817889 0.69886011
0.013803869 -0.01380384 0.69886017
0.013803869 -0.01478985 0.69886017
0.013803869 -0.0157758 0.69886011
0.013803869 -0.016761839 0.69886011
0.013803869 -0.017747819 0.69886011
0.013803869 -0.018733799 0.69886011
0.013803869 -0.019719779 0.69886011
0.013803869 -0.02070576 0.69886011
0.013803869 -0.021691799 0.69886011
0.013803869 -0.022677749 0.69886005
0.013803869 -0.023663759 0.69886011
0.013803869 -0.024649739 0.69886005
0.013803869 -0.025635749 0.69886011
0.013803869 -0.026621699 0.69886011
0.013803869 -0.027607739 0.69886011
0.013803869 -0.028593689 0.69886011
0.013803869 -0.029579729 0.69886011
0.013803869 -0.030565709 0.69886005
0.013803869 -0.031551659 0.69886005
0.013803869 -0.032537669 0.69886005
0.013803869 -0.033523679 0.69886017
0.013803869 -0.034509659 0.69886011
0.013803869 -0.035495639 0.69886011
0.013803869 -0.036481649 0.69886011
0.013803869 -0.037467629 0.69886011
0.013803869 -0.038453609 0.69886011
0.013803869 -0.039439589 0.69886017
0.013803869 -0.040425569 0.69886005
0.013803869 -0.041411638 0.69886017
0.013803869 -0.042397559 0.69886011
0.013803869 -0.043383569 0.69886011
0.013803869 -0.044369549 0.69886011
0.013803869 -0.045355558 0.69886011
0.013803869 -0.046341538 0.69886011
0.013803869 -0.047327548 0.69886011
0.013803869 -0.048313498 0.69886005
0.013803869 -0.049299508 0.69886017
0.013803869 -0.050285518 0.69886005
0.013803869 -0.051271498 0.69886011
0.013803869 -0.052257508 0.69886017
0.013803869 -0.053243488 0.69886011
0.013803869 -0.054229468 0.69886011
0.013803869 -0.055215448 0.69886011
0.013803869 -0.056201428 0.69886005
0.013803869 -0.057187438 0.69886017
0.013803869 -0.058173448 0.69886005
0.013803869 -0.059159458 0.69886017
0.013803869 -0.060145378 0.69886011
0.013803869 -0.061131418 0.69886011
0.013803869 -0.062117368 0.69886011
0.013803869 -0.063103408 0.69886011
0.013803869 -0.064089358 0.69886005
0.013803869 -0.065075368 0.69886011
0.013803869 -0.066061348 0.69886011
0.013803869 -0.067047358 0.69886017
0.013803869 -0.068033338 0.69886005
0.013803869 -0.069019318 0.69886011
0.013803869 -0.070005327 0.69886011
0.013803869 -0.070991337 0.69886011
0.013803869 -0.071977288 0.69886011
0.013803869 -0.072963268 0.69886011
0.013803869 -0.073949307 0.69886011
0.013803869 -0.074935257 0.69886005
0.013803869 -0.075921267 0.69886005
0.013803869 -0.076907277 0.69886011
0.013803869 -0.077893198 0.69886011
0.013803869 -0.078879267 0.69886017
0.013803869 -0.079865217 0.69886011
0.013803869 -0.080851227 0.69886011
0.013803869 -0.081837207 0.69886011
0.013803869 -0.082823187 0.69886005
0.013803869 -0.083809167 0.69886005
0.013803869 -0.084795177 0.69886017
0.013803869 -0.085781127 0.69886011
0.013803869 -0.086767167 0.69886017
0.014898012 0.091374516 0.7006008
0.014857257 0.090134054 0.69994485
0.014857257 0.089143544 0.69994485
0.014857257 0.088153094 0.69994479
0.014857257 0.087162584 0.69994485
0.014857257 0.086172134 0.69994485
0.014857257 0.085181624 0.69994485
0.014857315 0.084191501 0.69994575
0.014857315 0.083200991 0.69994581
0.014857315 0.082210511 0.69994575
0.014857315 0.081220001 0.69994581
0.014857315 0.080229521 0.69994581
0.014857315 0.079239041 0.69994575
0.014857315 0.078248531 0.69994581
0.014857373 0.077258348 0.6999467
0.014857373 0.076267868 0.6999467
0.014857373 0.075277388 0.69994676
0.014857373 0.074286908 0.6999467
0.014857373 0.073296398 0.69994676
0.014857373 0.072305918 0.6999467
0.014857432 0.071315706 0.69994771
0.014857432 0.070325196 0.69994766
0.014857432 0.069334716 0.69994771
0.014857432 0.068344206 0.69994766
0.014857432 0.067353725 0.69994771
0.014857432 0.066363215 0.69994766
0.014857432 0.065372705 0.69994771
0.014857491 0.064382493 0.69994861
0.014857491 0.063392013 0.69994861
0.014857491 0.062401474 0.69994867
0.014857491 0.061410964 0.69994861
0.014857491 0.060420513 0.69994861
0.014857491 0.059429973 0.69994861
0.01485755 0.058439702 0.69994956
0.01485755 0.057449222 0.6999495
0.01485755 0.056458712 0.69994956
0.01485755 0.055468202 0.6999495
0.01485755 0.054477721 0.69994956
0.01485755 0.053487182 0.69994962
0.014857609 0.05249688 0.69995052
0.014857609 0.0515064 0.69995046
0.014857609 0.05051589 0.69995052
0.014857609 0.04952535 0.69995052
0.014857609 0.04853487 0.69995046
0.014857609 0.04754439 0.69995046
0.014857668 0.046554059 0.69995147
0.014857668 0.045563549 0.69995147
0.014857668 0.044573009 0.69995147
0.014857668 0.043582529 0.69995147
0.014835055 0.042527169 0.69958746
0.014833999 0.041535228 0.69957054
0.014833999 0.040546268 0.69957054
0.014833999 0.039557308 0.69957054
0.014833999 0.038568437 0.69957054
0.014833999 0.037579507 0.69957054
0.014833999 0.036590517 0.69957054
0.014833999 0.035601646 0.69957054
0.014833999 0.034612685 0.69957054
0.014833999 0.033623725 0.69957054
0.014833999 0.032634825 0.69957054
0.014833999 0.031645894 0.69957054
0.014833999 0.030656934 0.69957054
0.014833999 0.029668033 0.69957054
0.014833999 0.028679103 0.69957054
0.014833999 0.027690172 0.69957054
0.014833999 0.026701212 0.69957048
0.014833999 0.025712311 0.69957054
0.014833999 0.024723351 0.69957054
0.014833999 0.023734421 0.69957048
0.014833999 0.02274546 0.69957054
0.014833999 0.02175653 0.69957054
0.014833999 0.020767629 0.69957054
0.014833999 0.019778669 0.69957054
0.014833999 0.018789738 0.69957054
0.014833999 0.017800838 0.69957054
0.014833999 0.016811877 0.69957054
0.014833999 0.015822947 0.69957054
0.014833999 0.014834017 0.69957054
0.014833999 0.013845056 0.69957054
0.014833999 0.012856126 0.69957054
0.014833999 0.011867225 0.69957054
0.014833999 0.010878265 0.69957054
0.014833999 0.0098893642 0.69957054
0.014833999 0.008900404 0.69957054
0.014833999 0.0079115033 0.69957054
0.014833999 0.0069225729 0.69957054
0.014833999 0.0059336126 0.69957054
0.014833999 0.0049446821 0.69957054
0.014833999 0.0039557517 0.69957048
0.014833999 0.0029668212 0.69957054
0.014833999 0.0019778907 0.69957054
0.014833999 0.00098896027 0.69957048
0.014833999 5.9604645e-08 0.69957048
0.014833999 -0.00098893046 0.69957054
0.014833999 -0.0019778311 0.69957048
0.014833999 -0.0029667616 0.69957048
0.01483394 -0.0039556921 0.69956958
0.01483394 -0.0049446225 0.69956958
0.01483394 -0.0059335828 0.69956958
0.01483394 -0.0069224834 0.69956952
0.01483394 -0.0079114139 0.69956958
0.01483394 -0.0089003444 0.69956958
0.01483394 -0.009889245 0.69956958
0.01483394 -0.010878205 0.69956958
0.01483394 -0.011867136 0.69956964
0.01483394 -0.012856066 0.69956958
0.01483394 -0.013844997 0.69956958
0.01483394 -0.014833927 0.69956964
0.01483394 -0.015822858 0.69956958
0.01483394 -0.016811788 0.69956958
0.01483394 -0.017800689 0.69956958
0.01483394 -0.018789619 0.69956958
0.01483394 -0.019778579 0.69956958
0.01483394 -0.02076751 0.69956958
0.01483394 -0.02175644 0.69956958
0.01483394 -0.022745371 0.69956958
0.01483394 -0.023734301 0.69956958
0.01483394 -0.024723232 0.69956952
0.01483394 -0.025712162 0.69956958
0.01483394 -0.026701093 0.69956958
0.01483394 -0.027689993 0.69956952
0.01483394 -0.028678954 0.69956958
0.01483394 -0.029667854 0.69956958
0.01483394 -0.030656785 0.69956958
0.01483394 -0.031645745 0.69956958
0.01483394 -0.032634646 0.69956958
0.01483394 -0.033623576 0.69956958
0.01483394 -0.034612477 0.69956952
0.01483394 -0.035601437 0.69956958
0.01483394 -0.036590338 0.69956958
0.01483394 -0.037579268 0.69956952
0.01483394 -0.038568258 0.69956958
0.01483394 -0.039557159 0.69956958
0.01483394 -0.040546089 0.69956958
0.01483394 -0.04153505 0.69956958
0.01483394 -0.04252395 0.69956958
0.01483394 -0.043512851 0.69956958
0.01483394 -0.044501811 0.69956958
0.01483394 -0.045490742 0.69956958
0.01483394 -0.046479672 0.69956958
0.01483394 -0.047468573 0.69956958
0.01483394 -0.048457533 0.69956958
0.01483394 -0.049446434 0.69956952
0.01483394 -0.050435364 0.69956958
0.01483394 -0.051424325 0.69956958
0.01483394 -0.052413195 0.69956952
0.01483394 -0.053402156 0.69956958
0.01483394 -0.054391086 0.69956958
0.01483394 -0.055380017 0.69956952
0.01483394 -0.056368947 0.69956952
0.01483394 -0.057357907 0.69956958
0.01483394 -0.058346808 0.69956958
0.01483394 -0.059335738 0.69956958
0.01483394 -0.060324699 0.69956958
0.01483394 -0.06131357 0.69956958
0.01483394 -0.06230253 0.69956958
0.01483394 -0.06329146 0.69956958
0.01483394 -0.064280391 0.69956958
0.01483394 -0.065269321 0.69956958
0.01483394 -0.066258252 0.69956958
0.01483394 -0.067247182 0.69956952
0.01483394 -0.068236113 0.69956958
0.01483394 -0.069225073 0.69956958
0.01483394 -0.070213944 0.69956952
0.01483394 -0.071202904 0.69956958
0.01483394 -0.072191834 0.69956958
0.01483394 -0.073180735 0.69956958
0.01483394 -0.074169695 0.69956958
0.01483394 -0.075158626 0.69956958
0.01483394 -0.076147527 0.69956958
0.01483394 -0.077136487 0.69956958
0.01483394 -0.078125417 0.69956958
0.01483394 -0.079114288 0.69956958
0.01483394 -0.080103278 0.69956958
0.01483394 -0.081092209 0.69956958
0.01483394 -0.082081109 0.69956958
0.014833882 -0.083069712 0.69956863
0.014833882 -0.084058642 0.69956863
0.014833882 -0.085047573 0.69956863
0.014833882 -0.086036474 0.69956863
0.014833882 -0.087025419 0.69956863
0.015971104 0.09183386 0.70180625
0.015901692 0.090440899 0.70075893
0.015901692 0.089447051 0.70075893
0.015901692 0.088453203 0.70075893
0.015901692 0.087459326 0.70075893
0.015901692 0.086465478 0.70075893
0.015901692 0.08547163 0.70075893
0.015901692 0.084477782 0.70075893
0.015901629 0.083483577 0.70075798
0.015901629 0.082489759 0.70075798
0.015901629 0.081495881 0.70075798
0.015901629 0.080502033 0.70075798
0.015901629 0.079508156 0.70075798
0.015901629 0.078514308 0.70075798
0.015901629 0.07752046 0.70075798
0.015901692 0.07652694 0.70075893
0.015901692 0.075533092 0.70075893
0.015901692 0.074539214 0.70075893
0.015901692 0.073545337 0.70075893
0.015901692 0.072551489 0.70075893
0.015901757 0.071557939 0.70075989
0.015901757 0.070564061 0.70075989
0.015901757 0.069570214 0.70075989
0.015901757 0.068576366 0.70075989
0.015901757 0.067582518 0.70075989
0.015901757 0.06658861 0.70075989
0.015901821 0.065595001 0.70076084
0.015901821 0.064601153 0.70076084
0.015901821 0.063607305 0.70076084
0.015901821 0.062613428 0.70076084
0.015901821 0.06161952 0.70076084
0.015901882 0.06062597 0.70076174
0.015901882 0.059632063 0.7007618
0.015901882 0.058638215 0.7007618
0.015901882 0.057644337 0.7007618
0.015901882 0.05665046 0.7007618
0.015901882 0.055656612 0.7007618
0.015901946 0.054662973 0.70076275
0.015901946 0.053669065 0.70076269
0.015901946 0.052675188 0.70076275
0.015901946 0.05168134 0.70076275
0.015901946 0.050687492 0.70076275
0.015902009 0.049693763 0.7007637
0.015902009 0.048699915 0.7007637
0.015902009 0.047706068 0.7007637
0.015902009 0.04671219 0.7007637
0.015902009 0.045718312 0.7007637
0.015902072 0.044724613 0.70076466
0.015902072 0.043730736 0.70076466
0.015895253 0.04271853 0.70066172
0.015875269 0.041672617 0.70036018
0.015875269 0.040680379 0.70036018
0.015875269 0.0396882 0.70036024
0.015875269 0.038695961 0.70036018
0.015875269 0.037703753 0.70036018
0.015875269 0.036711603 0.70036018
0.015875269 0.035719335 0.70036024
0.015875269 0.034727186 0.70036018
0.015875269 0.033734977 0.70036024
0.015875269 0.032742769 0.70036018
0.015875269 0.03175056 0.70036024
0.015875269 0.030758321 0.70036024
0.015875269 0.029766142 0.70036024
0.015875269 0.028773963 0.70036018
0.015875269 0.027781725 0.70036018
0.015875269 0.026789516 0.70036024
0.015875269 0.025797367 0.70036018
0.015875269 0.024805129 0.70036024
0.015875269 0.02381292 0.70036018
0.015875269 0.022820711 0.70036024
0.015875269 0.021828532 0.70036018
0.015875269 0.020836294 0.70036018
0.015875269 0.019844115 0.70036018
0.015875269 0.018851906 0.70036024
0.015875269 0.017859697 0.70036024
0.015875269 0.016867489 0.70036018
0.015875269 0.01587531 0.70036018
0.015875269 0.014883071 0.70036018
0.015875269 0.013890862 0.70036024
0.015875269 0.012898684 0.70036024
0.015875269 0.011906445 0.70036024
0.015875269 0.010914266 0.70036018
0.015875269 0.0099220574 0.70036024
0.015875269 0.0089298487 0.7003603
0.015875269 0.0079376698 0.70036024
0.015875269 0.006945461 0.70036018
0.015875269 0.0059532523 0.70036018
0.015875269 0.0049610436 0.70036018
0.015875269 0.0039688349 0.70036018
0.015875269 0.0029766262 0.70036018
0.015875269 0.001984477 0.70036018
0.015875269 0.00099220872 0.70036018
0.015875269 -0 0.70036024
0.015875269 -0.00099217892 0.70036018
0.015875269 -0.0019843876 0.70036018
0.015875269 -0.0029765964 0.70036018
0.015875269 -0.0039688051 0.70036024
0.015875269 -0.0049610138 0.70036018
0.015875269 -0.0059532225 0.70036024
0.015875269 -0.0069454014 0.70036018
0.015875269 -0.0079376101 0.70036024
0.015875269 -0.0089298189 0.70036018
0.015875269 -0.0099220276 0.70036024
0.015875269 -0.010914207 0.70036018
0.015875269 -0.011906445 0.70036024
0.015875269 -0.012898654 0.70036024
0.015875269 -0.013890833 0.70036024
0.015875269 -0.014883041 0.70036018
0.015875269 -0.01587525 0.70036024
0.015875269 -0.016867459 0.70036024
0.015875269 -0.017859638 0.70036024
0.015875269 -0.018851846 0.70036024
0.015875269 -0.019844085 0.70036024
0.015875269 -0.020836264 0.70036018
0.015875269 -0.021828443 0.70036024
0.015875269 -0.022820711 0.70036018
0.015875269 -0.02381286 0.70036018
0.015875269 -0.024805069 0.70036018
0.015875269 -0.025797337 0.70036018
0.015875269 -0.026789486 0.70036018
0.015875269 -0.027781695 0.70036018
0.015875269 -0.028773904 0.70036018
0.015875269 -0.029766113 0.70036024
0.015875269 -0.030758321 0.70036018
0.015875269 -0.03175053 0.70036024
0.015875269 -0.032742709 0.70036018
0.015875269 -0.033734947 0.70036024
0.015875269 -0.034727126 0.70036018
0.015875205 -0.035719186 0.70035923
0.015875205 -0.036711395 0.70035928
0.015875205 -0.037703604 0.70035923
0.015875205 -0.038695782 0.70035923
0.015875205 -0.039687991 0.70035923
0.015875205 -0.0406802 0.70035928
0.015875205 -0.041672409 0.70035923
0.015875205 -0.042664558 0.70035923
0.015875205 -0.043656796 0.70035923
0.015875205 -0.044649005 0.70035928
0.015875205 -0.045641214 0.70035923
0.015875205 -0.046633393 0.70035928
0.015875205 -0.047625601 0.70035923
0.015875205 -0.04861781 0.70035928
0.015875205 -0.049609989 0.70035923
0.015875205 -0.050602198 0.70035928
0.015875205 -0.051594406 0.70035923
0.015875205 -0.052586615 0.70035928
0.015875205 -0.053578764 0.70035928
0.015875205 -0.054571003 0.70035928
0.015875205 -0.055563211 0.70035928
0.015875205 -0.05655542 0.70035928
0.015875205 -0.057547569 0.70035928
0.015875205 -0.058539808 0.70035923
0.015875205 -0.059532017 0.70035928
0.015875205 -0.060524195 0.70035923
0.015875205 -0.061516374 0.70035923
0.015875205 -0.062508613 0.70035923
0.015875205 -0.063500792 0.70035923
0.015875205 -0.06449303 0.70035923
0.015875205 -0.065485179 0.70035923
0.015875205 -0.066477418 0.70035923
0.015875205 -0.067469597 0.70035923
0.015875205 -0.068461806 0.70035923
0.015875205 -0.069453984 0.70035923
0.015875205 -0.070446223 0.70035923
0.015875205 -0.071438372 0.70035923
0.015875205 -0.07243064 0.70035923
0.015875205 -0.07342279 0.70035923
0.015875205 -0.074414998 0.70035923
0.015875205 -0.075407207 0.70035923
0.015875205 -0.076399416 0.70035928
0.015875205 -0.077391624 0.70035928
0.015875205 -0.078383833 0.70035928
0.015875205 -0.079375982 0.70035923
0.015875205 -0.080368251 0.70035928
0.015875205 -0.08136043 0.70035928
0.015875205 -0.082352579 0.70035928
0.015875205 -0.083344847 0.70035934
0.015875205 -0.084337026 0.70035928
0.015875205 -0.085329205 0.70035934
0.015875205 -0.086321414 0.70035928
0.015875205 -0.087313622 0.70035934
0.017072635 0.0923931 0.70327377
0.016982036 0.090903848 0.70198715
0.016960027 0.089788407 0.70167458
0.016960027 0.088790774 0.70167458
0.016960027 0.087793112 0.70167458
0.016960027 0.086795449 0.70167458
0.01695996 0.085797489 0.70167363
0.01695996 0.084799826 0.70167363
0.01695996 0.083802164 0.70167363
0.01695996 0.082804531 0.70167363
0.01695996 0.081806898 0.70167363
0.016959891 0.080808938 0.70167267
0.016959891 0.079811275 0.70167267
0.016959891 0.078813642 0.70167267
0.016959891 0.07781598 0.70167267
0.016959891 0.076818347 0.70167267
0.016959824 0.075820386 0.70167172
0.016959824 0.074822783 0.70167172
0.016959824 0.073825151 0.70167166
0.016959824 0.072827488 0.70167172
0.016959757 0.071829617 0.70167077
0.016959824 0.070832193 0.70167172
0.016959824 0.06983462 0.70167172
0.016959824 0.068836987 0.70167172
0.016959824 0.067839324 0.70167172
0.016959891 0.06684193 0.70167267
0.016959891 0.065844268 0.70167267
0.016959891 0.064846665 0.70167267
0.016959891 0.063849032 0.70167261
0.01695996 0.062851608 0.70167363
0.01695996 0.061854005 0.70167363
0.01695996 0.060856372 0.70167357
0.01695996 0.05985871 0.70167363
0.016960027 0.058861285 0.70167458
0.016960027 0.057863653 0.70167458
0.016960027 0.05686602 0.70167458
0.016960027 0.055868357 0.70167458
0.016960096 0.054870874 0.70167559
0.016960096 0.053873271 0.70167553
0.016960096 0.052875638 0.70167553
0.016960096 0.051877975 0.70167553
0.016960163 0.050880492 0.70167655
0.016960163 0.049882859 0.70167649
0.016960163 0.048885196 0.70167655
0.016960163 0.047887564 0.70167649
0.01696023 0.04689008 0.70167744
0.01696023 0.045892417 0.7016775
0.01696023 0.044894725 0.7016775
0.01696023 0.043897092 0.70167744
0.016958944 0.042896181 0.7016592
0.016929716 0.041826338 0.70124412
0.016929716 0.040830493 0.70124412
0.016929716 0.039834619 0.70124412
0.016929716 0.038838804 0.70124412
0.016929716 0.0378429 0.70124412
0.016929716 0.036847055 0.70124412
0.016929716 0.035851181 0.70124412
0.016929716 0.034855306 0.70124412
0.016929716 0.033859432 0.70124412
0.016929716 0.032863587 0.70124412
