# .PCD v0.7 - Point Cloud Data file format
VERSION 0.7
FIELDS x y z
SIZE 4 4 4
TYPE F F F
COUNT 1 1 1
WIDTH 1308
HEIGHT 1
VIEWPOINT 0 0 0 1 0 0 0
POINTS 1308
DATA ascii
-0.024421144 -0.0030526221 0.70647866
-0.024492469 -0.0040820837 0.70719612
-0.024565723 -0.0051178634 0.70793295
-0.024639415 -0.006159842 0.70867431
-0.024713445 -0.0072080493 0.70941895
-0.024789358 -0.0082630813 0.71018255
-0.024864502 -0.009324193 0.71093845
-0.024934717 -0.010389447 0.71164477
-0.025001163 -0.011458844 0.71231318
-0.025062736 -0.01253134 0.71293259
-0.025120828 -0.013607085 0.71351695
-0.025169583 -0.014682233 0.71400732
-0.025210904 -0.015756816 0.71442306
-0.025247797 -0.016831845 0.7147941
-0.025284689 -0.017909974 0.71516526
-0.025321798 -0.018991351 0.7155385
-0.025358908 -0.020075798 0.71591187
-0.025400102 -0.021166742 0.71632624
-0.02544391 -0.022263438 0.71676689
-0.02548787 -0.023363858 0.7172091
-0.025531871 -0.024468064 0.71765172
-0.025576355 -0.025576353 0.71809918
-0.025626568 -0.026694298 0.71860427
-0.025676869 -0.027816564 0.71911025
-0.025727479 -0.028943419 0.71961933
-0.025778178 -0.030074537 0.72012937
-0.025830412 -0.031211734 0.72065473
-0.025886873 -0.032358557 0.72122276
-0.025943469 -0.033510298 0.72179204
-0.026000315 -0.034667045 0.72236389
-0.026057525 -0.035829097 0.72293931
-0.026116349 -0.036998123 0.72353107
-0.026178975 -0.038177669 0.72416103
-0.026241902 -0.039362848 0.72479409
-0.026352471 -0.040626705 0.72590631
-0.026416119 -0.041825503 0.72654659
-0.026480081 -0.043030113 0.7271899
-0.026548574 -0.044247627 0.72787893
-0.026617894 -0.045472205 0.7285763
-0.026687579 -0.046703219 0.72927725
-0.02675763 -0.047940701 0.72998184
-0.026828408 -0.049185395 0.73069388
-0.026903059 -0.050443232 0.73144478
-0.02697885 -0.051709473 0.73220718
-0.027055195 -0.052983075 0.73297513
-0.027131848 -0.054263681 0.73374623
-0.027209802 -0.055553317 0.73453039
-0.027291181 -0.056856573 0.73534894
-0.027373422 -0.058168501 0.73617625
-0.027456412 -0.059488863 0.73701108
-0.027540034 -0.06081754 0.73785222
-0.027626706 -0.062160045 0.73872405
-0.027714439 -0.063512206 0.73960662
-0.027803631 -0.064875126 0.74050385
-0.027893918 -0.066248 0.74141204
-0.027986621 -0.067634284 0.74234456
-0.028080728 -0.069031745 0.74329114
-0.028175604 -0.070438981 0.74424553
-0.028272985 -0.071860492 0.74522519
-0.028372653 -0.073295981 0.74622774
-0.028473696 -0.07474342 0.74724418
-0.028575331 -0.076200873 0.74826658
-0.028679609 -0.077673912 0.7493155
-0.028787136 -0.079164594 0.75039709
-0.028895332 -0.080666095 0.75148547
-0.022713143 0.011850357 0.69923127
-0.022703197 0.010858059 0.69912684
-0.02270624 0.0098722875 0.69915879
-0.02273603 0.0088967383 0.69947147
-0.022765893 0.0079185963 0.69978493
-0.02280198 0.0069397688 0.70016372
-0.022847975 0.0059603751 0.70064652
-0.022894062 0.004976958 0.70113027
-0.02294034 0.0039896369 0.70161605
-0.022997918 0.002999723 0.70222044
-0.023055881 0.0020048916 0.70282876
-0.023114135 0.0010049939 0.70344025
-0.023174176 -0 0.70407057
-0.023242606 -0.0010105371 0.7047888
-0.023311436 -0.0020270646 0.70551133
-0.023380583 -0.003049612 0.70623708
-0.023450522 -0.0040783286 0.70697123
-0.023521844 -0.0051134229 0.70771986
-0.023591859 -0.0061543584 0.70845473
-0.023656746 -0.0071998537 0.70913589
-0.023717301 -0.0082494915 0.70977151
-0.023775117 -0.0093033016 0.71037841
-0.023828086 -0.010360032 0.71093434
-0.023872077 -0.011417061 0.71139604
-0.023909671 -0.012474626 0.71179068
-0.023944195 -0.013533652 0.71215308
-0.023978818 -0.014595777 0.71251655
-0.024013545 -0.015661001 0.71288097
-0.024048368 -0.016729265 0.71324658
-0.024087934 -0.017804116 0.71366185
-0.024129042 -0.018883616 0.71409333
-0.024170296 -0.019966751 0.71452636
-0.024211586 -0.021053493 0.71495974
-0.024253733 -0.022144675 0.71540213
-0.024300849 -0.023244262 0.71589673
-0.024348048 -0.02434805 0.7163921
-0.024395531 -0.02545622 0.71689057
-0.024443097 -0.026568562 0.71738988
-0.02449231 -0.027686924 0.71790636
-0.024545174 -0.028813899 0.71846133
-0.024598373 -0.029945821 0.71901977
-0.024651699 -0.031082571 0.71957946
-0.024705254 -0.032224208 0.72014159
-0.024760323 -0.033372551 0.72071958
-0.024819061 -0.034530848 0.72133619
-0.024878187 -0.035694778 0.72195679
-0.024937488 -0.036864102 0.72257924
-0.02499707 -0.038038999 0.72320467
-0.025057701 -0.039220721 0.72384107
-0.025122359 -0.040414244 0.72451985
-0.025230976 -0.041685969 0.72565985
-0.025296306 -0.042893738 0.72634566
-0.025361979 -0.044107765 0.72703499
-0.025428105 -0.045328319 0.72772908
-0.025497627 -0.046560824 0.72845876
-0.025568778 -0.047802508 0.72920561
-0.025640216 -0.049050838 0.72995549
-0.025712166 -0.05030641 0.73071074
-0.025784409 -0.051568806 0.73146904
-0.025860544 -0.052845448 0.73226815
-0.025937714 -0.054130822 0.73307818
-0.02601558 -0.055424511 0.7338956
-0.026093915 -0.056725889 0.73471779
-0.026173914 -0.058037788 0.7355575
-0.026256083 -0.059361577 0.73641998
-0.026339736 -0.060695916 0.73729801
-0.026424406 -0.062039882 0.73818684
-0.026509989 -0.063393444 0.7390852
-0.026598098 -0.064760536 0.74001002
-0.026686916 -0.066137135 0.74094224
-0.026777949 -0.067526996 0.74189782
-0.026870234 -0.068927974 0.74286652
-0.026964672 -0.0703426 0.74385774
-0.027059903 -0.071767509 0.74485731
-0.027156707 -0.073205054 0.74587345
-0.027256532 -0.074659139 0.74692124
-0.027357871 -0.076126248 0.74798501
-0.027459966 -0.077604204 0.74905664
-0.027563751 -0.07909596 0.75014603
-0.027671518 -0.080608308 0.75127721
-0.021553503 0.015675277 0.69734257
-0.021487532 0.014650643 0.69661862
-0.021487532 0.013673902 0.69661862
-0.021501804 0.012705654 0.6967752
-0.021529729 0.011743516 0.69708163
-0.021557724 0.010778874 0.69738889
-0.021597229 0.0098169446 0.69782233
-0.021640366 0.0088528991 0.69829577
-0.02168359 0.0078849792 0.69877005
-0.021730505 0.006914258 0.69928485
-0.021784605 0.0059412718 0.69987857
-0.021838974 0.0049634278 0.70047522
-0.021893617 0.0039806664 0.7010749
-0.021952735 0.0029935539 0.70172364
-0.02201684 0.002001524 0.70242703
-0.022081409 0.0010037124 0.70313567
-0.022146359 2.9802322e-08 0.70384836
-0.022212228 -0.0010096133 0.70457125
-0.022278853 -0.002025336 0.7053023
-0.022343246 -0.0030467808 0.70600891
-0.022404 -0.0040734112 0.70667559
-0.022459127 -0.0051043332 0.70728064
-0.022513235 -0.0061399639 0.7078743
-0.022560576 -0.0071783364 0.70839387
-0.022601152 -0.0082185864 0.70883918
-0.02263508 -0.0092597902 0.70921141
-0.022667427 -0.010303348 0.70956641
-0.022699866 -0.011349916 0.70992237
-0.022732401 -0.012399495 0.71027941
-0.022765027 -0.013452023 0.71063745
-0.022802847 -0.0145109 0.71105248
-0.022841362 -0.015573651 0.71147513
-0.022879912 -0.016639918 0.71189815
-0.022918688 -0.017709881 0.71232367
-0.022958651 -0.018784314 0.71276212
-0.023002692 -0.01986593 0.71324545
-0.023046903 -0.020951718 0.71373063
-0.02309138 -0.022041738 0.71421874
-0.023135934 -0.02313593 0.71470767
-0.023182124 -0.024235845 0.71521449
-0.023231734 -0.025343657 0.71575892
-0.023281457 -0.026456177 0.7163046
-0.023331394 -0.027573407 0.71685255
-0.023381645 -0.028695643 0.71740401
-0.023433112 -0.029823959 0.71796882
-0.023488114 -0.030961603 0.71857238
-0.023543373 -0.032104582 0.7191788
-0.023598894 -0.033252984 0.71978807
-0.023654778 -0.0344069 0.72040129
-0.023711132 -0.035566717 0.72101969
-0.023771655 -0.036738008 0.72168392
-0.023832487 -0.037915319 0.72235143
-0.02389353 -0.039098471 0.72302127
-0.023954989 -0.040287912 0.7236957
-0.024057811 -0.041554391 0.72482407
-0.024122976 -0.042763412 0.72553909
-0.02418945 -0.043980807 0.72626865
-0.024256397 -0.045205086 0.72700328
-0.024323719 -0.046436191 0.72774208
-0.024391305 -0.047673911 0.72848368
-0.024461659 -0.048923284 0.72925574
-0.02453406 -0.050183296 0.73005021
-0.024606783 -0.051450521 0.73084831
-0.024680046 -0.052725524 0.73165226
-0.024753971 -0.054008663 0.73246348
-0.024830803 -0.055304945 0.73330665
-0.024909019 -0.056611389 0.73416501
-0.024988178 -0.057927132 0.73503363
-0.025067845 -0.059251279 0.73590785
-0.025149517 -0.060587466 0.73680413
-0.025232531 -0.061934412 0.73771513
-0.02531749 -0.063293725 0.7386474
-0.025403377 -0.064663142 0.73958981
-0.025491029 -0.066044927 0.74055183
-0.025579883 -0.067437857 0.74152684
-0.025669836 -0.068841815 0.7425139
-0.025762595 -0.070261598 0.74353182
-0.025857 -0.071694374 0.74456781
-0.025952218 -0.073138058 0.74561274
-0.026048265 -0.074592739 0.74666673
-0.026148383 -0.076068014 0.74776542
-0.026249895 -0.077556491 0.74887931
-0.026352201 -0.079056591 0.75000203
-0.026455434 -0.08056879 0.75113487
-0.026590142 -0.082187712 0.75261313
-0.020318625 0.018383533 0.69440901
-0.020297116 0.017397523 0.69416177
-0.020297116 0.016431004 0.69416171
-0.020321216 0.015482873 0.69443882
-0.020347347 0.014533818 0.69473922
-0.020375676 0.013583779 0.6950649
-0.020415898 0.01263845 0.69552726
-0.020456202 0.011689276 0.69599062
-0.020496665 0.010736376 0.69645578
-0.020543952 0.0097828507 0.69699943
-0.020594686 0.0088262856 0.69758266
-0.02064559 0.0078650117 0.69816792
-0.02069675 0.0068989694 0.69875604
-0.020754555 0.0059298873 0.69942057
-0.020814661 0.0049558878 0.70011163
-0.020875119 0.0039762557 0.70080662
-0.020935845 0.0029908717 0.70150471
-0.020997846 0.0019998252 0.70221752
-0.021059629 0.0010028481 0.70292783
-0.021118972 2.9802322e-08 0.70360994
-0.021174895 -0.0010083318 0.7042529
-0.021225795 -0.0020214915 0.7048381
-0.021276081 -0.0030394197 0.70541614
-0.021318125 -0.0040605962 0.70589948
-0.021355558 -0.0050846636 0.70632982
-0.02138642 -0.0061103702 0.70668465
-0.021416672 -0.0071388483 0.70703244
-0.021447008 -0.0081702471 0.70738119
-0.021477433 -0.0092046261 0.70773101
-0.021508118 -0.010241956 0.70808369
-0.021544015 -0.011284918 0.70849645
-0.021579944 -0.012331367 0.70890945
-0.021616081 -0.013381362 0.70932484
-0.021652339 -0.014434844 0.70974171
-0.021690061 -0.015492886 0.7101754
-0.021731241 -0.016557097 0.71064878
-0.021772578 -0.017625391 0.71112406
-0.021814162 -0.018697858 0.71160209
-0.021855816 -0.019774288 0.71208096
-0.02189918 -0.020856351 0.71257949
-0.021945465 -0.021945477 0.71311164
-0.02199195 -0.023039162 0.71364594
-0.022038721 -0.024137616 0.71418369
-0.0220856 -0.02524069 0.71472263
-0.022133611 -0.026349515 0.71527457
-0.022185016 -0.027467161 0.71586555
-0.022236753 -0.028590083 0.71646029
-0.022288641 -0.029718161 0.71705687
-0.022340767 -0.030851513 0.71765608
-0.022393238 -0.031990349 0.71825922
-0.022449693 -0.033140004 0.71890831
-0.022506529 -0.034295648 0.7195617
-0.022563655 -0.035457134 0.72021848
-0.022620976 -0.036624402 0.72087741
-0.022678684 -0.037797809 0.72154087
-0.022739444 -0.038981885 0.72223938
-0.022801522 -0.040174097 0.72295302
-0.022863936 -0.041372806 0.72367054
-0.022965381 -0.042649984 0.72483683
-0.023028595 -0.043863952 0.72556353
-0.023093581 -0.045087427 0.72631061
-0.023161184 -0.046322346 0.72708774
-0.023229182 -0.047564477 0.72786951
-0.023297578 -0.048813969 0.72865582
-0.023366276 -0.050070554 0.72944552
-0.023437262 -0.051338702 0.73026156
-0.023510469 -0.052618623 0.73110324
-0.023584241 -0.053906828 0.73195136
-0.023658583 -0.055203348 0.73280603
-0.023733824 -0.056509078 0.73367101
-0.023811273 -0.057827383 0.73456132
-0.023890423 -0.059157193 0.73547131
-0.023970541 -0.060497046 0.73639232
-0.024051305 -0.061846197 0.73732084
-0.024134278 -0.063208848 0.73827475
-0.024217717 -0.06458056 0.73923397
-0.024304092 -0.065968245 0.74022698
-0.024391316 -0.067366451 0.74122965
-0.02448019 -0.068777651 0.7422514
-0.024569716 -0.070199132 0.74328059
-0.024661869 -0.071636856 0.74434
-0.02475623 -0.073089808 0.74542487
-0.024851553 -0.074554652 0.74652076
-0.024947492 -0.076030463 0.74762368
-0.025046805 -0.077525824 0.74876535
-0.025148353 -0.079037666 0.74993277
-0.025250606 -0.080561459 0.75110835
-0.025353817 -0.082098097 0.7522949
-0.019131321 0.021044493 0.69175643
-0.019131321 0.020087898 0.69175637
-0.019139444 0.019139469 0.69185448
-0.019163782 0.018205613 0.69214827
-0.019188181 0.017269373 0.69244277
-0.019219654 0.016336709 0.69282264
-0.019257156 0.015405744 0.69327533
-0.01929488 0.014471203 0.69373071
-0.019332903 0.013533056 0.69418967
-0.019380001 0.012597024 0.69475824
-0.019427331 0.011656433 0.69532955
-0.019474892 0.010711193 0.69590366
-0.019523373 0.0097617209 0.69648886
-0.019579142 0.0088106394 0.69716203
-0.019635309 0.0078541338 0.69784003
-0.019691719 0.0068921149 0.69852102
-0.019748533 0.0059245527 0.69920677
-0.019806694 0.0049517155 0.69990885
-0.019863861 0.0039727986 0.70059896
-0.019918421 0.002987802 0.70125753
-0.019969298 0.0019969642 0.70187163
-0.02001667 0.0010008812 0.70244348
-0.020062497 2.9802322e-08 0.70299673
-0.02010054 -0.0010050237 0.70345587
-0.020134348 -0.0020133853 0.70386404
-0.020162908 -0.0030243993 0.70420873
-0.020191142 -0.0040382147 0.70454955
-0.020219455 -0.0050548017 0.70489132
-0.020247847 -0.0060743392 0.70523405
-0.020277059 -0.0070969462 0.70558667
-0.020310558 -0.0081242025 0.70599103
-0.020344168 -0.0091548562 0.70639676
-0.020377891 -0.010188907 0.7068038
-0.02041164 -0.011226416 0.7072112
-0.020447258 -0.012268335 0.70764112
-0.020485682 -0.013315678 0.70810497
-0.020524254 -0.014366984 0.7085706
-0.020563053 -0.015422255 0.70903891
-0.020601915 -0.016481519 0.70950806
-0.020642458 -0.017546058 0.70999742
-0.020685725 -0.018617123 0.71051967
-0.020729089 -0.01969263 0.71104312
-0.020772632 -0.020772636 0.71156877
-0.020816447 -0.021857232 0.71209764
-0.020861145 -0.022947222 0.71263719
-0.020909091 -0.024045438 0.71321595
-0.020957259 -0.02514869 0.71379739
-0.021005649 -0.026257038 0.71438146
-0.02105435 -0.027370602 0.7149694
-0.02110319 -0.028489262 0.71555895
-0.021155655 -0.029617876 0.71619225
-0.021208562 -0.030752391 0.71683091
-0.021261824 -0.031892747 0.7174738
-0.021315353 -0.033038735 0.71811998
-0.021369154 -0.034190625 0.71876943
-0.021425245 -0.035351604 0.71944648
-0.021483107 -0.036521256 0.72014499
-0.021541281 -0.037697226 0.72084719
-0.021599773 -0.038879544 0.72155321
-0.021658583 -0.040068358 0.7222631
-0.021719128 -0.041266322 0.72299397
-0.021782098 -0.042475075 0.72375405
-0.021881547 -0.043763071 0.72495455
-0.02194527 -0.044987828 0.7257238
-0.022009367 -0.046219647 0.72649747
-0.022074619 -0.047460407 0.72728509
-0.022142805 -0.048714131 0.72810823
-0.022211613 -0.049976081 0.72893876
-0.022280848 -0.051245898 0.72977453
-0.022350516 -0.052523673 0.7306155
-0.022422027 -0.053812861 0.73147875
-0.022495616 -0.055114239 0.73236704
-0.0225702 -0.056425512 0.73326731
-0.022645382 -0.057745755 0.73417485
-0.022721685 -0.059076399 0.73509592
-0.022799335 -0.060418218 0.73603326
-0.022879401 -0.061774343 0.73699969
-0.022960452 -0.063141227 0.7379781
-0.023042504 -0.064519018 0.73896855
-0.02312568 -0.065908164 0.73997259
-0.023210535 -0.067310512 0.74099684
-0.023298075 -0.068729311 0.74205363
-0.023386607 -0.070159793 0.74312222
-0.023475813 -0.071601212 0.74419904
-0.023566592 -0.07305643 0.74529481
-0.023660982 -0.074532062 0.74643421
-0.02375602 -0.076019257 0.74758136
-0.023851939 -0.077518791 0.74873924
-0.023950582 -0.079036891 0.74993002
-0.024052244 -0.080574989 0.75115716
-0.024154654 -0.082125843 0.75239336
-0.018019119 0.024657786 0.6897788
-0.01798925 0.023670077 0.6893993
-0.01798925 0.022723258 0.6893993
-0.01800615 0.021796912 0.689614
-0.018028824 0.020875484 0.68990213
-0.018051622 0.019951791 0.69019186
-0.018085483 0.019037336 0.69062209
-0.018120507 0.018120527 0.69106704
-0.018155597 0.017200053 0.691513
-0.018193956 0.016278803 0.69200033
-0.018237934 0.015358299 0.69255918
-0.018282056 0.014433205 0.69311976
-0.018326391 0.013503671 0.69368309
-0.018373711 0.012571514 0.69428444
-0.018425776 0.01163736 0.69494593
-0.018478062 0.010697842 0.69561028
-0.018530721 0.0097530186 0.69627947
-0.018583896 0.0088029504 0.69695503
-0.018637965 0.0078475475 0.69764209
-0.018690877 0.0068861246 0.69831443
-0.018740987 0.0059182644 0.69895113
-0.018786984 0.0049439669 0.69953561
-0.018831044 0.0039644539 0.70009542
-0.018872615 0.0029798746 0.70062363
-0.018906696 0.0019901991 0.70105666
-0.018937351 0.00099670887 0.70144618
-0.018963793 5.9604645e-08 0.70178217
-0.018990083 -0.00099942088 0.70211625
-0.019016445 -0.0020017028 0.70245123
-0.019042881 -0.0030067265 0.70278716
-0.01907069 -0.0040148199 0.7031405
-0.019101882 -0.0050267875 0.70353681
-0.019133175 -0.0060420632 0.70393443
-0.019164493 -0.0070605576 0.70433241
-0.019195992 -0.008082509 0.70473266
-0.019229462 -0.0091086626 0.70515788
-0.019265234 -0.010139585 0.70561248
-0.019301141 -0.011174321 0.70606863
-0.019337259 -0.012212962 0.70652765
-0.019373434 -0.013255477 0.70698726
-0.019411331 -0.014303058 0.70746875
-0.019451523 -0.015356451 0.7079795
-0.019491963 -0.016414255 0.70849335
-0.019532492 -0.01747641 0.70900834
-0.019573191 -0.018542975 0.70952541
-0.019614704 -0.019614667 0.71005291
-0.019659324 -0.020694017 0.71061987
-0.019704144 -0.021778226 0.71118939
-0.019749252 -0.022867531 0.71176255
-0.019794485 -0.023961723 0.71233726
-0.019839926 -0.025060922 0.71291465
-0.019888487 -0.026169032 0.71353167
-0.019937789 -0.027283251 0.71415812
-0.019987252 -0.028402925 0.71478671
-0.020037044 -0.02952823 0.71541935
-0.020087086 -0.030659229 0.71605521
-0.020138914 -0.031798273 0.71671379
-0.02019264 -0.032945871 0.71739644
-0.02024674 -0.034099728 0.71808386
-0.02030113 -0.035259843 0.71877486
-0.020355813 -0.036426157 0.71946973
-0.020411581 -0.037600249 0.72017837
-0.020470122 -0.038785487 0.72092223
-0.020528913 -0.039977342 0.7216692
-0.02058813 -0.04117623 0.72242171
-0.02064769 -0.042382091 0.72317845
-0.020741753 -0.04366684 0.72437358
-0.02080512 -0.044895262 0.72517884
-0.020869059 -0.046131581 0.72599125
-0.020933392 -0.04737553 0.72680873
-0.020998124 -0.048627257 0.72763121
-0.021063723 -0.049887747 0.72846478
-0.021131989 -0.051161617 0.72933215
-0.021201264 -0.052445203 0.73021239
-0.021271091 -0.053737491 0.73109961
-0.02134138 -0.055038273 0.73199272
-0.021413291 -0.056350768 0.73290652
-0.021487148 -0.057676017 0.73384494
-0.021562394 -0.05901283 0.73480105
-0.021638172 -0.060359091 0.73576385
-0.021715175 -0.061716825 0.73674238
-0.02179303 -0.06308502 0.73773158
-0.021874262 -0.064471513 0.73876381
-0.021956103 -0.065868318 0.73980367
-0.022038966 -0.067276835 0.74085659
-0.022122355 -0.068695694 0.74191612
-0.022209181 -0.070134223 0.74301934
-0.022297315 -0.071586102 0.74413919
-0.022386258 -0.073049873 0.74526936
-0.022476021 -0.074525744 0.74640995
-0.022570042 -0.076025397 0.74760461
-0.022664959 -0.077537984 0.74881065
-0.02276079 -0.079063773 0.75002825
-0.022859409 -0.080609471 0.75128138
-0.022960888 -0.082175821 0.75257087
-0.016870318 0.027179986 0.68709064
-0.016870318 0.026242763 0.68709064
-0.016873606 0.025310427 0.68713474
-0.016894624 0.024403363 0.68741661
-0.016915757 0.023494124 0.68770003
-0.016940257 0.022587061 0.68802863
-0.016972626 0.021687269 0.68846279
-0.017005187 0.02078414 0.68889952
-0.017037805 0.019877464 0.68933702
-0.017076246 0.018973649 0.6898526
-0.017117074 0.018068016 0.69040018
-0.017158097 0.017158091 0.69095039
-0.017199315 0.016243786 0.69150329
-0.017245423 0.015329272 0.69212168
-0.017293768 0.014411509 0.69277012
-0.017342454 0.013488591 0.69342303
-0.017391413 0.012560487 0.6940797
-0.017441055 0.011627376 0.69474554
-0.017490847 0.010688901 0.69541335
-0.017540034 0.0097444952 0.69607306
-0.017585859 0.0087929368 0.6966877
-0.017627368 0.0078344047 0.69724441
-0.017668242 0.0068709552 0.69779265
-0.017705753 0.0059019327 0.69829577
-0.017736299 0.0049267709 0.69870543
-0.017763935 0.003947556 0.69907606
-0.017788284 0.002964735 0.69940269
-0.017812699 0.001979202 0.6997301
-0.017837252 0.00099098682 0.70005941
-0.017861802 2.9802322e-08 0.70038873
-0.017888198 -0.00099375844 0.70074272
-0.017917164 -0.0019907653 0.70113122
-0.017946154 -0.0029910207 0.70152009
-0.017975308 -0.0039944947 0.70191115
-0.018004559 -0.0050012469 0.70230341
-0.018035928 -0.0060119629 0.70272416
-0.018069144 -0.007026881 0.70316964
-0.018102484 -0.0080455244 0.70361686
-0.018136021 -0.0090679824 0.70406663
-0.018169608 -0.010094196 0.70451713
-0.018204866 -0.011125177 0.70498997
-0.018242255 -0.012161493 0.70549142
-0.018279724 -0.013201982 0.70599401
-0.018317347 -0.014246792 0.70649862
-0.018355202 -0.015295982 0.70700634
-0.018393662 -0.016349912 0.70752215
-0.018435001 -0.017410785 0.7080766
-0.01847668 -0.018476635 0.70863557
-0.018518468 -0.019547224 0.70919609
-0.018560447 -0.0206227 0.70975918
-0.018602693 -0.021703154 0.71032584
-0.018647451 -0.022791296 0.71092612
-0.018693196 -0.023885727 0.71153957
-0.018739169 -0.024985522 0.71215624
-0.01878529 -0.026090682 0.71277487
-0.018831719 -0.027201355 0.7133975
-0.018879404 -0.028319091 0.71403712
-0.018929321 -0.029445589 0.7147066
-0.018979503 -0.030578077 0.71537966
-0.019029871 -0.031716436 0.71605521
-0.019080589 -0.032860965 0.71673536
-0.019131739 -0.03401193 0.71742147
-0.019186024 -0.03517437 0.7181496
-0.019240621 -0.036343366 0.71888185
-0.019295527 -0.037519068 0.71961826
-0.019350665 -0.038701296 0.72035778
-0.019406203 -0.039890498 0.72110271
-0.019464584 -0.041091859 0.72188568
-0.01952374 -0.042301416 0.72267908
-0.019583343 -0.043518513 0.72347856
-0.019675322 -0.044815987 0.72471219
-0.019735683 -0.046049923 0.72552174
-0.019798502 -0.047296375 0.72636431
-0.019862687 -0.048553228 0.72722518
-0.019927379 -0.049818397 0.72809279
-0.019992491 -0.051091909 0.72896618
-0.02005839 -0.052374661 0.72984999
-0.020126343 -0.053670228 0.73076141
-0.020196024 -0.054978043 0.73169601
-0.020266192 -0.056295007 0.73263711
-0.020336941 -0.0576213 0.73358601
-0.020408925 -0.058959097 0.73455143
-0.020483375 -0.060312152 0.73555005
-0.020559123 -0.061677307 0.73656595
-0.020635527 -0.063052982 0.73759067
-0.02071269 -0.064439476 0.73862571
-0.020791683 -0.065840304 0.73968512
-0.020873215 -0.067258149 0.74077868
-0.020955486 -0.068687409 0.74188209
-0.021038506 -0.070128322 0.74299562
-0.021123575 -0.071585447 0.74413657
-0.02121143 -0.073061556 0.7453149
-0.021300022 -0.074550062 0.74650311
-0.02138976 -0.076052457 0.74770671
-0.021482924 -0.077577233 0.74895626
-0.021577524 -0.079117596 0.75022507
-0.021672959 -0.080671549 0.75150514
-0.021771874 -0.082249284 0.75283182
-0.015809003 0.030688077 0.6853286
-0.015773706 0.029691696 0.68482739
-0.015773706 0.028763831 0.68482739
-0.01578483 0.027855605 0.68498534
-0.015804304 0.026960284 0.68526191
-0.015823826 0.026062757 0.68553913
-0.015850481 0.02517429 0.68591768
-0.015880547 0.024287909 0.68634462
-0.015910666 0.023398042 0.68677241
-0.015941381 0.022505492 0.68720853
-0.015979053 0.021618754 0.68774354
-0.016016964 0.020727843 0.68828195
-0.016054995 0.019832641 0.68882197
-0.016093209 0.018933177 0.68936473
-0.016137786 0.018036366 0.68999773
-0.016182672 0.017134607 0.6906352
-0.016227746 0.016227722 0.6912753
-0.016273135 0.01531589 0.69191986
-0.016319467 0.014399588 0.69257784
-0.016365118 0.013477176 0.6932261
-0.016410077 0.012548923 0.69386458
-0.016451782 0.011613071 0.69445688
-0.0164898 0.010669887 0.69499677
-0.016527606 0.0097221434 0.69553369
-0.016560428 0.0087673068 0.6959998
-0.016588524 0.0078063905 0.69639874
-0.016613277 0.0068407655 0.69675034
-0.016635826 0.0058715045 0.69707054
-0.016658438 0.0048995316 0.69739163
-0.016681109 0.0039249659 0.69771361
-0.016703844 0.0029477477 0.69803643
-0.016728809 0.0019680858 0.69839102
-0.016755633 0.00098565221 0.69877195
-0.016782543 5.9604645e-08 0.69915408
-0.01680954 -0.00098881125 0.69953752
-0.016836556 -0.001980722 0.69992113
-0.016865935 -0.0029763281 0.70033836
-0.016896691 -0.0039756596 0.70077515
-0.016927559 -0.0049786866 0.70121348
-0.016958607 -0.005985409 0.70165443
-0.0169897 -0.0069957078 0.70209599
-0.017022477 -0.0080105364 0.70256144
-0.017057022 -0.0090301633 0.70305204
-0.017091706 -0.010053962 0.70354468
-0.017126601 -0.011081904 0.70404017
-0.01716157 -0.012114048 0.70453674
-0.017197099 -0.013150722 0.70504135
-0.01723543 -0.014193892 0.70558566
-0.017273931 -0.015241683 0.70613241
-0.017312605 -0.016294211 0.70668161
-0.017351523 -0.017351508 0.70723438
-0.017390545 -0.018413514 0.70778847
-0.017431816 -0.019482583 0.70837462
-0.01747407 -0.020557672 0.7089746
-0.017516606 -0.021638095 0.70957869
-0.017559346 -0.022723824 0.71018571
-0.017602222 -0.023814768 0.71079463
-0.01764597 -0.02491194 0.71141577
-0.017692141 -0.026017815 0.71207154
-0.017738555 -0.027129531 0.71273065
-0.017785214 -0.028247118 0.71339333
-0.017832043 -0.029370368 0.71405828
-0.017879194 -0.030499786 0.71472788
-0.017929016 -0.031639457 0.71543545
-0.017979493 -0.032786131 0.71615231
-0.018030258 -0.033939332 0.71687323
-0.018081307 -0.03509897 0.7175982
-0.018132649 -0.036265254 0.71832728
-0.018185915 -0.037441581 0.71908379
-0.018240592 -0.038627118 0.7198602
-0.018295676 -0.039819986 0.72064245
-0.018351013 -0.041019857 0.72142833
-0.018406767 -0.042227298 0.72222018
-0.018463982 -0.043444663 0.72303265
-0.018553471 -0.044746578 0.72430354
-0.018613232 -0.045985639 0.72515219
-0.018673381 -0.047232628 0.72600633
-0.018733837 -0.048487544 0.72686493
-0.018796016 -0.049754143 0.72774792
-0.018860362 -0.051033914 0.72866178
-0.018925069 -0.052322209 0.72958064
-0.018990304 -0.053619653 0.73050708
-0.019056333 -0.054927081 0.73144484
-0.019124199 -0.056247592 0.73240852
-0.019194108 -0.057582289 0.7334013
-0.019264616 -0.058927029 0.73440266
-0.019335648 -0.060281724 0.73541135
-0.019407468 -0.061647266 0.7364313
-0.019482503 -0.063031614 0.73749697
-0.019558387 -0.064427614 0.73857462
-0.019634958 -0.06583482 0.73966199
-0.01971213 -0.067253113 0.74075788
-0.019792765 -0.068692505 0.74190307
-0.019874437 -0.070145041 0.74306285
-0.019957064 -0.07161063 0.74423623
-0.020041231 -0.073091537 0.74543154
-0.020128397 -0.074593455 0.74666941
-0.020216325 -0.076108456 0.74791807
-0.020305509 -0.077638656 0.74918461
-0.020398809 -0.07919538 0.75050962
-0.020492971 -0.08076641 0.75184685
-0.020588106 -0.0823524 0.75319791
-0.014703782 0.033083498 0.68268389
-0.014698868 0.032153785 0.68260968
-0.014698868 0.031235129 0.68260968
-0.014716486 0.030352771 0.68287551
-0.01473447 0.029468954 0.68314695
-0.014753152 0.028584242 0.68342876
-0.014780826 0.027714074 0.68384629
-0.014808549 0.026840478 0.68426466
-0.014836377 0.025963664 0.68468451
-0.014867126 0.02508831 0.68514848
-0.01490194 0.024215668 0.68567377
-0.014936916 0.023338914 0.68620157
-0.014972058 0.022458076 0.68673182
-0.01500911 0.02157563 0.68729085
-0.015050362 0.020694256 0.68791336
-0.015091785 0.019807994 0.68853831
-0.015133494 0.018916905 0.68916774
-0.015175434 0.018020809 0.6898005
-0.015218301 0.01712063 0.69044733
-0.015260247 0.016214043 0.69108021
-0.015301079 0.015301079 0.69169641
-0.015338546 0.014379919 0.6922617
-0.015373714 0.013451993 0.69279236
-0.015408512 0.012519449 0.69331741
-0.015437095 0.011577874 0.69374865
-0.015462857 0.010630727 0.69413739
-0.015484869 0.009678036 0.69446957
-0.015505684 0.0087219775 0.69478357
-0.015526554 0.0077632964 0.69509852
-0.015547479 0.0068020523 0.6954143
-0.015568462 0.0058381855 0.69573087
-0.015591991 0.0048725009 0.69608587
-0.015616749 0.0039042234 0.69645947
-0.015641585 0.0029328167 0.69683421
-0.01566644 0.0019583404 0.69720924
-0.015691435 0.00098070502 0.6975863
-0.015718793 -0 0.69799924
-0.015747176 -0.00098416209 0.69842744
-0.015775664 -0.0019719303 0.69885731
-0.015804315 -0.0029633045 0.69928968
-0.015833009 -0.0039581954 0.69972253
-0.015863316 -0.0049572587 0.70017982
-0.015895253 -0.0059607029 0.70066172
-0.015927255 -0.0069681704 0.70114464
-0.015959388 -0.0079796612 0.70162946
-0.015991714 -0.0089953244 0.7021172
-0.016024427 -0.010015249 0.70261085
-0.016059721 -0.011041045 0.70314342
-0.016095238 -0.012071401 0.70367932
-0.016130978 -0.013106376 0.70421851
-0.016166808 -0.014145941 0.70475924
-0.016202802 -0.015190125 0.70530224
-0.016240668 -0.016240627 0.70587367
-0.016279703 -0.017297149 0.70646268
-0.016318861 -0.018358678 0.70705348
-0.016358275 -0.019425422 0.70764822
-0.016397879 -0.020497352 0.70824575
-0.01643781 -0.021574587 0.7088483
-0.016480379 -0.022660524 0.70949066
-0.016523169 -0.023752034 0.71013623
-0.016566182 -0.024849266 0.71078533
-0.016609417 -0.02595219 0.71143764
-0.016652882 -0.027060926 0.71209347
-0.016698314 -0.028178394 0.71277905
-0.016744835 -0.029303461 0.71348095
-0.016791549 -0.030434638 0.71418583
-0.016838592 -0.031572372 0.71489561
-0.016885899 -0.032716393 0.71560943
-0.016934404 -0.03386879 0.71634138
-0.016984776 -0.03503108 0.71710134
-0.01703552 -0.036200464 0.71786702
-0.017086493 -0.037376702 0.71863616
-0.017137848 -0.038560122 0.71941102
-0.017189806 -0.039751381 0.72019506
-0.017244384 -0.040955395 0.72101855
-0.017299384 -0.042167217 0.72184849
-0.017354662 -0.043386638 0.72268254
-0.017437976 -0.044684798 0.72393966
-0.017494986 -0.045924336 0.72479987
-0.017554214 -0.047176898 0.72569352
-0.017613847 -0.048438072 0.72659332
-0.017673807 -0.049707532 0.72749799
-0.017734258 -0.050985962 0.72841018
-0.017795833 -0.05227527 0.7293393
-0.01786015 -0.053580433 0.73030978
-0.017924931 -0.054895103 0.73128724
-0.017990185 -0.05621931 0.73227179
-0.01805616 -0.057554007 0.73326731
-0.018124016 -0.058903039 0.7342912
-0.018193789 -0.060266882 0.73534393
-0.018264186 -0.061641604 0.73640615
-0.018335128 -0.063026994 0.73747665
-0.018407725 -0.064427048 0.73857206
-0.018482776 -0.065844864 0.73970449
-0.018558614 -0.067274988 0.74084878
-0.018635424 -0.068718076 0.74200767
-0.018714447 -0.070179135 0.74320006
-0.018795202 -0.071656644 0.74441856
-0.018876744 -0.073147357 0.74564892
-0.018960975 -0.074658811 0.74691987
-0.019047411 -0.076189637 0.74822414
-0.019134637 -0.077734441 0.74954033
-0.019223774 -0.079298049 0.75088531
-0.019316729 -0.080888748 0.75228775
-0.019410491 -0.082494587 0.75370264
-0.013683165 0.036488444 0.68104815
-0.013645054 0.035477191 0.6804347
-0.013645054 0.034567535 0.6804347
-0.013651556 0.033673823 0.68053937
-0.013668064 0.032803357 0.68080509
-0.013684612 0.031930774 0.6810714
-0.013705152 0.031065047 0.68140197
-0.013730627 0.030207396 0.68181199
-0.013756146 0.029346496 0.68222266
-0.013781808 0.028482437 0.68263572
-0.013812193 0.027624369 0.68312478
-0.013844294 0.026765645 0.68364149
-0.013876496 0.025902808 0.68415976
-0.013908846 0.025035948 0.68468046
-0.01394456 0.024170578 0.68525523
-0.013982488 0.023304164 0.68586564
-0.014020677 0.022433132 0.68648028
-0.014059074 0.021557271 0.68709826
-0.014097894 0.020676941 0.68772304
-0.014136981 0.019791782 0.68835223
-0.014175538 0.018900782 0.68897271
-0.014212582 0.018002629 0.68956894
-0.014246087 0.017095327 0.69010824
-0.014278339 0.016182154 0.69062734
-0.014309536 0.015263557 0.69112939
-0.014334844 0.014334887 0.69153678
-0.014358538 0.0134013 0.69191808
-0.014378068 0.012461036 0.69223237
-0.01439721 0.011517763 0.69254053
-0.014416402 0.010572046 0.6928494
-0.014435644 0.0096237659 0.6931591
-0.01445494 0.0086729825 0.69346964
-0.014477023 0.0077210963 0.69382507
-0.014499788 0.0067665577 0.69419146
-0.014522627 0.0058090687 0.69455904
-0.014545481 0.00484851 0.69492686
-0.014568462 0.0038849413 0.69529676
-0.014593843 0.0029188097 0.69570529
-0.01461994 0.0019493699 0.69612533
-0.014646131 0.00097644329 0.69654685
-0.014672472 2.9802322e-08 0.69697082
-0.014698852 -0.00097987056 0.69739532
-0.01472677 -0.0019635558 0.69784462
-0.014756129 -0.0029512048 0.69831717
-0.014785548 -0.0039427876 0.69879073
-0.014815141 -0.0049383938 0.69926703
-0.014844797 -0.0059379339 0.69974434
-0.014874805 -0.0069415569 0.70022726
-0.014907304 -0.0079505742 0.70075035
-0.014939946 -0.0089639425 0.70127571
-0.014972731 -0.009981811 0.70180333
-0.01500572 -0.01100415 0.70233434
-0.015038794 -0.012030989 0.70286661
-0.015073346 -0.01306355 0.70342273
-0.015109212 -0.014101893 0.704
-0.015145251 -0.015145242 0.70458007
-0.0151814 -0.016193479 0.70516187
-0.015217785 -0.017246813 0.70574743
-0.015254343 -0.018305182 0.70633578
-0.015293321 -0.019371539 0.70696318
-0.015332561 -0.02044338 0.70759469
-0.015372067 -0.021520853 0.70823061
-0.015411776 -0.022603899 0.7088697
-0.015451692 -0.023692578 0.70951211
-0.015492965 -0.024788707 0.71017641
-0.015535682 -0.025892794 0.71086389
-0.015578634 -0.02700296 0.71155524
-0.015621826 -0.028119236 0.71225035
-0.01566519 -0.029241681 0.71294832
-0.015709193 -0.03037107 0.71365654
-0.015755426 -0.03151086 0.71440065
-0.015802 -0.032657444 0.71515024
-0.015848782 -0.033810705 0.71590322
-0.015895911 -0.034970969 0.71666169
-0.015943252 -0.036138028 0.71742368
-0.015992988 -0.037316948 0.71822417
-0.016043378 -0.038504064 0.71903515
-0.016094156 -0.039698899 0.71985245
-0.016145257 -0.040901303 0.72067493
-0.016196614 -0.042111188 0.72150147
-0.016250126 -0.04333362 0.72236276
-0.016304774 -0.044566363 0.72324228
-0.016386436 -0.045881987 0.72455657
-0.016441863 -0.047133327 0.72544873
-0.016497664 -0.04839313 0.72634679
-0.01655611 -0.049668282 0.72728741
-0.016615486 -0.050954133 0.72824311
-0.01667529 -0.052249223 0.72920573
-0.016735526 -0.053553641 0.73017514
-0.016796649 -0.054869056 0.73115885
-0.016860571 -0.056201845 0.73218763
-0.016925056 -0.057545155 0.73322546
-0.016990034 -0.058898777 0.73427141
-0.017055592 -0.060263097 0.73532653
-0.017123844 -0.061645836 0.7364251
-0.0171932 -0.063041717 0.73754132
-0.017263513 -0.064450443 0.73867297
-0.017334485 -0.06587103 0.73981524
-0.017408304 -0.067312092 0.74100333
-0.017482836 -0.068765819 0.74220288
-0.017558502 -0.070234001 0.74342072
-0.017637394 -0.071725368 0.74469054
-0.017717168 -0.073230952 0.74597442
-0.017797664 -0.074750185 0.74726999
-0.017881537 -0.076294512 0.74861991
-0.017967237 -0.077858001 0.74999917
-0.018053848 -0.079436928 0.75139326
-0.018143667 -0.081041723 0.75283879
-0.018236067 -0.082670152 0.75432599
-0.012623343 0.038771719 0.67850268
-0.012611752 0.0378353 0.67830276
-0.012611752 0.036934435 0.67830276
-0.012623889 0.036068261 0.6785121
-0.012639013 0.035208702 0.67877287
-0.012654173 0.034347087 0.67903435
-0.01267611 0.033501148 0.6794126
-0.012699412 0.032655656 0.6798144
-0.012722847 0.031807095 0.68021858
-0.012746924 0.030956835 0.68063378
-0.012776171 0.030115277 0.6811381
-0.012805553 0.029269844 0.6816448
-0.01283507 0.028420538 0.6821537
-0.012864723 0.027567297 0.68266511
-0.012898928 0.026719213 0.68325502
-0.012933748 0.025867522 0.68385541
-0.012968708 0.025011122 0.68445826
-0.013003905 0.024150103 0.68506521
-0.013039682 0.023285151 0.68568218
-0.013075168 0.022414595 0.68629408
-0.013110505 0.021538705 0.68690348
-0.013143912 0.020654708 0.68747956
-0.013173723 0.019760609 0.68799359
-0.013203221 0.018861771 0.68850231
-0.013231101 0.017956525 0.68898308
-0.013253381 0.017040044 0.68936729
-0.013274528 0.016119093 0.6897319
-0.013292261 0.015191197 0.69003773
-0.013309788 0.01426053 0.69033998
-0.013327362 0.01332739 0.69064307
-0.013344983 0.012391776 0.69094694
-0.013362649 0.011453718 0.69125158
-0.013383278 0.010515481 0.69160724
-0.013404072 0.0095743835 0.69196582
-0.013424982 0.0086303651 0.69232643
-0.013445958 0.0076834261 0.69268811
-0.013467001 0.0067335367 0.69305098
-0.013490446 0.0057815909 0.69345534
-0.013514337 0.0048265457 0.69386733
-0.013538314 0.003868103 0.6942808
-0.01356243 0.0029062629 0.69469661
-0.013586577 0.0019409657 0.695113
-0.01361224 0.00097233057 0.69555557
-0.013639062 2.9802322e-08 0.69601804
-0.013666042 -0.00097611547 0.69648337
-0.013693076 -0.001956135 0.69694954
-0.013720217 -0.0029400289 0.69741762
-0.01374763 -0.0039278865 0.69789034
-0.013777371 -0.0049204528 0.69840312
-0.013807243 -0.0059173703 0.69891834
-0.013837298 -0.0069186091 0.69943655
-0.013867431 -0.0079242289 0.69995624
-0.013897695 -0.0089342296 0.70047808
-0.013929144 -0.0099493861 0.70102042
-0.01396196 -0.010970086 0.70158625
-0.013994929 -0.011995614 0.70215476
-0.014028056 -0.013026029 0.70272607
-0.014061282 -0.014061272 0.70329905
-0.014094724 -0.015101492 0.70387572
-0.014130093 -0.016148657 0.70448565
-0.01416604 -0.017201602 0.70510554
-0.014202171 -0.018259883 0.70572853
-0.014238428 -0.019323528 0.70635378
-0.014274931 -0.020392746 0.70698327
-0.01431232 -0.021468461 0.70762807
-0.014351377 -0.022552162 0.7083016
-0.014390589 -0.023641676 0.70897776
-0.014430075 -0.024737239 0.70965862
-0.014469778 -0.025838852 0.71034324
-0.0145097 -0.026946574 0.71103179
-0.014551718 -0.028063953 0.71175629
-0.014594221 -0.029188395 0.71248925
-0.014637036 -0.030319542 0.71322751
-0.014680042 -0.031457216 0.71396911
-0.014723362 -0.032601714 0.7147162
-0.014768122 -0.03375569 0.71548808
-0.014814219 -0.034919202 0.71628296
-0.014860543 -0.036089867 0.71708179
-0.01490722 -0.037268043 0.71788669
-0.014954193 -0.038453609 0.71869671
-0.015002233 -0.039648771 0.71952516
-0.015052134 -0.040855765 0.72038567
-0.015102369 -0.042070866 0.7212519
-0.015152941 -0.043294102 0.72212398
-0.015203786 -0.044525325 0.72300082
-0.015280928 -0.045842767 0.72433108
-0.01533519 -0.047100902 0.72526675
-0.015389769 -0.048367828 0.72620797
-0.015444738 -0.049643755 0.72715586
-0.01550017 -0.05092907 0.72811174
-0.015557659 -0.052229285 0.72910315
-0.015616481 -0.053542197 0.73011744
-0.01567575 -0.054865152 0.7311396
-0.015735542 -0.056198359 0.73217064
-0.015796432 -0.057544142 0.7332207
-0.015859591 -0.058907032 0.73430973
-0.015923763 -0.060282797 0.73541635
-0.015988456 -0.061669767 0.73653197
-0.016054414 -0.063070923 0.73766935
-0.016122328 -0.064489305 0.73884052
-0.016190968 -0.065920383 0.74002421
-0.016261782 -0.067370206 0.74124533
-0.016334284 -0.068837285 0.74249554
-0.016407588 -0.070318222 0.74375963
-0.01648202 -0.071814507 0.7450431
-0.016560026 -0.073337227 0.74638832
-0.016638853 -0.074874818 0.74774766
-0.016718352 -0.076426715 0.74911857
-0.016802324 -0.078010798 0.7505666
-0.016887305 -0.07961157 0.75203204
-0.016973399 -0.081229806 0.75351667
-0.017064363 -0.082884043 0.75508529
-0.011636873 0.042071819 0.67692775
-0.011598279 0.041040063 0.67621106
-0.011598279 0.04014793 0.67621112
-0.011601257 0.039265811 0.67626643
-0.011615013 0.038418919 0.67652184
-0.011628801 0.03757 0.67677784
-0.011644205 0.036724061 0.67706394
-0.011665422 0.035893649 0.67745793
-0.011686716 0.035060138 0.67785347
-0.011708046 0.034223527 0.67824954
-0.011731782 0.033390522 0.67869031
-0.01175846 0.032561928 0.67918581
-0.011785303 0.031729728 0.67968428
-0.011812226 0.030893534 0.68018425
-0.011840221 0.030056 0.68070418
-0.011871816 0.029222906 0.68129092
-0.011903534 0.028385371 0.68187994
-0.011935467 0.027543396 0.682473
-0.011967571 0.026696891 0.68306917
-0.012000338 0.025846928 0.68367767
-0.012032392 0.02499038 0.68427289
-0.012064618 0.024129242 0.68487144
-0.012094093 0.023257911 0.68541878
-0.012120957 0.022377163 0.68591762
-0.012147803 0.021492302 0.68641627
-0.012172172 0.020599067 0.68686879
-0.012192022 0.019694835 0.68723738
-0.012210835 0.018785924 0.68758678
-0.012226855 0.017870009 0.68788433
-0.012242827 0.016951621 0.68818092
-0.01225884 0.016030818 0.68847829
-0.012274894 0.015107602 0.68877643
-0.012291176 0.01418215 0.68907875
-0.012310111 0.013257086 0.68943042
-0.012329104 0.012329102 0.68978316
-0.012348155 0.011398315 0.69013691
-0.012367266 0.010464609 0.69049186
-0.012386389 0.0095280409 0.69084698
-0.012407986 0.008590132 0.69124806
-0.012429751 0.0076490641 0.69165224
-0.012451594 0.0067047179 0.69205791
-0.012473561 0.0057570338 0.6924659
-0.012495558 0.0048059821 0.69287431
-0.012518983 0.0038520098 0.69330937
-0.012543462 0.0028946698 0.69376391
-0.012567989 0.0019335747 0.69421941
-0.01259266 0.00096866488 0.69467759
-0.01261738 2.9802322e-08 0.69513667
-0.012642295 -0.00097244978 0.69559938
-0.012669382 -0.0019491315 0.69610238
-0.012696585 -0.0029299557 0.69660753
-0.012723904 -0.0039150417 0.69711494
-0.012751342 -0.0049043596 0.69762444
-0.012778947 -0.005897969 0.6981371
-0.012807431 -0.0068962872 0.6986661
-0.012837255 -0.0078998208 0.69921994
-0.012867272 -0.0089081228 0.69977742
-0.012897428 -0.0099210739 0.70033741
-0.012927726 -0.010938823 0.70090008
-0.012958116 -0.011961311 0.70146441
-0.012990049 -0.012990028 0.70205748
-0.013022766 -0.014024496 0.70266503
-0.013055648 -0.01506415 0.70327568
-0.013088697 -0.016109109 0.70388937
-0.013121859 -0.017159313 0.70450532
-0.013155511 -0.018215328 0.70513022
-0.013191047 -0.019279212 0.70579016
-0.013226775 -0.020348877 0.70645368
-0.013262643 -0.021424234 0.7071197
-0.01329876 -0.022505581 0.70779055
-0.013335076 -0.0235928 0.70846498
-0.013372855 -0.024688303 0.70916647
-0.013411511 -0.025791377 0.70988441
-0.013450447 -0.026900887 0.71060747
-0.013489556 -0.028016776 0.71133375
-0.013528946 -0.02913928 0.71206528
-0.013569078 -0.030269474 0.71281052
-0.01361093 -0.03140983 0.71358782
-0.013653098 -0.032557338 0.71437085
-0.01369547 -0.03371188 0.71515769
-0.013738164 -0.034873754 0.71595061
-0.013781125 -0.036042899 0.71674842
-0.013826472 -0.037225097 0.71759057
-0.013872118 -0.038415074 0.71843827
-0.013918065 -0.039612919 0.71929157
-0.01396432 -0.040818781 0.72015059
-0.014010821 -0.042032421 0.72101408
-0.014059882 -0.04326117 0.72192526
-0.014109348 -0.044498712 0.72284383
-0.014182566 -0.045820564 0.72420353
-0.014232839 -0.047077864 0.72513717
-0.014284035 -0.048345983 0.72608793
-0.014337433 -0.049629539 0.72707957
-0.01439123 -0.050922811 0.7280786
-0.0144455 -0.052226007 0.7290864
-0.014500114 -0.053538889 0.73010075
-0.014556902 -0.054868281 0.73115528
-0.014615054 -0.05621174 0.73223519
-0.014673742 -0.057566196 0.73332512
-0.0147329 -0.058931619 0.73442376
-0.014793952 -0.060313821 0.7355575
-0.014856122 -0.06171003 0.73671204
-0.014919091 -0.063119203 0.73788142
-0.014984805 -0.064549923 0.73910183
-0.015051169 -0.065993577 0.74033427
-0.015118196 -0.067450434 0.74157906
-0.015187593 -0.068928272 0.74286777
-0.01525892 -0.070425779 0.74419242
-0.01533092 -0.071937352 0.74552941
-0.015404916 -0.073469579 0.74690366
-0.015481767 -0.075027019 0.74833083
-0.015559387 -0.076600015 0.74977231
-0.015639521 -0.078197598 0.75126052
-0.015722688 -0.079822838 0.75280493
-0.015806742 -0.081465542 0.75436598
-0.015939368 -0.083375126 0.7568289
-0.010619869 0.044249475 0.67447615
-0.010604152 0.043300301 0.67415994
-0.010604152 0.042416632 0.67416
-0.010611986 0.0415636 0.6743176
-0.010624453 0.040727079 0.67456841
-0.010636952 0.039888591 0.67481983
-0.010653447 0.039062679 0.67515171
-0.010672648 0.038243681 0.675538
-0.010691958 0.037421852 0.67592651
-0.010711298 0.036596954 0.67631555
-0.010734469 0.035781562 0.67678177
-0.010758666 0.034965694 0.67726856
-0.010782972 0.03414607 0.67775756
-0.010807388 0.033322781 0.67824876
-0.010834026 0.032502085 0.67878467
-0.010862643 0.03168273 0.67936039
-0.010891451 0.030859143 0.67993993
-0.010920411 0.030031145 0.68052256
-0.010949566 0.029198885 0.68110913
-0.010979078 0.028362632 0.68170291
-0.011008143 0.027520388 0.68228769
-0.011036918 0.026672542 0.68286657
-0.011062906 0.02581346 0.68338943
-0.011087257 0.024946332 0.68387932
-0.01111155 0.024075031 0.68436801
-0.011132399 0.023192525 0.68478751
-0.011150302 0.022300631 0.68514764
-0.01116681 0.021403074 0.68547976
-0.011181283 0.020499051 0.68577093
-0.011195752 0.019592553 0.68606204
-0.011210259 0.018683791 0.68635386
-0.011224803 0.017772615 0.68664652
-0.01123989 0.016859859 0.68695003
-0.011257042 0.015947491 0.68729508
-0.011274249 0.015032351 0.68764126
-0.011291508 0.014114439 0.68798846
-0.011308775 0.013193637 0.6883359
-0.011326226 0.012270123 0.68868697
-0.011345874 0.011345893 0.68908221
-0.011365589 0.010418475 0.68947887
-0.011385373 0.0094878376 0.68987691
-0.01140527 0.008553952 0.69027722
-0.011425193 0.007616818 0.690678
-0.011446494 0.0066771209 0.69110662
-0.011468621 0.0057343245 0.69155169
-0.011490876 0.0047878921 0.6919995
-0.011513174 0.0038377643 0.69244808
-0.011535558 0.0028839111 0.69289845
-0.011558119 0.0019263327 0.69335234
-0.011582601 0.00096520782 0.69384491
-0.011607231 2.9802322e-08 0.69434029
-0.011631966 -0.00096929073 0.69483799
-0.011656852 -0.0019427836 0.69533861
-0.011681799 -0.002920419 0.6958406
-0.011707446 -0.0039024651 0.69635653
-0.01173449 -0.004889369 0.69690061
-0.011761662 -0.0058808327 0.69744724
-0.011788911 -0.0068768561 0.69799554
-0.011816333 -0.0078775287 0.69854712
-0.011843884 -0.00888291 0.69910145
-0.011872502 -0.0098937452 0.69967723
-0.011902109 -0.010910243 0.7002728
-0.011931864 -0.011931866 0.70087147
-0.011961767 -0.012958556 0.70147306
-0.01199182 -0.013990432 0.70207769
-0.012022026 -0.015027493 0.70268536
-0.012054029 -0.016072005 0.70332921
-0.012086348 -0.017122298 0.70397949
-0.012118842 -0.018178254 0.70463318
-0.012151511 -0.019239873 0.70529044
-0.012184306 -0.020307153 0.70595026
-0.012218076 -0.021381617 0.70662963
-0.012253033 -0.022463858 0.70733285
-0.012288241 -0.023552448 0.70804119
-0.0123236 -0.024647176 0.70875263
-0.012359216 -0.025748372 0.70946914
-0.012394986 -0.026855767 0.71018875
-0.012432817 -0.027973801 0.7109499
-0.012470881 -0.02909866 0.71171564
-0.01250923 -0.030230641 0.7124871
-0.012547814 -0.031369507 0.71326345
-0.012586585 -0.032515347 0.7140435
-0.012626925 -0.033671767 0.71485496
-0.012668164 -0.034837425 0.71568465
-0.012709674 -0.036010712 0.71651983
-0.012751458 -0.037191778 0.71736044
-0.012793518 -0.038380533 0.71820658
-0.012836953 -0.039580584 0.71908045
-0.012881679 -0.040791959 0.7199803
-0.012926661 -0.042011619 0.72088522
-0.012972015 -0.043240041 0.7217977
-0.013017633 -0.044476867 0.7227155
-0.01306505 -0.04572767 0.72366947
-0.013135533 -0.047068983 0.7250874
-0.013184452 -0.048342943 0.7260716
-0.013233737 -0.04962647 0.72706306
-0.01328392 -0.050921679 0.72807276
-0.01333632 -0.052233875 0.72912693
-0.013389257 -0.053557009 0.73019195
-0.013442615 -0.054890662 0.73126543
-0.013496581 -0.056235731 0.73235118
-0.013552574 -0.057598442 0.73347765
-0.01360928 -0.058973521 0.73461848
-0.01366752 -0.060364842 0.73579013
-0.013727264 -0.061772704 0.73699218
-0.013787596 -0.063193113 0.73820591
-0.013848591 -0.064626724 0.73943299
-0.013912832 -0.066085905 0.74072546
-0.013977673 -0.067558706 0.74202996
-0.014043122 -0.069045335 0.74334669
-0.014111574 -0.070557863 0.74472386
-0.014181434 -0.072088927 0.74612933
-0.014252056 -0.073635638 0.74755019
-0.01432605 -0.075211763 0.74903882
-0.014401715 -0.076809108 0.75056106
-0.014478323 -0.078424215 0.75210226
-0.014559705 -0.080078363 0.7537396
-0.014642005 -0.081751168 0.75539535
-0.0096287457 0.046393067 0.6721468
-0.0096287457 0.045517713 0.6721468
-0.009629217 0.044644564 0.67215711
-0.0096404171 0.043820053 0.67240298
-0.0096516423 0.042993695 0.67264926
-0.0096628927 0.042165369 0.67289627
-0.0096800234 0.04136011 0.67327219
-0.0096973516 0.040552586 0.67365253
-0.0097147077 0.039742023 0.6740334
-0.0097327456 0.038930982 0.6744293
-0.0097544445 0.038131028 0.67490554
-0.0097762402 0.037327468 0.67538399
-0.0097981691 0.036520451 0.67586517
-0.0098201614 0.035709709 0.67634785
-0.0098452456 0.03490594 0.67689836
-0.0098710256 0.034099936 0.67746419
-0.009896975 0.03328982 0.67803371
-0.009923026 0.032475352 0.67860544
-0.0099494299 0.031657308 0.67918497
-0.0099757584 0.030834198 0.67976284
-0.010001936 0.030005842 0.68033737
-0.010027484 0.029170871 0.68089801
-0.010050188 0.028323293 0.68139637
-0.010072147 0.027469516 0.68187833
-0.010093945 0.026611298 0.68235672
-0.010111562 0.025738537 0.68274337
-0.0101276 0.024858683 0.68309534
-0.010141969 0.023971945 0.6834107
-0.010154956 0.023079455 0.68369579
-0.010167975 0.0221847 0.68398148
-0.010181028 0.02128762 0.684268
-0.010194115 0.020388246 0.68455523
-0.01020803 0.019488066 0.68486059
-0.010223465 0.018588126 0.68519938
-0.010238945 0.017685473 0.68553913
-0.010254436 0.016780019 0.68587905
-0.010270011 0.015871882 0.68622088
-0.010285865 0.014961272 0.68656886
-0.010303541 0.014050305 0.68695676
-0.010321278 0.013136208 0.68734604
-0.010339077 0.012218922 0.68773675
-0.010356976 0.011298537 0.68812954
-0.010374897 0.010374904 0.68852288
-0.010394099 0.0094492137 0.68894434
