# .PCD v0.7 - Point Cloud Data file format
VERSION 0.7
FIELDS x y z
SIZE 4 4 4
TYPE F F F
COUNT 1 1 1
WIDTH 664
HEIGHT 1
VIEWPOINT 0 0 0 1 0 0 0
POINTS 664
DATA ascii
0.063596338 -0.00078998506 0.65154886
0.065271087 0.0095519125 0.65298963
0.06343618 -0.00877738 0.65346175
0.062129039 0.0055757463 0.65311933
0.063982427 0.010397166 0.65390497
0.058690935 -0.0044220239 0.6549201
0.058630254 0.0032126606 0.65471947
0.065435708 -0.014541239 0.65585274
0.065435708 -0.014541239 0.65585274
0.062583126 -0.01211293 0.65577579
0.058895905 -0.007261157 0.65559804
0.057545077 0.0043027997 0.65557867
0.055712081 -0.0043270988 0.65669703
0.055492777 -0.00081010163 0.65640116
0.063634567 -0.015500724 0.65777916
0.056482803 -0.0084186597 0.65749806
0.054502994 0.0032539368 0.65721172
0.058701318 0.01141417 0.65765083
0.064295664 0.015463561 0.65730631
0.054406792 -0.007363379 0.65834069
0.054406792 -0.007363379 0.65834069
0.051649965 0.0016396642 0.65874803
0.051649965 0.0016396642 0.65874803
0.064123034 -0.01726386 0.65929103
0.055585317 -0.011528879 0.6596297
0.051461332 -0.0057636946 0.65960449
0.055109017 0.010692805 0.65939546
0.055109017 0.010692805 0.65939546
0.067464501 -0.019866988 0.66066742
0.052493587 -0.0095071495 0.6603986
0.049512025 -0.001650393 0.66004193
0.04960341 0.0045471489 0.66040963
0.050387252 0.005782187 0.66023993
0.061120674 0.016519129 0.66022408
0.064388357 0.01816085 0.66011226
0.053593345 -0.012463659 0.6614207
0.050706223 -0.0095597208 0.6615023
0.060010433 -0.017503023 0.66204035
0.053381197 -0.013345271 0.66218591
0.046689559 -0.0041686893 0.66210407
0.04551658 -0.0016703308 0.66245002
0.049346484 0.010455206 0.66274118
0.063347086 0.019170851 0.66204906
0.063414052 -0.020158261 0.66359746
0.056608643 -0.016773045 0.66328984
0.054596797 0.015959084 0.66360295
0.061625585 0.019284368 0.66324067
0.056495778 -0.017707586 0.66439229
0.049404584 -0.013512492 0.66470873
0.048052721 -0.011802375 0.6643464
0.044808034 -0.0092997849 0.66492689
0.042618994 -0.0042197406 0.66456842
0.042273156 0.0050727725 0.6649338
0.045544345 0.0092775524 0.66443896
0.051731821 -0.016113162 0.66556132
0.052563611 -0.016532943 0.66549802
0.048303217 -0.013558805 0.66540736
0.040669508 -0.0016945302 0.66537273
0.039167151 -0.0025543272 0.66638148
0.039591983 0.0042572767 0.66637933
0.049330942 0.015309632 0.66615784
0.03764797 0.0034225583 0.66738963
0.041492078 0.01026623 0.6673609
0.053502046 0.018832907 0.6674875
0.049970903 -0.018092901 0.66882163
0.047303118 -0.01634106 0.66845697
0.038741712 -0.0094701946 0.66866708
0.037406109 -0.0068793744 0.66842443
0.036102276 -0.0034383237 0.6683414
0.036082566 0.0025773644 0.66822809
0.046528958 0.01637134 0.668841
0.053444229 0.019826114 0.66892695
0.058568019 0.021532357 0.66875577
0.058568019 0.021532357 0.66875577
0.042434394 -0.014722139 0.66989374
0.032922722 0.00043322146 0.66998529
0.035431527 0.0064816475 0.66945326
0.031339556 0.0017411411 0.67098862
0.034768499 0.0086921453 0.67066735
0.036549333 0.011312932 0.67091113
0.040747087 0.013871372 0.67012346
0.049449582 0.019085824 0.67026275
0.031395599 -0.004360497 0.67136449
0.031341303 -0.0017411709 0.67100036
0.031417284 0.0052362084 0.67150986
0.031417284 0.0052362084 0.67150986
0.051592384 0.020986766 0.67193115
0.033391692 -0.011423469 0.67296475
0.033378206 0.011418879 0.67287916
0.033378206 0.011418879 0.67287916
0.02814126 0.0035176575 0.67313033
0.042345557 0.018526196 0.67380261
0.044178814 -0.019438654 0.67413509
0.034587987 -0.015076786 0.67493057
0.045574434 0.020353884 0.67446709
0.049878392 -0.022267133 0.6758514
0.030236375 -0.012450248 0.67551816
0.02940592 0.012475222 0.67594868
0.034698442 0.016014665 0.67561442
0.036449336 0.016891181 0.67544645
0.057892088 0.024047494 0.67584229
0.024541546 -0.0071394742 0.67627478
0.023206819 -0.0044628382 0.67630637
0.022372838 0.0062644184 0.67687213
0.031325556 0.015215307 0.67689687
0.04022621 0.019666165 0.67663127
0.030524017 -0.015262008 0.67756057
0.025263986 -0.012631983 0.67865181
0.018016983 -0.0045042038 0.67830515
0.018016983 -0.0045042038 0.67830515
0.022511423 0.0099050403 0.67821044
0.027000003 0.013500005 0.67810017
0.043201402 0.021600723 0.67810714
0.022681221 -0.012701482 0.67985016
0.019643169 0.0093685593 0.67969882
0.017276071 -0.007274121 0.68033731
0.015486299 -0.0054657459 0.68074578
0.0095494669 0.0027286112 0.68039989
0.016380081 0.0063700378 0.68051541
0.018194662 0.0090973377 0.6804499
0.029089669 0.017272025 0.68028551
0.083799355 0.017306387 0.68072253
0.027433148 -0.017374337 0.68158579
0.022807518 0.01459682 0.68106979
0.080547407 0.019221604 0.68179661
0.023855876 -0.016515583 0.68233317
0.014702216 -0.0091888607 0.68266022
0.011013474 0.0045889616 0.68239486
0.013768359 0.0073431432 0.6824193
0.013768359 0.0073431432 0.6824193
0.031269312 0.020233065 0.68285269
0.033245686 -0.021240294 0.68377143
0.034074966 -0.021181732 0.68315673
0.0027677717 0.00046138465 0.68355399
0.0027677717 0.00046138465 0.68355399
0.010184683 -0.006481111 0.68434817
0.02134335 0.017631471 0.68485314
0.025098806 -0.019521236 0.68524265
0.081810512 -0.018593282 0.68526191
0.016722908 -0.014864802 0.68511349
0.010249357 0.010249376 0.68576759
0.015821235 0.014890581 0.68550235
0.011212603 -0.012147009 0.68640107
0.021452764 0.018654585 0.68600154
0.012189371 -0.01406464 0.68718815
0.083610438 -0.011273295 0.68762255
0.0075139645 -0.01033169 0.68757486
0.0046985918 -0.0065780282 0.68768901
0.0037606251 0.0056409836 0.68779469
0.0046971096 0.0065760016 0.68761742
0.0065746699 0.0093924105 0.68757313
0.010326894 0.013143331 0.6874693
0.084737614 -0.010356784 0.68812609
-0.0018863095 0.0037726164 0.68851864
0.0075464328 0.01226297 0.68855464
0.010394177 0.015118837 0.68894601
0.027506826 -0.022764266 0.68981177
0.024611186 -0.021771431 0.68934655
0.013249922 -0.017035604 0.68930763
0.0056919307 -0.012332469 0.68984652
0.086104944 -0.010408282 0.68925577
0.00094917708 -0.0066442192 0.68997252
0 -0.0047359169 0.68949276
-0.0056937016 -0.002846837 0.6899178
0.003785291 0.0094632208 0.68928343
0.014210751 0.018000305 0.68953949
0.0038041845 -0.011412561 0.69042373
0.08741682 -0.0019003451 0.69021535
0.081721313 0.014253736 0.69023103
0.085515007 -0.0095547736 0.69149423
0.087469712 0.0038238466 0.69160974
0.087965742 0.0066930652 0.69165576
0.087965742 0.0066930652 0.69165576
0.087468721 0.0076475888 0.69160712
0.0057433937 0.015315741 0.69191718
0.0057433937 0.015315741 0.69191718
-0.0019154978 -0.0076619685 0.69204199
0.0864622 -0.0057641566 0.69275224
-0.012488745 0.00048045814 0.69274783
-0.0047913492 0.0047914088 0.6921677
-0.0019216258 0.0096081495 0.69278169
0.011542432 -0.019237339 0.69303668
0.0028865405 -0.014432698 0.69311172
0.083766371 -0.0086654723 0.69326913
-0.0048169028 0.0067436695 0.69340158
0.083927222 0.0077174604 0.69371545
-0.0009626688 0.011552006 0.69322973
0.010592047 0.019258291 0.69328874
0.026513308 0.024103776 0.6935873
0.032882322 -0.026112407 0.69430602
0.0029095246 -0.0164873 0.69496137
-0.0067807422 -0.006780684 0.69468027
0.083202206 -0.0038698614 0.69438815
0.08410462 0.0058003068 0.69420773
0.08243493 0.0067887604 0.69495684
-0.0067881015 0.0077578723 0.69493413
-0.00096807769 0.013553113 0.69453555
0.0067748139 0.018388808 0.69447589
-0.0097200815 -0.0048599839 0.69548446
-0.006812633 0.0097323656 0.69578022
-0.0048633097 0.01167196 0.69564229
-0.011725508 -0.0048855841 0.69671994
-0.013658687 -0.0039024651 0.69635653
-0.016580248 0.0029259622 0.69628131
-0.0068278522 0.010729462 0.69630516
0.030268317 0.027339131 0.69654405
-0.0068495912 -0.011742115 0.6970548
-0.010766042 -0.0068511069 0.69710749
0.0039265072 0.019632578 0.6978066
0.0019653665 -0.018670946 0.69806159
-0.012809549 -0.0078827739 0.69870538
-0.020634808 0.0019652247 0.69804388
-0.011831747 0.0098598003 0.69885731
-0.011831747 0.0098598003 0.69885731
-0.0029531068 0.016734272 0.69846857
-0.0029531068 0.016734272 0.69846857
0.0078838244 0.021680564 0.69873631
-0.0039537642 -0.016803473 0.69945168
-0.020730069 -0.0029613674 0.69913906
-0.022693705 -0.00098666549 0.69902718
-0.0049557933 -0.016849667 0.70010775
-0.0049557933 -0.016849667 0.70010775
-0.015911616 0.0089503229 0.70090866
-0.015911616 0.0089503229 0.70090866
0.012932559 0.023875535 0.70098984
-0.01197312 -0.013968617 0.70170146
-0.018962054 -0.0059880018 0.70176005
-0.013006153 -0.014006585 0.70235646
-0.016035145 -0.01202637 0.70277262
-0.020013068 -0.0060039461 0.70240003
-0.0010056936 -0.021119535 0.7036168
-0.018087579 -0.011053473 0.70341682
-0.020101912 0.0090458691 0.7034725
-0.023199685 -0.0060520768 0.70433831
-0.014139848 0.016159832 0.70465386
-0.014139848 0.016159832 0.70465386
0.0040541794 -0.023311496 0.70551229
-0.025294147 -0.0050587952 0.70508277
-0.028389264 -0.0040555596 0.70559859
-0.021401403 -0.013248473 0.70685691
-0.023369567 -0.010160714 0.7061215
-0.032549478 -0.0030514896 0.70638776
-0.033602718 0.0030548275 0.70665163
-0.021378761 0.013234496 0.70659661
-0.0020314597 0.022346109 0.70603979
0.014233683 0.027450711 0.70627201
0.016280564 0.02849102 0.70647568
0.016280564 0.02849102 0.70647568
0.016362153 -0.028633773 0.70770669
-0.021452351 0.014301598 0.70744264
-0.01739588 0.017395884 0.70786422
0.0082213702 -0.025691777 0.70892268
-0.026702559 -0.011297256 0.70876586
-0.028699579 0.0081999302 0.70827413
-0.028699579 0.0081999302 0.70827413
-0.020569479 -0.016455591 0.70911646
-0.029883236 -0.0092740953 0.70959508
-0.033934895 -0.0041133165 0.70908171
-0.029929096 0.010320395 0.70997685
-0.023716323 0.015467167 0.70976126
-0.032035723 0.0082673132 0.71030825
-0.022720668 0.016524136 0.71015072
-0.016517034 0.019614011 0.71004367
-0.01136789 0.021702349 0.71031654
-0.035334453 -0.0062354505 0.71171767
-0.035334453 -0.0062354505 0.71171767
-0.039507203 0.0041587055 0.71181774
0.003121 0.026008397 0.71197957
0.0062375907 0.028069168 0.71180212
-0.0093906475 -0.022954881 0.71272123
-0.03228255 -0.011455089 0.7122305
-0.033385206 0.011476159 0.71269286
-0.033385206 0.011476159 0.71269286
-0.033385206 0.011476159 0.71269286
-0.027157759 0.016712457 0.71299255
0 -0.025101602 0.71332359
-0.043936081 -0.0031382442 0.71337116
-0.018892076 -0.020991176 0.71420705
-0.027353045 -0.017884672 0.7148059
-0.047213357 0.0020984113 0.71411675
-0.046202533 0.0031501949 0.71432722
-0.0231789 -0.020018101 0.71517915
-0.038985163 -0.0094828606 0.71519518
-0.036077339 -0.014855355 0.71699262
-0.042311847 0.0074046254 0.71619546
-0.040213939 0.010582656 0.71630776
-0.030716479 0.018006235 0.71653175
-0.030716479 0.018006235 0.71653175
-0.026510812 0.020148247 0.71683192
-0.038269006 -0.013819337 0.71745855
-0.05309229 2.9802322e-08 0.7171731
-0.051997118 0.0021223426 0.71700901
-0.043565821 0.0085006952 0.7173506
-0.0042634341 -0.027712315 0.71814191
-0.0095901527 -0.024508178 0.71807289
-0.053272497 -0.0021308661 0.71804327
-0.053272497 -0.0021308661 0.71804327
-0.017118059 -0.023537338 0.71911252
-0.046156973 0.010734171 0.71996695
-0.031129252 0.02039507 0.71996808
-0.0096819894 -0.026894391 0.72053635
-0.033323996 -0.019349366 0.72034103
-0.043018486 -0.013980985 0.72046041
-0.052776594 -0.0043082535 0.72084939
-0.012976389 -0.025952727 0.72188562
-0.0485061 -0.0097012222 0.72105217
-0.051885147 -0.0064856112 0.72178304
-0.049578242 0.0086223483 0.72102195
-0.03559307 0.019414395 0.72121263
-0.047704019 -0.013010174 0.72256565
-0.047642902 0.012993515 0.72223032
-0.045545917 0.015181959 0.72262466
-0.02716483 -0.022818446 0.72314769
-0.042408999 -0.017398566 0.72334492
-0.051235214 -0.011991173 0.72399694
-0.064298891 -0 0.72392476
-0.064298891 -0 0.72392476
-0.041448779 -0.018542856 0.72415304
-0.055606078 -0.006541878 0.72404629
-0.065646648 -0.0010941029 0.72496259
-0.054768775 0.010953784 0.72526795
-0.019769471 0.02635932 0.72597492
-0.041746918 -0.019774854 0.7260471
-0.06055453 -0.005504936 0.72662371
-0.056184437 0.01211822 0.72678411
-0.018677481 0.027466953 0.72606456
-0.056449912 -0.013282269 0.72804081
-0.068771131 -0.0033276081 0.72860831
-0.04658648 0.019965649 0.72860599
-0.035432097 0.023252308 0.72813535
-0.02897297 -0.024515569 0.72984755
-0.055638194 -0.015578657 0.72946584
-0.056671813 -0.014445752 0.72909123
-0.064500719 0.0066725016 0.7293011
-0.064500719 0.0066725016 0.7293011
-0.036940396 -0.023507506 0.73106939
-0.052732173 -0.019073337 0.73168629
-0.058383346 0.016841382 0.73187834
-0.047180127 -0.02134335 0.73201835
-0.054027375 -0.01913467 0.73255759
-0.070953384 0.0056312382 0.73272032
-0.045172393 -0.022586226 0.73346043
-0.071286492 -0.0079207122 0.73399681
-0.071158081 -0.0067769289 0.73350471
-0.077988558 0.0033908188 0.73369199
-0.032926559 -0.027249545 0.73493034
-0.066904411 -0.013607651 0.73458618
-0.069247991 0.012487352 0.73488557
-0.068135351 0.013627112 0.73497641
-0.060030092 0.018122286 0.73426515
-0.07069888 -0.012543291 0.73611474
-0.075719111 -0.010325313 0.7377938
-0.087200105 0.0011474192 0.73782045
-0.035587721 0.028699785 0.73797047
-0.070237912 -0.016120136 0.73880345
-0.080612384 -0.0057579875 0.73884308
-0.079301991 0.0068958104 0.73828745
-0.041563217 -0.026554286 0.73954999
-0.074962363 0.013839275 0.73924422
-0.041501354 0.026514798 0.73913521
-0.040379241 0.027688622 0.73934692
-0.074025445 -0.015036404 0.74006033
-0.081205606 0.010440767 0.74088901
-0.06949427 0.018531799 0.74044424
-0.069705978 -0.018588245 0.74129605
-0.069705978 -0.018588245 0.74129605
-0.083575755 -0.0069646537 0.74105668
-0.078239083 -0.015180677 0.74274004
-0.048046969 -0.026953131 0.7437371
-0.050437499 0.025805265 0.74399972
-0.047972366 0.026911318 0.74329787
-0.076245598 -0.017595083 0.74401033
-0.075101815 0.018775493 0.7441206
-0.055640142 -0.024860442 0.7466234
-0.057259392 -0.026243836 0.74881339
-0.057172157 0.026203901 0.7483747
-0.063974626 -0.025348425 0.75223297
-0.069668792 -0.025667399 0.75590044
-0.077343941 0.024553627 0.75720948
0.062816009 -0.003347917 0.65224785
0.06294971 0.0070124208 0.65306103
0.063982427 0.010397166 0.65390497
0.062487185 -0.0092131644 0.65422785
0.067093715 0.01479069 0.65558493
0.066983037 -0.016772754 0.65713394
0.059529416 -0.012232035 0.65769315
0.055099364 0.0050171479 0.65721434
0.05517251 0.0067947409 0.65766656
0.060890961 0.012716013 0.65717793
0.060526002 -0.013904631 0.65828401
0.060526002 -0.013904631 0.65828401
0.05801231 0.011439085 0.65808022
0.067073733 0.017995387 0.65829688
0.04898395 -0.00505631 0.66092342
0.04898395 -0.00505631 0.66092342
0.04898395 -0.00505631 0.66092342
0.048894629 0.0029786408 0.66055888
0.054521672 0.011565238 0.66025567
0.061652943 0.018329263 0.6619606
0.071028382 0.019821882 0.66021359
0.044990592 0.0029298142 0.66290456
0.044990592 0.0029298142 0.66290456
0.048700303 0.0089053512 0.66237557
0.055522498 0.01682502 0.66391659
0.064549237 -0.02109468 0.66452926
0.041614879 -0.0067942441 0.665856
0.057202481 0.018927088 0.6654135
0.074645981 0.022479221 0.6656065
0.058889985 -0.020483971 0.66687369
0.058889985 -0.020483971 0.66687369
0.056915782 -0.019611917 0.66667902
0.040796012 0.0074564368 0.6665501
0.039438147 0.0085735321 0.66780376
0.049227148 -0.01813682 0.66932654
0.037239064 -0.0088513307 0.66929775
0.033718172 -0.0012968779 0.66954625
0.038968861 0.0091693206 0.66834992
0.06320525 -0.023538753 0.67129338
0.031469714 0.006556496 0.67186153
0.035092972 0.0091271438 0.67066485
0.054322433 -0.021904171 0.67234665
0.034189839 -0.011396587 0.67246598
0.026889129 -0.0013224632 0.67366463
0.027357489 0.004853949 0.67387521
0.048984028 0.020649143 0.67294109
0.056638408 0.022831276 0.6728189
0.052117929 -0.022083879 0.67408168
0.044859659 -0.020431384 0.67528069
0.036721952 -0.015927806 0.67444968
0.028779708 -0.0092986226 0.6746105
0.02222386 0.0044448078 0.67543352
0.047604278 -0.022454828 0.6776641
0.042915598 -0.020564448 0.67667758
0.029182624 -0.014367074 0.67760372
0.02750485 0.012855947 0.67735267
0.011313142 0.0027153194 0.67933029
0.0170207 0.0048210425 0.67901695
0.022511423 0.0099050403 0.67821044
0.024313454 0.011256695 0.67822039
0.02942045 0.016597033 0.67937112
0.04520392 0.022602838 0.67909306
0.026359351 -0.015451998 0.68025917
0.0088895261 -0.0027356967 0.68097436
0.0073209917 0.0027453899 0.68175137
0.019230476 0.012820363 0.68189937
0.035123359 0.020527095 0.68106174
0.023129974 -0.016802184 0.6830824
0.018833065 -0.013321996 0.68261802
0.015194941 -0.010706689 0.68315339
0.034426972 0.021115616 0.68246239
0.036063686 -0.022193015 0.68406564
0.01719795 -0.015340105 0.68525845
0.086729884 -0.012123495 0.68596548
0.086669788 -0.011183202 0.68580949
0.0093176039 -0.0088521242 0.68576777
0.0027735964 -0.0018490255 0.68402272
0.0013944337 0.0027900487 0.68534523
0.015821235 0.014890581 0.68550235
0.03697487 -0.023402303 0.68681359
0.03697487 -0.023402303 0.68681359
0.01971424 -0.018775433 0.68746084
0.0088990591 -0.010773763 0.68698567
0.0051451754 -0.0051465034 0.68669307
-0.001251013 0.0031284094 0.68733978
0.029147692 0.022565961 0.68781686
-0.0069474988 0.00094750029 0.68952811
0.006595416 0.010835886 0.68828869
0.0091447169 0.014506171 0.68921131
0.013035551 -0.01844139 0.69109297
0.087099671 -0.009054862 0.6909492
0 -0.0057008862 0.69020748
0.088857457 -0.0034912229 0.69066501
-0.0085964408 0.0028655231 0.69141692
0.0015907636 0.010819426 0.69129002
0.014745597 0.019027427 0.69050193
0.0011529209 -0.01288631 0.69298035
0.086856186 0.0052786469 0.69252318
0.0033656887 0.014908865 0.69302112
0.027821263 0.023983866 0.69242942
0.0331662 -0.026766706 0.69494867
0.026685622 -0.024260491 0.6951012
0.026685622 -0.024260491 0.6951012
0.020880092 -0.023308858 0.69529009
0.005831664 -0.01846689 0.6954689
-0.0053276867 0.0092017725 0.69465131
0.015555575 0.022361189 0.69553643
0.019441372 0.023329675 0.695499
0.031427592 -0.028481245 0.69792378
0.0052149417 -0.019230872 0.69687974
-0.0097476905 -0.0058485866 0.69615102
-0.0049086921 0.014726102 0.69783354
0.0019622527 0.018641412 0.69768572
0.030268317 0.027339131 0.69654405
0 -0.017685682 0.69802713
-0.014846509 -0.0074236393 0.69977188
-0.019239951 -0.0034546107 0.69903642
-0.017236516 -0.0039395988 0.69859815
-0.023225432 0.0012360662 0.69941485
-0.0075462498 0.013451944 0.69844264
-0.0075462498 0.013451944 0.69844264
-0.0074513825 -0.015894815 0.70065552
-0.01342187 -0.011433527 0.7008332
-0.017427996 0.0074692518 0.70123988
-0.013876386 0.009911716 0.70011061
0.013406342 0.023835018 0.7005825
0.02204868 -0.028061926 0.70277643
0.012535283 -0.024069667 0.70294333
0.012535283 -0.024069667 0.70294333
-0.020441135 -0.0083774533 0.70351762
-0.024599548 -0.0040161312 0.70321631
0.0010064502 0.022141933 0.70379943
-0.014685621 -0.016204029 0.70532107
-0.026780389 0.0045490712 0.704808
-0.020621225 0.012508174 0.70565724
-0.015127545 0.015127569 0.70429504
-0.016654087 -0.01665481 0.70698231
-0.014758071 -0.017301708 0.70652711
-0.026887817 0.0085088518 0.70732212
-0.010216907 0.020433843 0.70747888
0.010615922 -0.027396938 0.70884746
0.0051540015 -0.024739206 0.70967817
-0.0071697836 -0.02150932 0.70809788
-0.017424675 -0.017424643 0.70827317
-0.031224873 -0.0065194173 0.70933437
-0.031328008 -0.0051355958 0.70879072
-0.035836447 0.0030717254 0.70801187
-0.014903549 0.019527838 0.70894873
0.002595121 -0.024920374 0.71150064
-0.010872522 -0.021743402 0.71078897
-0.030118942 -0.012463003 0.71155733
-0.030118942 -0.012463003 0.71155733
-0.041331809 -0.0010332763 0.71028042
0.0010399744 0.024959385 0.71189296
-0.037075762 -0.0067887604 0.71295345
-0.043271188 0.0031279922 0.7125417
-0.01978888 0.019788921 0.71226609
-0.022057412 -0.019956678 0.7143985
-0.022057412 -0.019956678 0.7143985
-0.042268597 -0.0063402355 0.71593446
-0.040456217 0.0087949336 0.71560949
-0.033908255 -0.015894502 0.71663898
-0.047299996 -0.0042515844 0.71742857
-0.047299996 -0.0042515844 0.71742857
-0.048937131 0.0042554438 0.71765715
-0.0028227835 0.027167013 0.71635026
-0.022502385 -0.022502363 0.71951401
-0.042814191 0.012844294 0.71922743
-0.035177678 0.017055869 0.71817374
-0.018698279 0.02350527 0.71876025
-0.013391951 0.024639159 0.71944761
-0.039524503 -0.016888579 0.72105825
-0.051094662 -0.0068365536 0.72142428
-0.051094662 -0.0068365536 0.72142428
-0.047127478 -0.014501314 0.72337925
-0.061233766 -0.0025371015 0.723243
-0.059614774 0.0032517314 0.72249871
-0.016959295 -0.026806451 0.72495925
-0.054768775 0.010953784 0.72526795
-0.050760411 0.014607847 0.72530854
-0.041746918 -0.019774854 0.7260471
-0.062875494 -0.0044122934 0.72712767
-0.017075088 0.028640583 0.7267608
-0.057314947 -0.014467612 0.72949755
-0.051445022 -0.019012272 0.73081928
-0.062698796 -0.01231584 0.73112142
-0.076193243 -0.0011204779 0.73133081
-0.071178526 0.0044836402 0.73143208
-0.063655294 0.010609984 0.73043048
-0.056595609 0.017371863 0.73138642
-0.033029169 0.024631053 0.73111421
-0.05690442 -0.018028826 0.73285508
-0.06945809 -0.0075089834 0.7327432
-0.072745204 0.0050761998 0.73310709
-0.067451976 -0.0130371 0.73450804
-0.062687322 0.018236339 0.73598564
-0.087181315 0.00057370961 0.73776078
-0.078897461 0.0051471889 0.73687208
-0.063112572 0.019507587 0.73785222
-0.034953959 0.028649986 0.73748946
-0.081169002 -0.0051811039 0.73877782
-0.081169002 -0.0051811039 0.73877782
-0.045275662 -0.025540084 0.74109042
-0.066762559 -0.019738182 0.74112833
-0.078999735 -0.012779355 0.74129474
-0.080720849 -0.011033714 0.74121988
-0.082621604 0.010473162 0.74175924
-0.045175251 0.025483489 0.74046886
-0.072502889 -0.018710405 0.74313939
-0.085260801 -0.0087603033 0.74279046
-0.087135315 -0.0054463847 0.74255627
-0.082857087 0.011670023 0.74255997
-0.053290635 0.027237475 0.74672085
-0.081144422 0.021039799 0.7510497
-0.072428592 0.025779694 0.75719053
0.065803677 -0.0069377692 0.65222406
0.062536448 0.0099015599 0.65453875
0.054748811 -0.009234298 0.65893978
0.053664833 0.0019586519 0.65759295
0.053664833 0.0019586519 0.65759295
0.058718964 0.013274636 0.65890706
0.043739263 -0.0042057037 0.66389
0.055522498 0.01682502 0.66391659
0.053947192 -0.017980088 0.66633743
0.065222606 -0.02332609 0.66939211
0.034068305 0.0058983928 0.67014217
0.035849325 0.012241244 0.67191339
0.038671099 0.013220655 0.67092776
0.045385577 -0.019250838 0.67314261
0.028734058 -0.0021934237 0.67264533
0.053798892 0.022492347 0.67375034
0.057389334 -0.024276298 0.67788839
0.03935568 -0.020809039 0.679245
0.049827754 -0.023114424 0.67821681
0.021719052 0.0061272769 0.67721891
0.021719052 0.0061272769 0.67721891
0.083124287 -0.019342169 0.68318379
0.022177704 0.016707284 0.68335772
0.017619845 -0.014993777 0.68471313
0.083610438 -0.011273295 0.68762255
0.0046321615 0.00370574 0.68448144
0.0046321615 0.00370574 0.68448144
0.026230982 0.020864077 0.68634593
-0.0093946308 -0.001751947 0.69145977
0.08903645 0.006197108 0.69102752
0.0063085868 0.013653075 0.69029534
0.0076489612 0.016254067 0.69164872
0.010512246 0.01698212 0.69068968
0.033288922 -0.02567715 0.69444031
0.08245226 -0.0091607776 0.69363976
-0.013183224 -0.0092281606 0.69951797
-0.0049487157 0.016825676 0.69976604
-0.022888228 -0.0032366067 0.70107955
-0.029594529 0.0013401298 0.7033487
-0.015870808 0.007439822 0.70029294
-0.010444297 0.014423819 0.70094615
-0.041620668 -0.0015541479 0.71075904
-0.021638043 0.017501742 0.71056461
-0.040109977 -0.0089725107 0.71564734
-0.014868601 -0.02336078 0.71717519
-0.027526094 -0.019056529 0.71641272
-0.037838157 -0.014426688 0.71773165
-0.043230273 -0.0061766608 0.7164135
-0.039146401 0.011638135 0.71624732
-0.039146401 0.011638135 0.71624732
-0.038100548 0.016417421 0.7193104
-0.0028227835 0.027167013 0.71635026
-0.05242404 -0.0099783596 0.72358143
-0.058430184 -0.0022959821 0.72143888
-0.01721872 0.0253742 0.72335196
-0.064171538 -0.0044255853 0.7279309
-0.047996257 0.015271574 0.72416902
-0.026105713 -0.026198169 0.72994864
-0.057216939 -0.016828477 0.73167169
-0.073529072 -0.0019372285 0.73032129
-0.059849933 0.011083364 0.72839594
-0.04954043 0.020432867 0.73110908
-0.066280656 -0.013711907 0.73434824
-0.045471162 -0.024173826 0.73872948
-0.045471162 -0.024173826 0.73872948
-0.062105216 0.01946079 0.73718804
-0.058200173 0.023278952 0.74182236
-0.071665794 -0.019972384 0.7444545
-0.085412577 0.013922989 0.74563229
-0.065812014 -0.026227606 0.75395823
