# .PCD v0.7 - Point Cloud Data file format
VERSION 0.7
FIELDS x y z
SIZE 4 4 4
TYPE F F F
COUNT 1 1 1
WIDTH 1332
HEIGHT 1
VIEWPOINT 0 0 0 1 0 0 0
POINTS 1332
DATA ascii
-0.044624168 0.051926374 0.65669775
-0.044579636 0.051064014 0.65650231
-0.044543128 0.050212294 0.65634203
-0.044512581 0.049368531 0.65620792
-0.044487108 0.048531443 0.6560961
-0.044469278 0.047703415 0.6560179
-0.044453047 0.046877801 0.65594661
-0.044446725 0.046062976 0.65591884
-0.044440556 0.045248568 0.65589178
-0.044442993 0.044443011 0.6559025
-0.044447731 0.04363963 0.65592331
-0.044456493 0.042839915 0.65596175
-0.044471435 0.042045772 0.65602732
-0.044487108 0.041251689 0.6560961
-0.044510853 0.040464431 0.65620035
-0.044535916 0.039677471 0.65631044
-0.044565488 0.038893521 0.6564402
-0.044600446 0.038113147 0.65659362
-0.044636182 0.037332088 0.6567505
-0.044679374 0.036555886 0.6569401
-0.044723958 0.035779208 0.65713578
-0.044772565 0.03500405 0.65734911
-0.04482697 0.034231544 0.65758795
-0.044881947 0.033457458 0.65782928
-0.044944838 0.032687187 0.65810537
-0.045009524 0.031915814 0.65838933
-0.045078386 0.031145066 0.65869153
-0.04515294 0.030375659 0.65901881
-0.045228038 0.029603809 0.65934843
-0.045312785 0.028835416 0.65972042
-0.0453986 0.028064609 0.66009712
-0.045490306 0.027294189 0.66049963
-0.045587968 0.026523948 0.66092831
-0.045685444 0.025749981 0.66135621
-0.045793854 0.024978489 0.66183203
-0.045904309 0.024204105 0.66231692
-0.046023607 0.023430228 0.66284055
-0.046146937 0.022653937 0.66338193
-0.046278864 0.021877259 0.66396099
-0.046415772 0.021098107 0.66456199
-0.046561051 0.020317584 0.6651997
-0.046714544 0.019535214 0.66587341
-0.046876557 0.018750638 0.66658455
-0.047048219 0.017963916 0.66733801
-0.04723265 0.017175525 0.66814756
-0.047427032 0.016383886 0.66900086
-0.047635391 0.015589774 0.66991544
-0.047857564 0.014792383 0.67089069
-0.04810182 0.013993263 0.67196286
-0.048365414 0.013190627 0.67311984
-0.048655812 0.01238513 0.67439461
-0.04897951 0.01157701 0.67581546
-0.049350522 0.01076737 0.67744398
-0.049794141 0.0099588335 0.67939126
-0.050364424 0.0091571808 0.68189448
-0.051294733 0.0083937049 0.68597806
-0.046752781 0.06580025 0.66984165
-0.046002474 0.063892335 0.66648722
-0.045555253 0.06242758 0.66448778
-0.045222662 0.061134368 0.66300082
-0.044951513 0.059935391 0.66178858
-0.044722646 0.058802038 0.66076535
-0.044524107 0.057716459 0.65987778
-0.04435119 0.056670964 0.6591047
-0.044253126 0.0557262 0.65866625
-0.044166323 0.05479899 0.65827817
-0.044089209 0.053886861 0.65793341
-0.044024985 0.052993029 0.6576463
-0.043965526 0.052107275 0.65738052
-0.043918502 0.051238298 0.65717018
-0.043874428 0.050374389 0.65697318
-0.043840971 0.049524099 0.65682364
-0.04381083 0.048678726 0.65668881
-0.043788109 0.047842562 0.6565873
-0.043770518 0.047012806 0.65650862
-0.043756623 0.04618755 0.65644658
-0.043750532 0.045370907 0.65641928
-0.043744724 0.04455483 0.65639329
-0.043748975 0.043748975 0.65641236
-0.043753508 0.042943299 0.65643257
-0.043764278 0.042143375 0.65648073
-0.043779027 0.041346878 0.65654665
-0.043795493 0.040551424 0.65662026
-0.04382021 0.039762795 0.65673077
-0.043844953 0.038973331 0.6568414
-0.043876141 0.038188517 0.65698087
-0.043910652 0.037405372 0.65713513
-0.043947365 0.036622852 0.65729922
-0.04399072 0.035844326 0.65749311
-0.044034887 0.035064846 0.65769058
-0.044085037 0.034288406 0.65791476
-0.044138759 0.033512771 0.65815496
-0.044194784 0.032736897 0.65840542
-0.044257477 0.031963736 0.65868574
-0.044321362 0.031189144 0.65897131
-0.044391558 0.030416489 0.65928513
-0.044465344 0.029643595 0.65961504
-0.044541579 0.028869569 0.65995586
-0.044625737 0.028097719 0.66033208
-0.044710658 0.027323216 0.66071177
-0.044804074 0.026550561 0.66112942
-0.044900421 0.025776178 0.66156018
-0.044998828 0.02499935 0.66200018
-0.045106705 0.024223983 0.66248244
-0.045217369 0.023446053 0.66297716
-0.045336939 0.022668511 0.66351175
-0.045460053 0.021888167 0.6640622
-0.04559261 0.021107733 0.66465473
-0.045728724 0.020323873 0.66526335
-0.045875624 0.019539654 0.66592008
-0.046028174 0.018752247 0.66660208
-0.046192009 0.017963558 0.66733456
-0.046363369 0.017171651 0.66810071
-0.04654932 0.016378492 0.66893202
-0.046743561 0.015581191 0.6698004
-0.04695509 0.01478219 0.67074609
-0.047180567 0.013979435 0.67175418
-0.047425363 0.013173699 0.67284858
-0.047694929 0.012365371 0.67405379
-0.047990918 0.011553377 0.67537707
-0.048324291 0.01073873 0.67686749
-0.048709702 0.0099223852 0.67859054
-0.049178518 0.0091071725 0.68068659
-0.049799044 0.0082998574 0.68346077
-0.046253871 0.06632632 0.67151284
-0.045323424 0.064136952 0.66727453
-0.044844102 0.062612534 0.66509116
-0.044498116 0.061289907 0.66351515
-0.044219423 0.060071677 0.66224563
-0.044014219 0.058962464 0.66131091
-0.043863665 0.057933211 0.66062516
-0.043738939 0.056943208 0.66005701
-0.043626975 0.055974245 0.65954703
-0.0435303 0.055028886 0.65910667
-0.043448139 0.054105252 0.65873241
-0.043371964 0.053192079 0.6583854
-0.043311615 0.052300841 0.6581105
-0.043253403 0.05141443 0.65784532
-0.043209285 0.050546736 0.65764439
-0.043165959 0.049681604 0.65744704
-0.043135487 0.048832655 0.65730822
-0.043105759 0.047985673 0.6571728
-0.04308559 0.047150284 0.65708089
-0.043068234 0.04631868 0.65700185
-0.043056764 0.04549399 0.65694964
-0.043050613 0.044675231 0.65692157
-0.04304684 0.043859065 0.65690446
-0.043051314 0.043051332 0.65692484
-0.043056067 0.042243689 0.65694648
-0.043068513 0.041443318 0.65700316
-0.043083068 0.040644437 0.65706944
-0.043101273 0.039848357 0.65715241
-0.043125667 0.039057255 0.65726352
-0.043150928 0.038265973 0.65737855
-0.043183111 0.037479699 0.65752512
-0.043217171 0.036693841 0.65768027
-0.043254673 0.035909563 0.65785116
-0.043298174 0.035128713 0.65804929
-0.043342479 0.034346879 0.65825111
-0.043393541 0.033568591 0.65848368
-0.043446574 0.032789886 0.65872526
-0.043503735 0.032012194 0.65898561
-0.043566059 0.031236053 0.65926951
-0.043629128 0.030458122 0.65955681
-0.043700594 0.029683411 0.65988237
-0.043773595 0.02890712 0.6602149
-0.043851335 0.028131068 0.66056895
-0.043934591 0.027355522 0.66094828
-0.044018459 0.026577234 0.66133028
-0.044113647 0.025802374 0.66176391
-0.044208515 0.025023729 0.66219598
-0.044308525 0.024244338 0.66265154
-0.044415094 0.02346462 0.66313696
-0.044526953 0.022683561 0.66364652
-0.044645697 0.021901697 0.66418743
-0.044769 0.021117479 0.66474909
-0.044901811 0.020332932 0.66535401
-0.045038614 0.019545078 0.66597724
-0.045185346 0.018756181 0.66664559
-0.045338146 0.017964184 0.66734159
-0.04550245 0.017170787 0.66808999
-0.045675024 0.016374111 0.66887611
-0.045861751 0.015575707 0.66972667
-0.046057697 0.01477325 0.67061925
-0.046270333 0.013968408 0.67158782
-0.04649831 0.013159901 0.67262626
-0.04674584 0.012347996 0.67375386
-0.047018684 0.011532933 0.67499661
-0.047322925 0.01071465 0.67638254
-0.04766674 0.0098931491 0.67794859
-0.048068155 0.0090694427 0.67977715
-0.048559655 0.0082460046 0.68201596
-0.049275536 0.0074378252 0.68527687
-0.04488977 0.06474492 0.66923141
-0.0442628 0.062989414 0.66632062
-0.04391022 0.061643213 0.66468364
-0.043650031 0.060438544 0.66347569
-0.043444064 0.059317857 0.66251951
-0.043272819 0.058251858 0.66172445
-0.043125212 0.057223856 0.66103911
-0.043006033 0.056238681 0.66048574
-0.042899527 0.055274397 0.65999132
-0.04280439 0.05432865 0.65954965
-0.042726509 0.053408146 0.65918803
-0.042652965 0.052495986 0.65884662
-0.042595007 0.051605523 0.6585775
-0.04253957 0.050720304 0.65832013
-0.042496633 0.049851865 0.65812081
-0.042455859 0.048987538 0.65793151
-0.042426366 0.048137605 0.65779459
-0.042397056 0.047289044 0.65765846
-0.042379513 0.046454489 0.6575771
-0.042362403 0.045621067 0.65749764
-0.042353299 0.044796765 0.65745533
-0.042347234 0.043975979 0.65742719
-0.04234558 0.043159932 0.6574195
-0.04234999 0.042350054 0.65743995
-0.042355366 0.041540861 0.65746492
-0.042369027 0.040739477 0.65752834
-0.04238338 0.039938241 0.65759498
-0.042403411 0.039141625 0.65768802
-0.042427473 0.03834793 0.65779972
-0.042453505 0.037555039 0.6579206
-0.042486086 0.036766827 0.65807182
-0.042519692 0.035978228 0.6582278
-0.042558916 0.035192966 0.65840995
-0.042601842 0.034409165 0.65860927
-0.042646952 0.033625513 0.65881872
-0.042698041 0.032844633 0.65905589
-0.042750377 0.032062829 0.65929884
-0.042808477 0.03128314 0.65956855
-0.042870406 0.030503958 0.65985608
-0.042934783 0.029724121 0.660155
-0.043005604 0.028946102 0.66048384
-0.043077659 0.028166175 0.6608184
-0.043156832 0.027388006 0.66118592
-0.043239165 0.026608735 0.66156816
-0.043324698 0.025828212 0.66196531
-0.043418545 0.02504915 0.66240096
-0.043512214 0.024266422 0.66283584
-0.043613739 0.023484319 0.66330719
-0.043719124 0.02270034 0.66379642
-0.04383181 0.021915913 0.66431963
-0.043949828 0.021129727 0.66486758
-0.044074904 0.02034229 0.66544831
-0.044206101 0.019552737 0.66605735
-0.044343822 0.01876089 0.66669679
-0.044490471 0.017967314 0.66737765
-0.044644523 0.017170995 0.66809285
-0.044808444 0.016372353 0.66885388
-0.044983368 0.015571177 0.66966599
-0.045169856 0.014767081 0.67053181
-0.045367546 0.013959229 0.67144966
-0.045580063 0.013148129 0.67243636
-0.045812808 0.012334198 0.67351687
-0.046063427 0.011515856 0.67468047
-0.046339571 0.010693759 0.67596251
-0.046648473 0.0098679662 0.67739666
-0.047003079 0.0090390742 0.67904299
-0.047421828 0.008207649 0.68098712
-0.047963478 0.0073790252 0.68350184
-0.048835088 0.0065739453 0.68754846
-0.044018608 0.063870132 0.66919404
-0.043467056 0.062217563 0.66658318
-0.043134075 0.060895205 0.66500694
-0.042887308 0.059705853 0.66383874
-0.042691428 0.058596075 0.66291159
-0.042528357 0.05753839 0.66213959
-0.042387497 0.056516677 0.6614728
-0.042270102 0.055531323 0.6609171
-0.042168815 0.05457142 0.66043764
-0.042075787 0.053626001 0.65999728
-0.04200168 0.05270803 0.65964645
-0.041931972 0.051798344 0.65931642
-0.041874863 0.050906748 0.65904605
-0.041822977 0.050023586 0.65880048
-0.041780658 0.049153775 0.65860021
-0.041742798 0.04829073 0.65842092
-0.041713864 0.047439337 0.65828395
-0.041686881 0.046591252 0.65815622
-0.04166986 0.045755178 0.65807569
-0.04165313 0.044920057 0.65799654
-0.041646194 0.044095993 0.65796363
-0.041640215 0.043273181 0.65793532
-0.041640487 0.042456955 0.65793663
-0.041644972 0.04164499 0.65795791
-0.041651499 0.040834814 0.65798879
-0.041665643 0.040031701 0.65805572
-0.041680478 0.039228678 0.65812594
-0.041701596 0.03843087 0.65822595
-0.041725323 0.037634641 0.65833825
-0.041752085 0.036840111 0.65846491
-0.041785311 0.036050141 0.65862221
-0.041819278 0.035259426 0.65878296
-0.041859064 0.034472197 0.65897131
-0.041901402 0.033685476 0.6591717
-0.041947551 0.032900065 0.65939027
-0.041998364 0.032116413 0.65963072
-0.042050544 0.031331837 0.65987778
-0.04210953 0.030550063 0.66015697
-0.042170767 0.029767632 0.66044682
-0.042236239 0.028985679 0.66075677
-0.042306542 0.028204352 0.6610896
-0.042377502 0.027420729 0.66142547
-0.04245802 0.026640385 0.66180664
-0.042539276 0.02585724 0.66219127
-0.042626537 0.025074452 0.66260433
-0.042719018 0.024291217 0.66304219
-0.042811614 0.023504436 0.66348046
-0.042914283 0.022719324 0.66396648
-0.043019474 0.021931529 0.66446441
-0.04313276 0.021143526 0.66500068
-0.04325046 0.020353168 0.66555786
-0.043376029 0.019561768 0.66615224
-0.043505739 0.018767178 0.66676629
-0.043645032 0.017971486 0.66742563
-0.043791085 0.017173022 0.66811705
-0.04394614 0.016372085 0.66885108
-0.044109762 0.015568197 0.66962552
-0.044286598 0.014762223 0.67046267
-0.044472605 0.013952196 0.67134321
-0.044673003 0.013139158 0.67229182
-0.044887215 0.012322009 0.67330587
-0.04512151 0.01150158 0.67441493
-0.045377631 0.010677069 0.67562735
-0.045658883 0.0098479986 0.67695874
-0.045975592 0.0090148747 0.67845792
-0.046341959 0.0081779957 0.68019223
-0.046787355 0.0073392391 0.68230063
-0.047370315 0.0065018237 0.68506026
-0.043147758 0.062995732 0.66915673
-0.04266927 0.061443776 0.66684639
-0.042355318 0.060144573 0.66533047
-0.042121843 0.0589706 0.66420317
-0.041936006 0.057871699 0.66330588
-0.041780673 0.056821734 0.66255581
-0.04164644 0.055806279 0.66190767
-0.041530844 0.054820716 0.66134959
-0.041434824 0.053865314 0.66088593
-0.041346483 0.052923471 0.6604594
-0.041273363 0.052004486 0.66010636
-0.04120769 0.051097572 0.65978926
-0.041151434 0.050204754 0.65951765
-0.041102756 0.04932335 0.65928257
-0.041061066 0.048452049 0.65908128
-0.04102632 0.047590554 0.65891349
-0.04099768 0.046737343 0.65877521
-0.040973373 0.045890212 0.65865779
-0.040956605 0.04505226 0.65857691
-0.040941186 0.044216543 0.65850246
-0.040935289 0.043391436 0.65847397
-0.040929936 0.042567134 0.6584481
-0.04093181 0.041750461 0.65845716
-0.040936094 0.040936142 0.65847784
-0.040944669 0.040125787 0.65851927
-0.040958617 0.03932026 0.65858656
-0.040974043 0.038515598 0.65866113
-0.040996067 0.037716359 0.65876746
-0.041019458 0.036917508 0.65888035
-0.04104786 0.036122143 0.65901744
-0.041080482 0.035329252 0.65917504
-0.041115183 0.034536779 0.65934253
-0.041155357 0.033747435 0.65953654
-0.041197106 0.032957703 0.65973812
-0.041243967 0.032170355 0.65996438
-0.041294754 0.031384021 0.66020966
-0.041347854 0.030597448 0.66046596
-0.041406568 0.029812723 0.6607495
-0.041466963 0.029026866 0.66104114
-0.041533463 0.028242767 0.66136223
-0.041603085 0.027458042 0.66169834
-0.041675437 0.026672304 0.66204768
-0.041754868 0.025887996 0.66243124
-0.041835167 0.025101125 0.66281891
-0.041923922 0.024315894 0.66324753
-0.042015169 0.023528516 0.66368806
-0.042108376 0.022738516 0.66413808
-0.042210393 0.02194941 0.66463071
-0.042316061 0.02115804 0.66514093
-0.042429019 0.020365924 0.66568637
-0.042546347 0.019571364 0.66625285
-0.042672329 0.018775851 0.66686112
-0.042802423 0.017977029 0.66748929
-0.042941574 0.017176628 0.66816115
-0.043086823 0.016373008 0.66886246
-0.043243218 0.015567601 0.66961759
-0.043407235 0.014758497 0.67040956
-0.043584943 0.013947189 0.67126763
-0.043770701 0.013131231 0.67216456
-0.043973967 0.01231274 0.67314601
-0.044190209 0.011489481 0.6741901
-0.044424988 0.010661989 0.67532372
-0.044686053 0.0098309219 0.67658424
-0.044974767 0.0089949667 0.67797828
-0.045301333 0.0081542432 0.67955506
-0.045682505 0.0073091984 0.68139559
-0.046149183 0.0064609051 0.68364888
-0.046822183 0.0056186914 0.68689841
-0.042311072 0.06217137 0.66928613
-0.041869443 0.060667992 0.66711026
-0.041577335 0.059396207 0.66567105
-0.041355021 0.058234632 0.6645757
-0.04117763 0.057144463 0.66370171
-0.041030023 0.056102306 0.66297448
-0.040902298 0.055092931 0.66234517
-0.040789202 0.054108143 0.66178799
-0.040697526 0.053155988 0.66133624
-0.040613659 0.052217573 0.66092306
-0.040541802 0.051297814 0.66056901
-0.040479816 0.050393283 0.6602636
-0.040424421 0.049499303 0.65999067
-0.040379014 0.048619658 0.65976691
-0.040337957 0.047746986 0.65956467
-0.040306129 0.046886772 0.65940785
-0.040278055 0.046032041 0.65926957
-0.040256228 0.045185566 0.65916193
-0.04023971 0.044345826 0.65908062
-0.040226638 0.043510467 0.65901619
-0.040220831 0.042683333 0.65898758
-0.040215816 0.041857272 0.65896285
-0.040219381 0.041040212 0.65898049
-0.040223867 0.040223897 0.65900254
-0.040233899 0.039412826 0.65905201
-0.040247768 0.038605034 0.65912032
-0.040263765 0.037798673 0.65919912
-0.040286656 0.036997974 0.65931189
-0.040310368 0.036197096 0.65942872
-0.040339552 0.035400033 0.65957248
-0.040371835 0.03460446 0.65973157
-0.040407229 0.033810139 0.65990597
-0.040447496 0.03301838 0.66010439
-0.040489443 0.032226324 0.66031104
-0.04053684 0.031436771 0.66054451
-0.040587034 0.030647367 0.66079187
-0.040640995 0.029858738 0.66105771
-0.040699419 0.029071063 0.66134554
-0.040759228 0.028281927 0.66164023
-0.040826421 0.027495384 0.66197133
-0.040895335 0.026707202 0.6623109
-0.040969003 0.025919169 0.66267383
-0.041047473 0.025131106 0.66306043
-0.041127067 0.02434051 0.66345263
-0.041216813 0.023552477 0.66389477
-0.041306671 0.022760838 0.66433752
-0.041401252 0.021968037 0.6648035
-0.041501887 0.021174461 0.6652993
-0.041608524 0.020379692 0.66582471
-0.041720536 0.019583136 0.66637659
-0.041838434 0.018784642 0.66695744
-0.041963752 0.01798448 0.66757494
-0.042094447 0.017181426 0.66821885
-0.042233378 0.016376257 0.66890335
-0.042379674 0.015568048 0.66962415
-0.042535398 0.014757216 0.67039144
-0.042701047 0.013943225 0.67120755
-0.042879082 0.013126284 0.67208469
-0.043066327 0.012304693 0.67300725
-0.043269262 0.011479616 0.67400706
-0.043489691 0.010650575 0.67509311
-0.043727346 0.0098163784 0.67626411
-0.043988917 0.0089773536 0.67755282
-0.044284325 0.0081338584 0.67900825
-0.044620734 0.0072850287 0.68066579
-0.045015946 0.0064308643 0.68261296
-0.045527529 0.0055748522 0.68513352
-0.04634089 0.0047287047 0.68914092
-0.041479938 0.06135577 0.66944885
-0.041072764 0.05989778 0.66740096
-0.040802579 0.058653742 0.66604203
-0.040590737 0.057503551 0.66497654
-0.040416829 0.05641517 0.66410184
-0.040276255 0.055379838 0.66339481
-0.040154912 0.054376453 0.66278452
-0.040046845 0.053395808 0.66224104
-0.039956901 0.052443445 0.66178864
-0.039877553 0.051508546 0.66138947
-0.039806701 0.050587714 0.66103315
-0.039748464 0.049685568 0.66074026
-0.039694462 0.04879114 0.66046858
-0.039651737 0.047912508 0.66025376
-0.039611582 0.047038764 0.66005176
-0.039582465 0.046179533 0.65990531
-0.039554693 0.045323104 0.6597656
-0.039535418 0.044477344 0.65966868
-0.039519157 0.043635726 0.65958697
-0.039508235 0.042800605 0.65953201
-0.039502647 0.041971564 0.65950388
-0.039499007 0.041144818 0.65948558
-0.039503165 0.040326178 0.65950644
-0.039508235 0.039508253 0.65953195
-0.039519418 0.03869611 0.65958822
-0.039532945 0.037885725 0.65965629
-0.039550524 0.037078619 0.65974468
-0.039573204 0.036275476 0.6598587
-0.039597735 0.035472989 0.65998214
-0.039627399 0.034673959 0.66013134
-0.039659068 0.033875465 0.6602906
-0.039695248 0.033079386 0.66047257
-0.039735705 0.032285273 0.66067606
-0.039778352 0.03149122 0.66089052
-0.039825711 0.030699015 0.66112876
-0.039875038 0.029906303 0.66137689
-0.039930064 0.029115707 0.66165364
-0.039988037 0.028324902 0.66194522
-0.040048849 0.027533621 0.66225106
-0.040115338 0.026743591 0.6625855
-0.040183261 0.025951713 0.66292709
-0.040258162 0.025161386 0.66330379
-0.040335644 0.024369478 0.66369355
-0.040416691 0.023576438 0.66410112
-0.040505167 0.022784173 0.66454613
-0.040593617 0.021988213 0.66499108
-0.040689487 0.021192461 0.66547322
-0.040789414 0.020394742 0.66597581
-0.040896099 0.01959607 0.66651237
-0.041008104 0.018795401 0.66707575
-0.041126493 0.017992854 0.6676712
-0.041250393 0.017187685 0.66829431
-0.041381452 0.016380221 0.66895354
-0.041520812 0.015570313 0.66965449
-0.041667331 0.014757216 0.67039144
-0.041823186 0.013941079 0.6711753
-0.041990194 0.013121963 0.67201531
-0.042167719 0.012298942 0.67290819
-0.042357061 0.011471719 0.67386043
-0.04255987 0.010639966 0.6748805
-0.042783372 0.0098045468 0.67600465
-0.043025874 0.0089637637 0.67722434
-0.043292049 0.0081172884 0.67856312
-0.043592211 0.007265389 0.68007278
-0.043939129 0.0064077973 0.68181765
-0.04436066 0.0055451095 0.68393779
-0.044909623 0.0046781003 0.68669879
-0.040647645 0.060539097 0.66961259
-0.040281557 0.059136778 0.66773218
-0.040025014 0.057908595 0.66641432
-0.039823439 0.056769609 0.66537899
-0.039657161 0.055688828 0.66452485
-0.039519344 0.054654419 0.66381693
-0.039404128 0.053656667 0.66322511
-0.039301395 0.052680612 0.66269743
-0.039212927 0.051727712 0.66224301
-0.039137878 0.050796002 0.66185749
-0.039069086 0.049875468 0.66150415
-0.039013736 0.048974723 0.66121984
-0.038961381 0.048080027 0.6609509
-0.038921017 0.04720211 0.66074353
-0.038882531 0.046328157 0.66054589
-0.038855035 0.045468688 0.66040468
-0.038827837 0.044610739 0.66026491
-0.03881092 0.043765545 0.66017807
-0.038795169 0.042922348 0.66009712
-0.03878621 0.042087227 0.66005111
-0.038780585 0.041255981 0.66002214
-0.03877892 0.040429115 0.66001362
-0.03878314 0.03960833 0.66003537
-0.038788643 0.038788676 0.66006362
-0.038801055 0.03797552 0.6601274
-0.038814891 0.037163168 0.66019845
-0.038833607 0.03635487 0.66029459
-0.038855936 0.035549074 0.66040927
-0.038880989 0.03474474 0.66053796
-0.038911227 0.033943862 0.66069329
-0.038943186 0.033143163 0.66085744
-0.038979851 0.032345027 0.66104573
-0.039019693 0.031547844 0.66125041
-0.039063118 0.030751824 0.66147345
-0.039110411 0.029956907 0.6617164
-0.039159514 0.029161334 0.66196859
-0.03921476 0.028368175 0.66225243
-0.039272256 0.027574182 0.66254771
-0.039334133 0.026780725 0.66286558
-0.039399903 0.025987178 0.66320336
-0.039467081 0.025191784 0.66354847
-0.039542869 0.024398834 0.66393781
-0.039619215 0.023602962 0.66432989
-0.039701752 0.022807389 0.66475391
-0.039788943 0.022010922 0.66520178
-0.039876245 0.02121079 0.66565025
-0.039973035 0.02041176 0.66614735
-0.040072482 0.019609928 0.66665822
-0.040179562 0.018807471 0.66720825
-0.040291082 0.018002391 0.66778105
-0.040409748 0.017195642 0.66839063
-0.040533025 0.016385704 0.66902387
-0.040664654 0.01557371 0.66969991
-0.040802941 0.014758557 0.67041028
-0.040950444 0.013940603 0.67116797
-0.041106056 0.013118982 0.67196727
-0.041274443 0.012294501 0.67283225
-0.041450791 0.011465162 0.67373806
-0.041643392 0.010632396 0.67472738
-0.041847769 0.0097941458 0.6757772
-0.042071167 0.0089513361 0.67692471
-0.042318579 0.0081035793 0.6781956
-0.042591736 0.0072496831 0.67959869
-0.042900663 0.0063894689 0.68118554
-0.043261327 0.005522728 0.68303812
-0.043703023 0.0046492517 0.68530691
-0.044333287 0.0037730634 0.68854439
-0.040510163 0.061645895 0.67343003
-0.039819416 0.059729159 0.66980469
-0.039487813 0.058373332 0.66806442
-0.039244484 0.057160467 0.66678733
-0.039052978 0.056032568 0.66578221
-0.038894724 0.054959953 0.66495174
-0.038760059 0.053927064 0.66424495
-0.038650192 0.052933931 0.66366833
-0.038552564 0.051962197 0.66315597
-0.038466226 0.051009595 0.6627028
-0.038394872 0.050080299 0.6623283
-0.038328249 0.049160153 0.66197866
-0.038275346 0.048260272 0.66170102
-0.038225763 0.047366738 0.66144079
-0.038186572 0.046488017 0.66123509
-0.038150996 0.045615345 0.66104841
-0.038124077 0.044754386 0.66090715
-0.038098458 0.043896079 0.66077268
-0.038082696 0.043050021 0.66068995
-0.03806733 0.042205125 0.66060925
-0.038060278 0.041369885 0.66057229
-0.038055118 0.040537 0.66054523
-0.038055118 0.039709747 0.66054523
-0.038059149 0.038886517 0.66056633
-0.038065568 0.038065583 0.66060007
-0.038078666 0.037250876 0.66066873
-0.038093161 0.036436945 0.66074485
-0.038112588 0.035627007 0.66084683
-0.038134564 0.03481853 0.66096216
-0.038160361 0.034012496 0.66109753
-0.038190879 0.033209532 0.66125768
-0.038223606 0.032406986 0.66142952
-0.038260456 0.031606495 0.66162288
-0.038299549 0.030806184 0.66182804
-0.038343702 0.030008107 0.66205978
-0.038390774 0.029210389 0.66230685
-0.038440913 0.028412879 0.66257
-0.038495563 0.027616411 0.66285676
-0.038552307 0.026819021 0.6631546
-0.038615044 0.026023239 0.66348386
-0.038680069 0.025226146 0.66382515
-0.038748443 0.024428368 0.66418397
-0.038822953 0.023631394 0.66457498
-0.038898405 0.022831708 0.66497099
-0.038982205 0.022033453 0.66541082
-0.039067958 0.021232605 0.66586089
-0.039155956 0.020429224 0.66632271
-0.039251711 0.019625872 0.66682529
-0.039351974 0.018820524 0.66735148
-0.039458159 0.018013537 0.66790879
-0.039569139 0.017204016 0.66849124
-0.039687995 0.016392887 0.66911501
-0.039811701 0.015578508 0.66976428
-0.039942835 0.014761508 0.67045248
-0.040081114 0.013941258 0.67117822
-0.040228505 0.013118029 0.67195177
-0.040384781 0.012291014 0.67277199
-0.040554132 0.01146096 0.67366076
-0.040730678 0.010625422 0.67458731
-0.040923893 0.0097861588 0.67560136
-0.041131888 0.0089417398 0.67669296
-0.041356415 0.0080915093 0.67787135
-0.041604903 0.0072356761 0.6791755
-0.041884735 0.0063737929 0.68064415
-0.042202681 0.0055046976 0.68231285
-0.042576313 0.0046278536 0.68427378
-0.043055456 0.0037439764 0.68678844
-0.043811411 0.0028572977 0.6907559
-0.039558213 0.060655951 0.67304754
-0.039004385 0.058939964 0.67007625
-0.038691513 0.057607383 0.66839778
-0.038461249 0.056409866 0.66716242
-0.038279604 0.055292785 0.66618788
-0.038128953 0.054227889 0.66537964
-0.037999742 0.053199649 0.66468644
-0.037892815 0.052207887 0.66411281
-0.037800319 0.051240474 0.66361654
-0.037716232 0.05028832 0.66316545
-0.037648253 0.04936105 0.66280073
-0.037585404 0.048443437 0.66246355
-0.037533529 0.047542483 0.66218519
-0.037487037 0.046650559 0.66193581
-0.037448503 0.045770437 0.6617291
-0.037415773 0.044898927 0.6615535
-0.037389304 0.044036329 0.66141152
-0.037366223 0.043178767 0.66128767
-0.037350729 0.042330831 0.66120452
-0.037336111 0.041484624 0.66112608
-0.037330661 0.040648967 0.66109693
-0.03732596 0.039814383 0.66107166
-0.037327442 0.038986474 0.66107965
-0.037331652 0.038161278 0.66110218
-0.037339579 0.037339568 0.66114473
-0.037352461 0.036522448 0.66121382
-0.037367463 0.035706729 0.66129428
-0.037387691 0.034895182 0.66140282
-0.037410054 0.034084707 0.66152281
-0.037436299 0.033276737 0.66166365
-0.037466574 0.032471061 0.66182601
-0.037499774 0.031666487 0.66200417
-0.037536781 0.030863613 0.66220272
-0.03757612 0.030060917 0.66241372
-0.037620194 0.029260129 0.66265023
-0.037667017 0.028459549 0.6629014
-0.037717875 0.027659804 0.66317427
-0.037772164 0.026860207 0.66346556
-0.03782839 0.026059568 0.66376716
-0.037891541 0.025261045 0.66410595
-0.037955798 0.024460435 0.66445065
-0.038025282 0.023660183 0.66482347
-0.03809876 0.022859275 0.66521764
-0.038173817 0.022056013 0.66562033
-0.038258009 0.02125448 0.66607201
-0.038342312 0.020449251 0.66652429
-0.038431313 0.019642681 0.66700178
-0.038526006 0.018834949 0.66750979
-0.03862673 0.018025815 0.66805017
-0.038732246 0.017214358 0.66861629
-0.038843565 0.016400635 0.66921353
-0.038961325 0.015584528 0.66984522
-0.039085228 0.014765531 0.67050999
-0.039216612 0.013943702 0.67121482
-0.039354935 0.013118327 0.6719569
-0.039502274 0.012289613 0.67274743
-0.039659664 0.011457235 0.67359179
-0.039828312 0.010620892 0.67449659
-0.040006503 0.0097794235 0.67545253
-0.040198635 0.0089330673 0.67648333
-0.04041031 0.0080820918 0.67761892
-0.04063889 0.0072247088 0.67884529
-0.040889964 0.0063606799 0.68019223
-0.041173197 0.0054897666 0.68171179
-0.041500427 0.0046111643 0.68346733
-0.041897975 0.0037243068 0.68560016
-0.042415738 0.0028277338 0.68837792
-0.043640669 0.0019396245 0.69494957
-0.038672075 0.059765935 0.6730088
-0.038187366 0.05814898 0.67034918
-0.037892651 0.056838989 0.66873217
-0.037675161 0.055656523 0.66753882
-0.037503161 0.054550052 0.66659504
-0.037360094 0.053492904 0.66581011
-0.037237253 0.052470684 0.6651361
-0.037132617 0.05147931 0.66456199
-0.037044644 0.050515473 0.66407925
-0.036964532 0.04956612 0.66363972
-0.036898244 0.048638612 0.66327602
-0.036839098 0.047723383 0.66295147
-0.036788002 0.046821117 0.66267109
-0.036744654 0.045930862 0.66243327
-0.036706913 0.045049429 0.66222614
-0.036676828 0.044178933 0.6620611
-0.036650941 0.043314755 0.66191912
-0.036630206 0.042457759 0.66180533
-0.036614977 0.041607946 0.66172177
-0.036602557 0.040761918 0.66165364
-0.036597203 0.039924234 0.66162419
-0.036592945 0.039087921 0.66160089
-0.036595866 0.038259327 0.66161686
-0.036600489 0.037432313 0.66164225
-0.036609497 0.036609501 0.66169167
-0.036622286 0.035789996 0.66176182
-0.036637887 0.034972548 0.66184747
-0.03665863 0.034159213 0.6619612
-0.036681592 0.033346921 0.66208726
-0.036708385 0.032536983 0.66223425
-0.036738031 0.031728327 0.66239691
-0.036771905 0.030921847 0.66258276
-0.036808912 0.030116349 0.66278589
-0.036848962 0.029311717 0.66300559
-0.036892802 0.028508067 0.66324615
-0.03693898 0.027704269 0.66349947
-0.036990616 0.026902288 0.66378284
-0.037044395 0.026099503 0.66407788
-0.037101582 0.025296539 0.66439164
-0.037163582 0.024494171 0.66473192
-0.037227176 0.023690045 0.66508079
-0.037297562 0.02288717 0.66546696
-0.037369985 0.022082299 0.66586441
-0.03744626 0.021276265 0.66628289
-0.037529115 0.02047044 0.6667375
-0.037612081 0.01966089 0.66719276
-0.037701998 0.018851012 0.66768605
-0.03779611 0.018039078 0.6682024
-0.037896432 0.017225713 0.66875291
-0.03800201 0.016409993 0.66933215
-0.038113456 0.01559186 0.66994369
-0.03822954 0.014770538 0.67058063
-0.038353682 0.013946831 0.67126173
-0.038484957 0.013119876 0.67198205
-0.038623501 0.012289315 0.67274219
-0.038770553 0.01145497 0.67354912
-0.03892919 0.010617048 0.67441952
-0.039096769 0.0097742081 0.67533898
-0.039277982 0.0089268386 0.67633325
-0.039470367 0.0080735087 0.67738885
-0.039682373 0.0072149932 0.67855209
-0.039915476 0.0063502192 0.67983109
-0.040172879 0.0054781437 0.68124342
-0.040463939 0.0045981407 0.68284047
-0.040803816 0.0037094653 0.68470532
-0.041220028 0.0028104484 0.68698895
-0.041807726 0.0019003749 0.69021362
-0.042420764 0.00096413493 0.69357723
-0.042187467 2.9802322e-08 0.69229716
-0.041945688 -0.00095331669 0.69097054
-0.04170651 -0.0018957257 0.68965816
-0.03778626 0.058876306 0.67297
-0.037368085 0.057355702 0.67062211
-0.03709197 0.056069285 0.66907191
-0.036887079 0.054901719 0.66792154
-0.036723632 0.053804427 0.66700387
-0.036587991 0.052754819 0.66624236
-0.036471266 0.051738352 0.66558701
-0.036369544 0.050748259 0.66501588
-0.036285512 0.049787134 0.66454405
-0.036209788 0.048841119 0.66411895
-0.036144577 0.047912598 0.66375285
-0.036089044 0.046999693 0.66344106
-0.036039472 0.04609701 0.66316277
-0.035998709 0.045207709 0.66293383
-0.035961766 0.044324964 0.66272652
-0.035934258 0.043455392 0.66257203
-0.03590871 0.042589396 0.6624285
-0.035890382 0.041732967 0.66232568
-0.03587554 0.040881455 0.66224229
-0.035865013 0.040035367 0.66218317
-0.035859872 0.039195687 0.66215438
-0.035856526 0.038358182 0.6621356
-0.035860348 0.037528306 0.66215706
-0.035865493 0.036699563 0.66218591
-0.03587554 0.035875529 0.66224235
-0.035888582 0.035053998 0.66231549
-0.035904754 0.034234792 0.66240638
-0.035925616 0.033419192 0.66252351
-0.035949025 0.032604963 0.66265494
-0.035976198 0.031792969 0.66280746
-0.036006182 0.030982107 0.66297579
-0.036039837 0.030172944 0.66316473
-0.036076941 0.029364973 0.66337311
-0.036117639 0.028558165 0.66360158
-0.036161102 0.027751595 0.6638456
-0.036207229 0.026944906 0.66410458
-0.03625885 0.026140124 0.66439444
-0.036312211 0.02533409 0.66469401
-0.036370158 0.024528712 0.66501939
-0.036431372 0.023722768 0.66536301
-0.036494404 0.022915095 0.66571695
-0.03656511 0.022109181 0.66611391
-0.036636461 0.021300256 0.66651452
-0.03671398 0.02049154 0.66694969
-0.036795482 0.019681334 0.66740727
-0.036877342 0.018867522 0.66786689
-0.036967825 0.018054068 0.6683749
-0.037061688 0.017238021 0.66890192
-0.037161678 0.016420305 0.66946328
-0.037266724 0.015600055 0.67005306
-0.037378211 0.014777482 0.67067903
-0.037494548 0.01395148 0.67133218
-0.03761806 0.013122618 0.67202562
-0.037748076 0.01229012 0.6727556
-0.037887268 0.011454284 0.67353714
-0.03803448 0.010614306 0.67436361
-0.03819437 0.0097706914 0.67526126
-0.038360119 0.0089209974 0.67619187
-0.038543325 0.0080672503 0.67722046
-0.038738746 0.0072072148 0.67831767
-0.038949836 0.0063407123 0.67950284
-0.039185494 0.0054678023 0.68082595
-0.039448887 0.0045871139 0.68230474
-0.039748125 0.0036975443 0.68398476
-0.040099867 0.002797693 0.68595958
-0.040546637 0.0018859208 0.68846798
-0.041080039 0.00095537305 0.69146276
-0.040919874 2.9802322e-08 0.6905635
-0.040686954 -0.00094619393 0.68925583
-0.040456824 -0.0018816888 0.68796372
-0.040599123 -0.0028324723 0.68876266
-0.036935534 0.058041573 0.67313105
-0.036547173 0.056561083 0.67089868
-0.03629319 0.055303931 0.66943872
-0.036098558 0.05414781 0.66832006
-0.035941862 0.053057045 0.66741931
-0.035812624 0.052013576 0.6666764
-0.035702012 0.05100289 0.66604066
-0.035604026 0.050015211 0.6654774
-0.035522897 0.049055457 0.66501105
-0.035451349 0.048112571 0.66459978
-0.035388187 0.047184229 0.66423672
-0.03533547 0.046272665 0.66393363
-0.035287526 0.045369685 0.66365814
-0.035248935 0.04448083 0.66343629
-0.035213143 0.043597251 0.66323054
-0.035187788 0.042728037 0.66308481
-0.035162825 0.041860551 0.66294134
-0.03514671 0.041004509 0.66284871
-0.035132375 0.040151298 0.66276628
-0.035123684 0.039305091 0.66271633
-0.03511887 0.038463563 0.66268867
-0.035116993 0.037625372 0.66267788
-0.035120748 0.036793143 0.66269946
-0.035126384 0.035962731 0.66273183
-0.035137545 0.035137564 0.66279602
-0.035151061 0.034314126 0.66287374
-0.035167888 0.03349328 0.66297042
-0.035188381 0.032674938 0.6630882
-0.035212435 0.031858891 0.66322643
-0.03523995 0.031044751 0.66338462
-0.035270471 0.030231863 0.66356009
-0.035304006 0.029420018 0.66375285
-0.035340577 0.028609067 0.66396308
-0.035381872 0.027800053 0.66420043
-0.035425171 0.026990622 0.66444933
-0.035471935 0.026181698 0.66471809
-0.035522658 0.02537331 0.66500968
-0.035575457 0.024564028 0.66531318
-0.035634212 0.023756146 0.6656509
-0.035694618 0.022946566 0.6659981
-0.035758633 0.022136331 0.6663661
-0.035828136 0.021326274 0.66676557
-0.035898395 0.020513415 0.66716945
-0.035976935 0.019701689 0.6676209
-0.036057059 0.018887073 0.66808146
-0.03613928 0.018069655 0.66855407
-0.03622862 0.01725176 0.66906762
-0.036323048 0.016431898 0.66961038
-0.036422137 0.015609533 0.67017996
-0.036526337 0.014784515 0.67077893
-0.036637779 0.013957262 0.6714195
-0.0367544 0.013126552 0.67208993
-0.036877591 0.012292564 0.67279804
-0.037007865 0.011454821 0.67354685
-0.037146412 0.010613292 0.67434323
-0.037294075 0.0097675025 0.675192
-0.03745373 0.0089175403 0.67610973
-0.037620682 0.0080615878 0.67706943
-0.037802588 0.0072005391 0.67811501
-0.038001236 0.0063335598 0.67925686
-0.038215876 0.0054594278 0.68049061
-0.03845166 0.0045776069 0.6818459
-0.038717747 0.0036874413 0.68337548
-0.039025042 0.0027875006 0.68514186
-0.039398175 0.0018761158 0.68728662
-0.039809402 0.00094789267 0.68965042
-0.039670974 2.9802322e-08 0.68885469
-0.039446983 -0.00093919039 0.68756717
-0.039379273 -0.0018751621 0.68717802
-0.039565366 -0.0028260946 0.68824768
-0.039940447 -0.0038038194 0.69040364
-0.036084909 0.057207793 0.67330062
-0.035730816 0.055774957 0.67121553
-0.03549441 0.054540217 0.66982359
-0.035309665 0.053395122 0.66873574
-0.035158139 0.05230847 0.66784352
-0.035034452 0.051269948 0.66711521
-0.034929231 0.050264031 0.66649556
-0.034836464 0.049280882 0.66594929
-0.034757253 0.048321098 0.66548294
-0.03468943 0.047380686 0.66508353
-0.034628298 0.046452582 0.66472363
-0.0345781 0.045541912 0.66442806
-0.034531888 0.044638813 0.6641559
-0.034495421 0.043750316 0.66394114
-0.034462392 0.042867899 0.66374671
-0.03443763 0.041997135 0.66360092
-0.034413598 0.041128427 0.66345942
-0.034399174 0.040272206 0.66337442
-0.034385219 0.039417207 0.66329229
-0.034378421 0.038570911 0.66325223
-0.034373928 0.037727505 0.66322583
-0.034373581 0.036888748 0.66322374
-0.0343775 0.036054462 0.66324675
-0.034383375 0.035221994 0.66328144
-0.034395367 0.034395397 0.66335207
-0.034409445 0.0335702 0.66343492
-0.034426998 0.032747656 0.66353828
-0.034447812 0.031927258 0.66366082
-0.034471542 0.031108499 0.66380054
-0.034499366 0.030292183 0.66396445
-0.034530491 0.029477298 0.66414773
-0.034564123 0.02866292 0.66434574
-0.034600846 0.027849466 0.66456199
-0.034641746 0.027037472 0.66480279
-0.034684855 0.02622512 0.66505665
-0.034732305 0.025413901 0.66533601
-0.034782358 0.024602175 0.66563082
-0.034834921 0.023789734 0.66594028
-0.034893699 0.022978783 0.66628635
-0.034953274 0.022165507 0.66663712
-0.035018187 0.021352589 0.66701937
-0.035086464 0.020538419 0.66742146
-0.035156574 0.019721985 0.66783428
-0.03523507 0.018906653 0.66829646
-0.035313677 0.018087506 0.66875935
-0.035396665 0.017266691 0.66924798
-0.035485324 0.016444415 0.66977006
-0.035579484 0.015620261 0.6703245
-0.035678368 0.014793485 0.67090678
-0.035782546 0.013963968 0.67152017
-0.035892103 0.013131291 0.67216527
-0.036008779 0.012295723 0.67285228
-0.036131941 0.01145646 0.67357755
-0.036261976 0.010613292 0.67434323
-0.03640018 0.0097659528 0.67515701
-0.036548555 0.0089142919 0.6760307
-0.036707208 0.0080577135 0.67696494
-0.036876656 0.0071954429 0.67796266
-0.037056912 0.0063268244 0.6790241
-0.037257329 0.0054523051 0.68020421
-0.03747594 0.0045702457 0.68149143
-0.037717372 0.0036797523 0.68291306
-0.037990198 0.0027797818 0.68451953
-0.038309157 0.0018687546 0.68639767
-0.038603418 0.00094157457 0.68813038
-0.038440663 2.9802322e-08 0.68717206
-0.038350981 -0.00093537569 0.68664396
-0.038456947 -0.001875937 0.68726796
-0.03859514 -0.0028240085 0.68808162
-0.038810976 -0.0037864149 0.68935263
-0.035233051 0.056372911 0.67347115
-0.034916256 0.054993123 0.67155915
-0.034692679 0.053773642 0.67020977
-0.034517609 0.052639365 0.66915309
-0.034373552 0.051560342 0.66828364
-0.034253191 0.05052349 0.66755724
-0.034153122 0.049522042 0.66695327
-0.034065232 0.048542976 0.66642278
-0.033988405 0.047583789 0.66595906
-0.033923768 0.046645194 0.66556895
-0.033864647 0.045717299 0.66521215
-0.033817157 0.044807762 0.66492552
-0.033773333 0.043905318 0.66466099
-0.033738147 0.043016136 0.66444862
-0.033707805 0.042134792 0.66426551
-0.033683524 0.041262358 0.66411895
-0.033661883 0.040394247 0.66398835
-0.033647735 0.039536119 0.66390294
-0.033634163 0.038679302 0.6638211
-0.033629078 0.037832737 0.66379029
-0.033625122 0.036987633 0.6637665
-0.033626139 0.036148161 0.66377258
-0.033630434 0.035311967 0.66379851
-0.033637442 0.034478426 0.66384083
-0.033649206 0.033649236 0.66391182
-0.033663694 0.032822132 0.66399926
-0.033681821 0.03199777 0.66410869
-0.033703148 0.031175435 0.66423738
-0.033727117 0.03035441 0.66438204
-0.033754647 0.029535323 0.66454822
-0.033786099 0.028718203 0.66473806
-0.033819783 0.027901351 0.66494131
-0.033857085 0.027085692 0.6651665
-0.03389734 0.026270479 0.66540945
-0.033939991 0.025455028 0.66566688
-0.033988062 0.024641365 0.66595697
-0.034037653 0.023826361 0.66625631
-0.034090877 0.023011327 0.66657758
-0.034148581 0.022196591 0.66692579
-0.034207296 0.02137956 0.6672802
-0.034272902 0.020563781 0.66767609
-0.034340173 0.019745618 0.66808224
-0.034411259 0.018926203 0.66851121
-0.034488346 0.018106401 0.66897649
-0.034565419 0.017282724 0.6694417
-0.034649197 0.016458392 0.66994733
-0.034737237 0.015631795 0.6704787
-0.034830697 0.014803052 0.67104274
-0.034929417 0.013971776 0.67163861
-0.035033479 0.013137549 0.67226666
-0.035142481 0.012299865 0.67292452
-0.035258003 0.011458874 0.67362177
-0.035380665 0.010614216 0.67436212
-0.03551048 0.0097654164 0.67514563
-0.035649002 0.0089122653 0.6759817
-0.035798717 0.0080547333 0.67688525
-0.035954606 0.0071909428 0.67782617
-0.036126457 0.0063221455 0.67886335
-0.036309179 0.0054464042 0.67996621
-0.036507078 0.0045633614 0.68116063
-0.036729231 0.0036729574 0.68250138
-0.036975823 0.0027731955 0.68398976
-0.037256233 0.0018628538 0.68568218
-0.037427485 0.00093570352 0.68671572
-0.037399091 -0 0.68654436
-0.037466299 -0.00093662739 0.68695003
-0.037545159 -0.0018772483 0.68742597
-0.037661731 -0.0028246343 0.68812954
-0.037818436 -0.0037818551 0.68907535
-0.0380705 -0.0047587752 0.6905967
-0.034978576 0.057400763 0.67734849
-0.0343877 0.055549383 0.6736908
-0.034099028 0.054208755 0.67190385
-0.033887982 0.053004265 0.67059743
-0.033722252 0.051880419 0.66957146
-0.033585738 0.050809234 0.66872638
-0.033469152 0.049774677 0.66800463
-0.033373673 0.048776925 0.66741365
-0.033290435 0.047801644 0.66689837
-0.033215977 0.046843082 0.66643745
-0.033154573 0.045906335 0.66605735
-0.033098899 0.044980586 0.66571271
-0.03305237 0.044069856 0.6654247
-0.033011664 0.043169141 0.6651727
-0.032977186 0.042278469 0.66495925
-0.032949347 0.04139787 0.66478699
-0.032925662 0.040523916 0.66464031
-0.032906231 0.039656281 0.66452003
-0.032892477 0.038796276 0.66443485
-0.032880615 0.037939191 0.66436148
-0.032875851 0.037090749 0.66433197
-0.032872304 0.036243826 0.66431004
-0.032874633 0.03540346 0.66432446
-0.032879397 0.034565508 0.66435397
-0.032887265 0.033730507 0.66440266
-0.032899354 0.03289938 0.66447747
-0.032913778 0.032069832 0.66456676
-0.032932553 0.031243712 0.66468298
-0.032954354 0.030419409 0.66481799
-0.032978527 0.02959615 0.6649676
-0.033006415 0.028774828 0.66514027
-0.033037487 0.027954847 0.66533256
-0.03307119 0.027135372 0.66554117
-0.033108898 0.026317388 0.66577458
-0.033148717 0.025499016 0.66602111
-0.033191569 0.024680883 0.66628635
-0.033239398 0.02386421 0.66658247
-0.033288389 0.023045808 0.66688573
-0.033342194 0.022228181 0.6672188
-0.033398807 0.021409512 0.66756922
-0.033457443 0.020589203 0.66793227
-0.033522967 0.019769967 0.66833782
-0.033588979 0.018947631 0.66874647
-0.033661172 0.018125236 0.66919339
-0.03373671 0.017300904 0.66966093
-0.033812936 0.016472995 0.67013282
-0.033896696 0.01564464 0.67065132
-0.033984534 0.014813751 0.67119509
-0.034077115 0.013980359 0.67176819
-0.034175228 0.013144314 0.67237556
-0.034279089 0.012305319 0.6730184
-0.034388062 0.011462718 0.673693
-0.034503222 0.010616392 0.67440587
-0.034625053 0.0097660422 0.67516011
-0.034754802 0.0089114904 0.67596328
-0.034892514 0.0080521405 0.67681575
-0.035042897 0.0071882904 0.67774665
-0.035198517 0.0063176751 0.67870998
-0.035370011 0.0054415464 0.67977154
-0.035555486 0.004558444 0.68091965
-0.035756014 0.0036673248 0.68216103
-0.035976321 0.0027674437 0.68352485
-0.036227182 0.0018578172 0.68507773
-0.036359347 0.00093230605 0.6858958
-0.036499031 2.9802322e-08 0.68676054
-0.036584154 -0.0009380579 0.68728745
-0.036649704 -0.0018794537 0.6876933
-0.036735669 -0.0028257668 0.68822539
-0.036860295 -0.0037804842 0.68899691
-0.037034906 -0.0047480166 0.69007778
-0.037387561 -0.0057519078 0.6922608
-0.034027893 0.056414694 0.67700672
-0.033550307 0.054739982 0.67397249
-0.033279125 0.053421766 0.67224967
-0.03308041 0.052232265 0.67098713
-0.032923803 0.051118553 0.66999221
-0.032794558 0.050054878 0.66917109
-0.032684065 0.049026102 0.66846907
-0.032591403 0.048029482 0.66788042
-0.032512043 0.047056943 0.66737616
-0.032440819 0.04610014 0.6669237
-0.03238159 0.04516381 0.66654742
-0.032329395 0.044240236 0.66621584
-0.032284599 0.043329388 0.66593122
-0.032246053 0.04242906 0.66568631
-0.032212622 0.041537344 0.66547394
-0.032186992 0.040657252 0.6653111
-0.032163795 0.03978157 0.66516376
-0.03214661 0.038914323 0.66505456
-0.032133248 0.038052559 0.66496962
-0.032123256 0.037195355 0.66490614
-0.0321187 0.036344916 0.66487718
-0.032115445 0.035496026 0.66485655
-0.032119025 0.034654766 0.66487932
-0.032124128 0.033814907 0.66491169
-0.032133032 0.032978684 0.66496825
-0.032145526 0.03214553 0.66504765
-0.032159988 0.031313688 0.66513956
-0.032178931 0.030485302 0.6652599
-0.032201163 0.029659003 0.66540116
-0.032225724 0.028833568 0.66555715
-0.032253932 0.028009981 0.66573638
-0.032284491 0.02718696 0.66593051
-0.032318074 0.026364774 0.66614389
-0.032356244 0.025544435 0.66638643
-0.032395825 0.024723113 0.6666379
-0.032439157 0.023902565 0.66691315
-0.032486048 0.023082197 0.667211
-0.032534409 0.022260427 0.66751832
-0.032588944 0.021440119 0.6678648
-0.032644562 0.020617634 0.66821814
-0.032703966 0.019794524 0.66859549
-0.03276822 0.018971115 0.66900373
-0.032833066 0.018144608 0.66941571
-0.032906026 0.017318994 0.6698792
-0.032980114 0.016490072 0.67034996
-0.033056371 0.015658289 0.67083442
-0.033139337 0.014825493 0.67136157
-0.03322725 0.013990432 0.67192006
-0.033319246 0.013152331 0.67250454
-0.033416219 0.01231125 0.67312062
-0.033519313 0.011467129 0.67377555
-0.033628158 0.010619432 0.67446709
-0.033743098 0.009767741 0.67519736
-0.033864498 0.0089116991 0.67596865
-0.033993702 0.008051157 0.67678952
-0.034131858 0.0071856678 0.6776672
-0.034281027 0.0063149631 0.67861485
-0.03443874 0.0054377019 0.67961693
-0.034607232 0.0045535862 0.68068737
-0.034795329 0.0036626756 0.68188238
-0.034999132 0.0027630925 0.68317717
-0.035180457 0.0018515885 0.68432915
-0.035375118 0.00093093514 0.68556589
-0.035575002 2.9802322e-08 0.68683583
-0.035689592 -0.00093919039 0.68756384
-0.035763837 -0.0018822849 0.68803549
-0.035830963 -0.002828747 0.68846196
-0.035929549 -0.0037820041 0.68908828
-0.036058743 -0.0047445595 0.6899091
-0.036261331 -0.0057254732 0.6911962
-0.033126138 0.055508673 0.67696571
-0.03271069 0.053928465 0.67425489
-0.032457214 0.052633345 0.67260104
-0.03227051 0.051458418 0.67138278
-0.032122578 0.050354332 0.67041755
-0.031999983 0.049297303 0.66961765
-0.031895343 0.04827404 0.66893488
-0.031805482 0.047278434 0.66834855
-0.031730033 0.046308696 0.66785628
-0.031662852 0.045354933 0.66741788
-0.031605773 0.044418931 0.66704547
-0.031556208 0.0434964 0.66672206
-0.03151302 0.042585164 0.66644025
-0.031476587 0.041685253 0.66620255
-0.031444188 0.040792435 0.66599119
-0.031420708 0.03991279 0.66583794
-0.031398114 0.039035529 0.66569054
-0.031382997 0.03816855 0.66559184
-0.031370129 0.037305027 0.66550791
-0.031361837 0.036447585 0.66545379
-0.031357694 0.035595268 0.66542673
-0.031355783 0.034745604 0.66541427
-0.031359393 0.033902049 0.66543788
-0.031364813 0.033060253 0.66547322
-0.031374592 0.032222569 0.66553706
-0.031387467 0.031387508 0.66562104
-0.031402588 0.030553877 0.66571969
-0.031421773 0.029723287 0.66584492
-0.031443655 0.028894186 0.66598761
-0.031468455 0.028066516 0.66614944
-0.031497151 0.027240813 0.66633672
-0.031527404 0.026414871 0.66653407
-0.031561371 0.02559033 0.66675574
-0.03159919 0.024766952 0.6670025
-0.031638287 0.0239425 0.66725761
-0.031682253 0.023119479 0.66754448
-0.031728186 0.022295505 0.66784418
-0.031776655 0.021470785 0.66816044
-0.031830855 0.020647079 0.66851407
-0.031885564 0.01982075 0.6688711
-0.031945646 0.018994749 0.66926312
-0.032008614 0.018167049 0.66967398
-0.032073494 0.017337024 0.67009729
-0.032145891 0.016507357 0.67056966
-0.032218508 0.015673876 0.67104352
-0.032295167 0.014838338 0.67154366
-0.032377403 0.014001042 0.67208034
-0.032464612 0.013161331 0.67264932
-0.032556299 0.012318611 0.67324758
-0.032652996 0.011472672 0.67387849
-0.032754563 0.010623097 0.67454123
-0.0393526 0.011699438 0.71759278
-0.039290961 0.010619193 0.71719056
-0.038486894 0.0093617141 0.71194404
-0.033375885 0.0072164237 0.67859524
-0.033366624 0.0063126385 0.67853481
-0.033513032 0.0054345727 0.67949015
-0.033672616 0.0045503974 0.68053138
-0.033842627 0.0036586523 0.68164074
-0.03402837 0.0027590692 0.68285269
-0.034148756 0.0018458664 0.68363822
-0.034378055 0.00092914701 0.68513435
-0.034611102 2.9802322e-08 0.68665498
-0.034772061 -0.00093978643 0.68770516
-0.034872796 -0.0018850267 0.68836248
-0.034936238 -0.0028326511 0.68877643
-0.035009306 -0.0037847757 0.68925321
-0.035118219 -0.004745692 0.68996382
-0.035264716 -0.0057185888 0.69091976
-0.035500992 -0.0067164004 0.69246143
-0.032227721 0.054608077 0.67694479
-0.0318693 0.053115517 0.67454123
-0.031632677 0.051842451 0.67295432
-0.031457558 0.050681621 0.67177999
-0.031318307 0.049587369 0.6708461
-0.031202102 0.048536628 0.67006683
-0.031103184 0.04751876 0.66940349
-0.031016208 0.046524346 0.6688202
-0.030944703 0.045557529 0.66834068
-0.030881252 0.044606268 0.66791523
-0.030826079 0.043670267 0.6675452
-0.030779095 0.042748749 0.66723007
-0.030737601 0.041837305 0.66695184
-0.030703336 0.040937781 0.66672206
-0.030673014 0.040045381 0.66651869
-0.030650569 0.039164633 0.66636813
-0.030628368 0.038285494 0.66621929
-0.030615354 0.037418783 0.66613203
-0.030602872 0.036553442 0.66604829
-0.030596321 0.035695702 0.66600442
-0.030592579 0.034841597 0.66597927
-0.030591957 0.033991069 0.66597509
-0.030595906 0.033145607 0.66600156
-0.030601209 0.032301277 0.66603714
-0.030611817 0.031462163 0.66610831
-0.030625138 0.030625135 0.66619766
-0.030640768 0.029789686 0.66630244
-0.030660482 0.028957158 0.66643465
-0.030681895 0.028125048 0.66657829
-0.030706896 0.027295023 0.6667459
-0.030735923 0.026467055 0.66694057
-0.030766161 0.025638491 0.66714334
