# .PCD v0.7 - Point Cloud Data file format
VERSION 0.7
FIELDS x y z
SIZE 4 4 4
TYPE F F F
COUNT 1 1 1
WIDTH 1340
HEIGHT 1
VIEWPOINT 0 0 0 1 0 0 0
POINTS 1340
DATA ascii
0.0018157818 -0.0090788901 0.68000513
0.0018130646 -0.0099718571 0.67967713
0.001810519 -0.010863066 0.67936987
0.0018073929 -0.011748046 0.67899251
0.0018029449 -0.012620598 0.67845559
0.0017972912 -0.01347968 0.67777318
0.0017903778 -0.014322996 0.67693865
0.0017825579 -0.015151709 0.67599463
0.0017751334 -0.015976191 0.67509842
0.001768583 -0.016801506 0.67430776
0.0017628814 -0.017628819 0.67361951
0.0017583899 -0.018463045 0.67307734
0.0017540011 -0.019293994 0.67254758
0.0017509874 -0.020136327 0.67218375
0.0017483442 -0.02098012 0.67186475
0.0017474224 -0.021842778 0.67175341
0.0017472698 -0.022714466 0.67173505
0.0017503381 -0.023629516 0.67210537
0.0017687579 -0.024762601 0.67432892
0.0018143465 -0.02630803 0.67983192
0.0018191884 -0.027287841 0.68041641
0.0018252339 -0.028291106 0.68114614
0.0018334402 -0.029335052 0.68213671
0.0018443002 -0.030430943 0.68344766
0.0018601662 -0.031622767 0.68536282
0.0019032499 -0.033306867 0.6905635
0.0032987786 0.040684938 0.72628611
0.0032498564 0.038998306 0.72234917
0.0032255128 0.037630975 0.72039014
0.0032073183 0.036349654 0.71892595
0.0031936704 0.035130382 0.71782768
0.0031820126 0.033941478 0.7168895
0.0031736435 0.032794356 0.71621603
0.0031656786 0.031656832 0.71557504
0.003154224 0.030490845 0.71465325
0.0031388162 0.029295623 0.71341336
0.0031185104 0.028066635 0.71177924
0.0030979023 0.026848525 0.7101208
0.0030775776 0.025646508 0.70848525
0.003059038 0.024472356 0.70699328
0.0030415587 0.023318648 0.70558667
0.003024278 0.022178084 0.70419598
0.003008229 0.021057665 0.70290446
0.0029931606 0.019954413 0.70169187
0.0029783139 0.018862665 0.70049703
0.0029671399 0.017802864 0.69959784
0.0037116953 0.021032989 0.75951511
0.0037384664 0.019938499 0.76166946
0.0037410192 0.01870513 0.76187491
0.0037369959 0.017439306 0.76155108
0.003731088 0.016168088 0.76107568
0.0037245336 0.014898151 0.76054823
0.0037171368 0.013629526 0.75995296
0.003705648 0.012352169 0.75902843
0.0036899617 0.011069924 0.75776607
0.0036681406 0.0097817481 0.75601006
0.0036350428 0.0084818006 0.75334656
0.0036179931 0.0072360039 0.75197446
0.0028240876 0.0047068 0.68808591
0.0028160664 0.0037547648 0.6874404
0.0028083639 0.002808392 0.68682057
0.0028011734 0.0018674731 0.68624192
0.0027940094 0.00093135238 0.68566543
0.0027869027 -0 0.68509352
0.002780244 -0.00092670321 0.68455768
0.0027740374 -0.0018493533 0.68405819
0.0027683484 -0.0027683377 0.68360037
0.0027626927 -0.0036835968 0.68314528
0.0027571516 -0.0045952201 0.68269926
0.0027519148 -0.0055038035 0.68227792
0.0027472309 -0.0064101517 0.68190098
0.0027430342 -0.0073147416 0.68156326
0.0027388399 -0.0082165003 0.68122572
0.0027347882 -0.0091159642 0.68089968
0.0027308378 -0.010013044 0.68058169
0.0027257996 -0.01090315 0.68017632
0.0027187692 -0.011781305 0.67961061
0.0027097778 -0.012645602 0.67888701
0.0026988741 -0.013494372 0.67800957
0.0026870186 -0.014330745 0.67705548
0.0026760867 -0.015164465 0.67617577
0.0026664748 -0.01599884 0.67540222
0.0026581266 -0.016834766 0.67473036
0.0026514407 -0.017676264 0.67419243
0.0026448348 -0.018513799 0.67366076
0.0026408145 -0.019365966 0.67333728
0.0026368899 -0.020216167 0.67302144
0.0026362231 -0.021089792 0.67296779
0.0026373349 -0.021977782 0.6730572
0.0026430464 -0.022906423 0.67351687
0.0027326078 -0.024593443 0.68072414
0.0027391298 -0.025565177 0.68124908
0.0027471907 -0.026556164 0.68189776
0.0027571314 -0.027571291 0.68269765
0.0027700854 -0.028624207 0.68374014
0.0027884042 -0.029742956 0.68521428
0.0028180014 -0.030997992 0.68759608
0.0043623638 0.040351897 0.72411281
0.0043281945 0.038953781 0.72205055
0.0043036244 0.037656695 0.72056764
0.0042846454 0.036419481 0.7194221
0.0042686169 0.035216093 0.71845472
0.0042570136 0.034056127 0.71775436
0.0042463918 0.032909572 0.71711332
0.0042313454 0.031735122 0.71620524
0.0042109587 0.030529469 0.71497476
0.0041837064 0.029285997 0.71332991
0.0041558896 0.02805227 0.71165109
0.0041284575 0.026835024 0.70999533
0.0041033356 0.025645852 0.70847917
0.0040797484 0.024478525 0.70705551
0.0040564146 0.02332443 0.70564717
0.0040347115 0.022190958 0.7043373
0.0040143989 0.021075606 0.70311135
0.0039943694 0.019971848 0.70190245
0.0039798659 0.018904388 0.70102704
0.0049784221 0.022402912 0.76129532
0.0050140931 0.021309912 0.76344818
0.0050171344 0.020068556 0.76363176
0.005011607 0.018793553 0.76329803
0.005003613 0.017512679 0.76281565
0.0049947477 0.016232938 0.76228058
0.0049846219 0.014953852 0.76166946
0.0049688066 0.013664246 0.76071495
0.004947288 0.012368232 0.75941622
0.0049173138 0.011063963 0.75760698
0.0048727309 0.0097454786 0.75491619
0.004851188 0.0084896088 0.75361603
0.0037866232 0.0056799352 0.68936384
0.0037758076 0.004719764 0.68871105
0.0037655071 0.0037655234 0.68808937
0.0037557981 0.0028168559 0.6875034
0.0037461529 0.0018731058 0.68692124
0.0037365714 0.0009341538 0.68634295
0.0037277192 2.9802322e-08 0.68580866
0.0037194339 -0.00092986226 0.68530858
0.0037117633 -0.00185588 0.68484569
0.0037041244 -0.0027780831 0.68438458
0.0036966943 -0.0036966801 0.68393612
0.0036897841 -0.0046122372 0.68351901
0.0036835498 -0.0055253208 0.68314278
0.0036778774 -0.0064362586 0.68280041
0.0036722359 -0.0073444545 0.68245995
0.0036668535 -0.0082503855 0.68213511
0.00366142 -0.0091535449 0.68180716
0.0036542269 -0.010049105 0.681373
0.00364418 -0.010932505 0.68076664
0.003631511 -0.011802375 0.68000197
0.0036164059 -0.012657404 0.67909026
0.0036004537 -0.013501674 0.67812747
0.0035861579 -0.014344633 0.67726469
0.0035736074 -0.0151878 0.67650717
0.0035629326 -0.016033143 0.67586291
0.0035539106 -0.016881049 0.67531842
0.0035458265 -0.017729104 0.67483044
0.0035404195 -0.018587202 0.67450416
0.0035362162 -0.019449174 0.67425042
0.0035353166 -0.020328045 0.67419612
0.0035386295 -0.021231771 0.6743961
0.0035507707 -0.022192299 0.67512888
0.0036671492 -0.023836464 0.68215293
0.0036759588 -0.024812728 0.68268466
0.0036878122 -0.025814652 0.68340003
0.0037025483 -0.026843458 0.68428946
0.0037219515 -0.027914643 0.68546057
0.0037496905 -0.029060066 0.68713474
0.0037979763 -0.030383825 0.69004905
0.0054916167 0.041736305 0.72597957
0.0054457379 0.040298462 0.72376442
0.0054139425 0.038980424 0.72222912
0.0053892415 0.037724704 0.72103655
0.0053685638 0.036506236 0.72003818
0.0053534918 0.035333067 0.71931034
0.0053402586 0.034177691 0.71867138
0.0053217197 0.032994688 0.71777624
0.005296438 0.031778634 0.7165556
0.0052621481 0.030520499 0.7148999
0.0052269232 0.029270798 0.71319908
0.0051922314 0.028038055 0.71152401
0.0051603164 0.026833683 0.70998305
0.005130453 0.025652289 0.70854104
0.0051009543 0.024484605 0.70711678
0.0050734174 0.023337722 0.70578718
0.0050477451 0.022210091 0.70454758
0.0050224313 0.021094233 0.70332539
0.0050047883 0.020019174 0.70247352
0.0062603382 0.023789346 0.76309675
0.0063048927 0.022697628 0.76524806
0.0063082315 0.021447986 0.76540929
0.0063011455 0.020163685 0.76506716
0.0062909732 0.018872947 0.76457596
0.0062797302 0.017583281 0.76403308
0.0062667052 0.016293466 0.76340425
0.0062463339 0.014991224 0.76242054
0.0062186657 0.013681084 0.76108468
0.0061801076 0.012360245 0.75922287
0.006123743 0.011022776 0.75650138
0.006098337 0.00975734 0.75527471
0.0047600442 0.0066640973 0.69065613
0.0047463896 0.0056956708 0.68999684
0.00473344 0.0047334731 0.68937159
0.0047211847 0.0037769675 0.68877989
0.0047089923 0.0028254092 0.68819118
0.0046968805 0.001878798 0.68760639
0.004685849 0.00093719363 0.68707371
0.0046754628 -2.9802322e-08 0.68657225
0.0046657664 -0.00093311071 0.68610406
0.0046561104 -0.0018624365 0.68563783
0.0046467702 -0.0027880669 0.68518686
0.0046382416 -0.003710568 0.68477505
0.0046304469 -0.0046304166 0.68439865
0.0046232757 -0.0055479109 0.68405241
0.0046161273 -0.006462574 0.6837073
0.0046094423 -0.0073750913 0.68338448
0.0046024215 -0.0082843602 0.68304551
0.0045926543 -0.0091852844 0.68257391
0.0045791874 -0.010074168 0.68192363
0.0045627188 -0.010950506 0.68112844
0.0045431149 -0.011812091 0.68018192
0.0045229918 -0.012664318 0.67921025
0.0045054625 -0.013516337 0.67836386
0.004490131 -0.014368415 0.67762363
0.0044773542 -0.015222996 0.67700672
0.0044659725 -0.016077459 0.67645717
0.004456792 -0.016935766 0.67601383
0.0044499584 -0.017799824 0.67568386
0.0044460199 -0.018673241 0.67549372
0.0044448827 -0.019557476 0.67543888
0.0044513675 -0.020476282 0.67575192
0.0044723437 -0.021467239 0.67676473
0.0046138968 -0.023069471 0.68359959
0.0046256525 -0.024053395 0.68416715
0.004641288 -0.025062919 0.6849221
0.0046616285 -0.026105076 0.68590426
0.0046886238 -0.027193993 0.6872077
0.0047275899 -0.028365523 0.68908912
0.0048170513 -0.029865712 0.69340879
0.0066369963 0.043140471 0.72787303
0.0065785605 0.041664243 0.72552168
0.0065385862 0.04032132 0.72391331
0.0065076877 0.039046139 0.72267002
0.006482115 0.037812352 0.72164106
0.0064633582 0.036625683 0.72088635
0.0064473683 0.035460562 0.72024298
0.0064255651 0.034269691 0.71936572
0.0063952594 0.033042222 0.71814632
0.0063540842 0.031770468 0.71648955
0.0063112858 0.030504525 0.71476746
0.0062691118 0.029255867 0.71307051
0.0062301862 0.028035879 0.71150422
0.0061939382 0.026840448 0.7100457
0.0061580846 0.025658727 0.70860302
0.0061245919 0.024498403 0.70725542
0.0060934392 0.023358196 0.706002
0.0060626757 0.02222982 0.70476419
0.006042128 0.02114746 0.70393741
0.0075576813 0.025192291 0.76491857
0.0076111392 0.024101943 0.76706952
0.007614614 0.022843897 0.76720929
0.0076058172 0.021549881 0.76685536
0.0075934669 0.020249218 0.76635838
0.0075797401 0.018949389 0.76580608
0.0075636609 0.017648578 0.76515913
0.007538476 0.016333401 0.76414579
0.0075043691 0.015008748 0.76277339
0.0074567273 0.013670713 0.76085639
0.007388969 0.012314975 0.75813007
0.0073600574 0.011040092 0.75696677
0.0057445583 0.0076594055 0.69196403
0.005727964 0.0066826344 0.69129646
0.0057123788 0.0057123899 0.6906693
0.0056974837 0.0047479272 0.69006991
0.0056826873 0.0037884712 0.68947458
0.0056680101 0.0028339922 0.68888402
0.0056547928 0.0018849671 0.68835217
0.0056423158 0.00094041228 0.68785012
0.0056305486 2.9802322e-08 0.68737668
0.005618914 -0.00093647838 0.68690848
0.0056075579 -0.0018691421 0.68645167
0.0055974377 -0.0027987063 0.68604439
0.0055881026 -0.0037253797 0.68566877
0.0055793994 -0.0046494603 0.68531859
0.0055707442 -0.0055707395 0.68497038
0.0055627343 -0.0064898431 0.68464804
0.0055540483 -0.0074053407 0.68429852
0.0055411318 -0.0083116889 0.68377882
0.0055241045 -0.0092068613 0.68309373
0.0055035474 -0.010089785 0.68226653
0.0054791593 -0.010958314 0.68128526
0.0054552052 -0.011819601 0.6803214
0.0054341527 -0.012679696 0.67947435
0.0054161921 -0.013540477 0.67875165
0.0054015745 -0.014404178 0.67816347
0.0053877705 -0.015265316 0.67760807
0.0053778877 -0.016133636 0.67721039
0.0053695771 -0.017003596 0.67687595
0.005366486 -0.017888278 0.67675161
0.0053661219 -0.018781394 0.67673695
0.005375769 -0.019711107 0.67712516
0.0055595203 -0.021311462 0.68451869
0.0055731228 -0.022292435 0.68506604
0.0055888724 -0.023286968 0.68569976
0.0056083752 -0.024302959 0.68648452
0.0056346487 -0.025355935 0.68754172
0.0056704511 -0.026462078 0.68898225
0.0057284893 -0.027687699 0.6913175
0.0077988524 0.044564873 0.72979367
0.0077266279 0.043048352 0.72730273
0.007677814 0.041679561 0.7256192
0.007640298 0.040384471 0.72432536
0.0076095234 0.039134741 0.72326398
0.0075868093 0.037934035 0.72248065
0.0075680558 0.036759138 0.72183383
0.0075431503 0.035560608 0.7209748
0.0075077731 0.034321219 0.71975476
0.0074597378 0.033036023 0.71809804
0.0074092099 0.031753778 0.71635544
0.0073593915 0.030488938 0.71463728
0.007313231 0.029252946 0.71304518
0.0072703916 0.028042972 0.71156776
0.0072280806 0.026847184 0.71010846
0.0071884128 0.025672913 0.70874035
0.00715166 0.02451998 0.7074728
0.007115338 0.023378998 0.70622015
0.0070921131 0.022289515 0.70541912
0.0088708019 0.026612431 0.76676393
0.0089330645 0.025523096 0.76891124
0.0089364834 0.02425617 0.76902926
0.0089259166 0.022952408 0.76866472
0.0089112921 0.021641731 0.76816034
0.0088950424 0.020331562 0.76759988
0.0088757919 0.019019604 0.766936
0.0088454867 0.017690986 0.76589072
0.0088045727 0.016351372 0.76447976
0.0087474007 0.014995575 0.76250792
0.0086685531 0.013622046 0.75978857
0.0086366618 0.012338102 0.75868869
0.0067403158 0.0086661577 0.69328606
0.0067207343 0.0076808631 0.69261074
0.006702472 0.0067024529 0.6919809
0.0066849208 0.0057299435 0.69137561
0.0066674617 0.0047625303 0.69077337
0.0066502695 0.0038001835 0.69018048
0.0066347746 0.0028434694 0.68964612
0.0066202022 0.0018915236 0.68914348
0.0066063171 0.00094375014 0.68866462
0.0065926388 -0 0.6881929
0.0065792399 -0.00093990564 0.68773079
0.0065675685 -0.0018764734 0.68732828
0.0065567004 -0.0028100014 0.68695343
0.0065464308 -0.0037407875 0.68659925
0.0065363641 -0.0046688318 0.686252
0.0065269368 -0.0055945218 0.68592691
0.0065159113 -0.0065158904 0.68554664
0.0064998288 -0.0074283481 0.68499196
0.0064790519 -0.0083301961 0.68427539
0.0064536948 -0.009219557 0.68340087
0.0064246445 -0.010095835 0.68239897
0.0063971863 -0.010966599 0.68145198
0.0063731144 -0.011835784 0.68062174
0.0063521015 -0.012704194 0.67989707
0.0063357395 -0.013576567 0.67933273
0.0063194381 -0.014444411 0.67877054
0.0063092611 -0.015322477 0.67841953
0.0062994794 -0.016198635 0.67808217
0.006297803 -0.017094016 0.67802435
0.006300658 -0.018001884 0.67812288
0.0063158828 -0.018947631 0.67864788
0.0065291016 -0.020520002 0.6860016
0.0065450608 -0.021505147 0.68655193
0.0065654269 -0.022509992 0.68725437
0.0065908274 -0.023538619 0.68813038
0.0066244095 -0.024604946 0.68928862
0.0066725677 -0.025737047 0.69094956
0.0067515159 -0.02700606 0.69367236
0.0089775808 0.046010137 0.7317434
0.008890288 0.044451445 0.72910911
0.0088319127 0.043055594 0.72734749
0.0087873191 0.041739792 0.72600174
0.0087510496 0.04047364 0.72490716
0.0087241568 0.039258718 0.72409558
0.0087025352 0.038073599 0.72344315
0.0086747361 0.036867648 0.72260416
0.0086342813 0.035616398 0.72138333
0.0085794292 0.034317762 0.71972811
0.0085209506 0.033018738 0.71796334
0.0084632998 0.031737387 0.71622348
0.008409638 0.030484974 0.71460414
0.0083601074 0.029260397 0.71310949
0.008311158 0.028050184 0.71163225
0.0082651321 0.026861697 0.71024334
0.0082226535 0.025695801 0.70896137
0.0081806416 0.024541944 0.70769364
0.0081549753 0.023445547 0.70691907
0.010199904 0.028049707 0.76863027
0.010270881 0.026961118 0.77077216
0.01027415 0.0256854 0.7708708
0.010261771 0.024371713 0.77049726
0.010244752 0.023050696 0.76998371
0.010225909 0.021730095 0.76941496
0.010203284 0.020406604 0.76873225
0.010167622 0.019064337 0.76765609
0.010119554 0.017709225 0.76620549
0.010050292 0.016331762 0.76411527
0.0099624945 0.014943749 0.76146579
0.0099281976 0.013651311 0.76043075
0.0077475295 0.0096844137 0.69462329
0.0077249226 0.0086905658 0.69394112
0.0077039301 0.0077039599 0.69330752
0.0076836408 0.0067231953 0.69269526
0.0076634879 0.0057476163 0.69208711
0.0076438775 0.0047774315 0.6914953
0.0076259659 0.0038129687 0.6909548
0.0076092659 0.002853483 0.69045079
0.0075932145 0.0018983185 0.68996644
0.0075774896 0.00094720721 0.68949187
0.0075621433 2.9802322e-08 0.68902874
0.0075488235 -0.00094357133 0.68862677
0.0075364304 -0.001884073 0.68825281
0.0075245583 -0.0028216839 0.68789452
0.0075131184 -0.0037565231 0.68754935
0.0075021074 -0.0046887696 0.687217
0.0074884659 -0.0056163073 0.68680537
0.0074689873 -0.0065353811 0.68621755
0.0074440134 -0.0074440241 0.68546391
0.00741327 -0.0083399117 0.6845361
0.0073797586 -0.0092246532 0.68352479
0.0073489486 -0.010104775 0.68259501
0.0073219831 -0.010982931 0.68178129
0.0072989119 -0.011860698 0.68108505
0.0072799828 -0.012739956 0.68051386
0.0072624688 -0.013617098 0.67998528
0.0072511286 -0.014502227 0.67964309
0.0072420496 -0.015389323 0.67936909
0.0072401636 -0.016290367 0.67931217
0.0072472948 -0.017212272 0.67952734
0.0072741881 -0.018185437 0.68033898
0.007511483 -0.019717634 0.68749994
0.0075299372 -0.020707279 0.68805683
0.007555549 -0.021722168 0.68882978
0.0075877449 -0.022763222 0.68980139
0.0076306467 -0.023845762 0.69109601
0.0076927668 -0.025001466 0.69297069
0.0078184716 -0.026387304 0.69676411
0.010173478 0.047476262 0.7337203
0.010069787 0.045873523 0.73093885
0.010001174 0.044449687 0.72909838
0.0099489847 0.043112308 0.72769839
0.0099069607 0.041829407 0.72657114
0.0098759346 0.040601104 0.72573888
0.0098511335 0.039404541 0.72507358
0.009820113 0.038189352 0.7242415
0.00977505 0.036927968 0.72303265
0.0097133983 0.035615832 0.72137886
0.0096467305 0.034299493 0.71959054
0.0095810927 0.033001572 0.71782982
0.0095197223 0.03173244 0.7161836
0.0094633074 0.030492902 0.7146703
0.0094075184 0.029267848 0.71317375
0.0093549863 0.028064996 0.71176463
0.0093066525 0.026885927 0.71046805
0.009258816 0.025718957 0.70918489
0.0092309536 0.024615884 0.7084375
0.01154538 0.029504865 0.77052104
0.011624598 0.02841571 0.77264601
0.011627899 0.027131796 0.77273464
0.011613565 0.025807947 0.77235007
0.011594129 0.024476528 0.77182877
0.011572618 0.023145258 0.77125168
0.011546446 0.021809965 0.77054965
0.011505147 0.020453602 0.76944178
0.011449568 0.019082606 0.76795095
0.011367027 0.017682046 0.76573682
0.011271035 0.016280413 0.76316184
0.0087925857 0.011723459 0.69667852
0.0087664314 0.010714561 0.69597691
0.00874067 0.0097118616 0.69528586
0.0087169828 0.0087170005 0.69465047
0.0086938934 0.0077279508 0.69403106
0.0086709596 0.0067440867 0.69341588
0.0086489106 0.0057659447 0.69282448
0.0086285602 0.004793644 0.6922785
0.0086097205 0.0038265288 0.69177318
0.0085914545 0.0028638244 0.69128317
0.0085736578 0.0019052625 0.69080579
0.0085565532 0.00095075369 0.69034696
0.0085414276 2.9802322e-08 0.68994123
0.0085274847 -0.00094747543 0.68956727
0.008513974 -0.0018919706 0.68920481
0.0085011479 -0.0028336942 0.68886077
0.0084883608 -0.0037725568 0.68851769
0.008471881 -0.0047065914 0.68807566
0.008448611 -0.0056323707 0.68745148
0.0084186336 -0.0065477788 0.68664736
0.0083826836 -0.0074512661 0.68568301
0.008344627 -0.0083445907 0.68466216
0.0083105937 -0.0092339814 0.6837492
0.0082809152 -0.010121107 0.68295312
0.0082560172 -0.011007994 0.68228519
0.0082345195 -0.011894286 0.68170857
0.0082165496 -0.012781292 0.68122655
0.0082036471 -0.013672709 0.68088043
0.0081959134 -0.014570504 0.68067294
0.0081937658 -0.015477091 0.68061537
0.0082062185 -0.016412437 0.68094945
0.0082474891 -0.017411351 0.68205649
0.0085069938 -0.018904418 0.68901759
0.0085300039 -0.019903332 0.6896348
0.0085595455 -0.020923287 0.69042724
0.0085994275 -0.021976262 0.69149709
0.008652932 -0.023074478 0.69293231
0.0087360917 -0.024266869 0.69516301
0.011265485 0.047315061 0.73279381
0.011185901 0.045862228 0.73087251
0.01112566 0.044502646 0.7294181
0.011077481 0.043202192 0.72825497
0.01104218 0.041960299 0.72740275
0.011014082 0.040752143 0.72672439
0.010979811 0.039527297 0.72589701
0.0109304 0.038256437 0.72470415
0.010861921 0.036930531 0.72305089
0.010786895 0.035596758 0.72123957
0.01071299 0.034281552 0.71945536
0.010643711 0.032995522 0.71778286
0.010580199 0.031740636 0.71624947
0.010517483 0.03050074 0.71473539
0.010458261 0.029283106 0.71330571
0.010403896 0.028090537 0.71199316
0.010350137 0.026910335 0.71069533
0.010320293 0.025800765 0.70997483
0.01290749 0.030978024 0.77243531
0.012994713 0.029887885 0.77454102
0.012998021 0.028595656 0.77462089
0.012981701 0.027261555 0.77422684
0.012959777 0.025919586 0.77369761
0.012935452 0.024577379 0.77311033
0.01290556 0.023229986 0.7723887
0.012858265 0.021859109 0.77124691
0.012794873 0.020471811 0.76971644
0.012697916 0.019046873 0.76737577
0.012594868 0.017632872 0.76488793
0.0098264841 0.012774467 0.69805324
0.0097971614 0.011756629 0.69734532
0.0097682048 0.010745078 0.69664621
0.0097417692 0.0097417831 0.69600797
0.009715816 0.0087442696 0.69538146
0.0096900379 0.0077520311 0.69475913
0.0096656289 0.0067659914 0.69416982
0.0096427174 0.0057856441 0.69361669
0.0096217645 0.0048108995 0.69311082
0.0096012708 0.0038405359 0.69261611
0.0095813405 0.002874434 0.69213498
0.0095625166 0.0019125342 0.69168043
0.0095455144 0.00095453858 0.69127005
0.0095300609 -0 0.69089693
0.0095148738 -0.00095143914 0.6905303
0.009500674 -0.0019001067 0.69018745
0.0094860122 -0.0028458238 0.68983352
0.0094661638 -0.0037864447 0.68935436
0.009438308 -0.0047191679 0.68868184
0.0094035771 -0.0056421459 0.68784338
0.0093620876 -0.0065534413 0.68684173
0.0093194023 -0.0074555278 0.68581116
0.0092823002 -0.0083540678 0.68491542
0.0092500737 -0.0092500448 0.68413746
0.0092236428 -0.010145992 0.6834994
0.0091994945 -0.011039346 0.68291634
0.0091814995 -0.01193592 0.68248188
0.0091669662 -0.012833714 0.68213105
0.0091612265 -0.013741821 0.68199247
0.0091608232 -0.014657289 0.68198276
0.0091776932 -0.015602082 0.68239003
0.009492347 -0.017086208 0.68998647
0.0095159598 -0.018080324 0.69055653
0.0095444219 -0.019088835 0.69124365
0.0095801661 -0.020118326 0.69210654
0.0096275406 -0.02118057 0.6932503
0.0096956715 -0.022300035 0.69489515
0.009807609 -0.023538202 0.69759756
0.01343901 0.052534342 0.75577217
0.0123864 0.047293514 0.73267013
0.012317599 0.045911103 0.7311601
0.01226386 0.044595897 0.72998065
0.012223224 0.043336898 0.7290889
0.012191599 0.042116433 0.72839475
0.012154124 0.040882051 0.72757226
0.012100521 0.039601743 0.72639585
0.01202528 0.038262248 0.7247445
0.011941684 0.036910713 0.72290981
0.011859346 0.035578072 0.72110265
0.011781816 0.034274399 0.71940106
0.011711122 0.033004105 0.71784949
0.011641221 0.031748831 0.71631539
0.011575167 0.030516356 0.71486568
0.011514627 0.029309958 0.71353704
0.011454766 0.028116286 0.71222317
0.011423241 0.027000427 0.71153128
0.014286468 0.032469273 0.77437168
0.014381659 0.03137818 0.77646089
0.014384816 0.030077368 0.77653021
0.014366344 0.028732687 0.77612472
0.014341861 0.02737993 0.77558738
0.014314706 0.026026756 0.77499139
0.014280832 0.024666935 0.774248
0.01422738 0.023281187 0.77307481
0.014155732 0.02187708 0.77150232
0.014043189 0.020426482 0.76903236
0.013934748 0.019001961 0.76665235
0.010872507 0.013837785 0.69944412
0.010840002 0.012810946 0.69873071
0.010807775 0.011790335 0.69802344
0.010778567 0.010778576 0.69738239
0.010749684 0.0097724497 0.6967485
0.010720998 0.0087717175 0.69611889
0.010694209 0.0077776313 0.69553089
0.010668712 0.0067892075 0.69497132
0.010645641 0.0058067143 0.69446504
0.010622876 0.0048286021 0.69396538
0.010600738 0.0038548112 0.69347948
0.010580279 0.0028855503 0.69303042
0.010561316 0.001920253 0.69261432
0.010544321 0.0009585917 0.69224131
0.010527501 2.9802322e-08 0.69187212
0.010511898 -0.00095558167 0.69152969
0.01049526 -0.0019082129 0.69116455
0.010471419 -0.0028557777 0.69064128
0.01043873 -0.003795892 0.68992382
0.010399008 -0.0047267675 0.68905199
0.010351677 -0.005646348 0.68801326
0.0103052 -0.006557852 0.68699324
0.010264572 -0.0074650943 0.6861015
0.010229621 -0.0083696842 0.6853345
0.010201938 -0.0092744529 0.68472683
0.010175044 -0.01017502 0.68413663
0.010157467 -0.011080831 0.68375081
0.010141334 -0.011985183 0.68339676
0.010138196 -0.012903154 0.68332791
0.010143165 -0.013831556 0.68343699
0.010170305 -0.014793158 0.68403262
0.010512299 -0.016246259 0.69153851
0.010538627 -0.017244995 0.69211632
0.010573247 -0.018262863 0.6928761
0.010617015 -0.01930365 0.69383681
0.01067554 -0.020380557 0.69512123
0.010760528 -0.021521032 0.69698644
0.010923605 -0.022840232 0.70056558
0.014315394 0.05129683 0.74882436
0.013525038 0.047337651 0.73292363
0.013465708 0.046007872 0.73173004
0.013419241 0.044730842 0.73079515
0.013384064 0.043498218 0.73008752
0.013343434 0.042254239 0.7292701
0.013285742 0.040964365 0.72810936
0.013203762 0.03961131 0.72646004
0.013111383 0.038241535 0.72460157
0.013020399 0.036891192 0.72277111
0.012934403 0.035569578 0.72104096
0.012856248 0.03428334 0.71946859
0.012779086 0.033012658 0.71791625
0.012706017 0.031765074 0.71644616
0.012639151 0.030544639 0.715101
0.012572985 0.029336989 0.71376985
0.012540057 0.02821514 0.71310735
0.015682772 0.033979356 0.77633393
0.015785685 0.032886833 0.77840436
0.015788674 0.031577379 0.77846444
0.015767941 0.030221909 0.77804744
0.015740743 0.028858066 0.77750021
0.015710676 0.027493715 0.77689528
0.015672375 0.026120692 0.77612466
0.015612714 0.024720132 0.77492452
0.015532422 0.023298651 0.77330911
0.015403082 0.021821052 0.77070701
0.015290271 0.020387083 0.76843739
0.011930916 0.014913678 0.70085233
0.011895083 0.01387763 0.70013148
0.011859605 0.01284793 0.69941771
0.011827553 0.011827558 0.69877291
0.011795674 0.01081273 0.6981315
0.011764011 0.0098033547 0.69749451
0.011734813 0.0088011622 0.69690704
0.011706808 0.0078045428 0.69634366
0.01168148 0.0068142116 0.69583416
0.011656489 0.0058282614 0.69533139
0.011632102 0.0048467219 0.69484067
0.011609969 0.0038700104 0.69439542
0.011589263 0.002897352 0.69397885
0.011570547 0.0019284189 0.69360238
0.011552249 0.00096270442 0.69323421
0.011535071 -0 0.69288862
0.011516 -0.00095963478 0.69250494
0.011487534 -0.0019145608 0.6919322
0.011450161 -0.0028625131 0.69118035
0.011404446 -0.0038014352 0.69026065
0.011351535 -0.0047298074 0.68919617
0.011301751 -0.0056508482 0.68819463
0.011258267 -0.006567359 0.68731976
0.011220859 -0.0074805319 0.68656719
0.011191037 -0.0083932281 0.68596715
0.011162616 -0.0093021393 0.68539536
0.011144714 -0.010215968 0.68503523
0.011130006 -0.011129975 0.68473935
0.011127035 -0.012054265 0.68467957
0.011138513 -0.012994945 0.68491048
0.011183158 -0.013978928 0.68580866
0.011546162 -0.015394837 0.69311172
0.011575901 -0.016399175 0.69371003
0.011616708 -0.01742503 0.69453102
0.011669449 -0.018476605 0.69559205
0.011740549 -0.019567549 0.6970225
0.011845754 -0.020730048 0.69913906
0.015636288 0.052922845 0.75120044
0.015354951 0.050789475 0.74597573
0.015145229 0.048930764 0.74208099
0.014630637 0.046142817 0.73252463
0.014591712 0.044897616 0.73180169
0.01454798 0.043643922 0.73098963
0.014486357 0.042344809 0.72984523
0.014397603 0.040977806 0.72819692
0.014296216 0.039589524 0.72631407
0.014196432 0.038221151 0.72446108
0.01410164 0.036881238 0.72270072
0.014015953 0.035578966 0.72110939
0.0139313 0.03429243 0.71953732
0.013850966 0.033029228 0.71804553
0.013777623 0.031794518 0.71668339
0.013705051 0.030572832 0.71533573
0.013670946 0.029445142 0.71470225
0.017096573 0.035508275 0.77831924
0.017207108 0.034414232 0.78037196
0.017209748 0.033095717 0.7804209
0.017186647 0.031729192 0.77999198
0.017156821 0.03035441 0.77943802
0.017123668 0.028978556 0.77882242
0.017080681 0.027591914 0.77802408
0.017014557 0.026176244 0.7767961
0.016923895 0.024734944 0.77511245
0.016777832 0.023230851 0.7723999
0.016661709 0.021788448 0.77024335
0.013001889 0.016002387 0.7022773
0.012962661 0.014956951 0.70154881
0.012924028 0.013918191 0.70083135
0.012888892 0.012888879 0.70017886
0.012853999 0.011865258 0.69953084
0.012819293 0.010847092 0.69888639
0.012787741 0.0098367333 0.69830042
0.012757293 0.0088320374 0.69773495
0.012729531 0.0078335404 0.69721943
0.012702286 0.0068397522 0.69671345
0.012675553 0.0058502853 0.696217
0.012651836 0.0048661232 0.69577652
0.012629433 0.0038860142 0.69536048
0.012608917 0.0029097199 0.69497955
0.012589199 0.0019368231 0.69461334
0.012570321 0.00096696615 0.69426268
0.012547866 -0 0.69384575
0.012515032 -0.00096270442 0.69323599
0.0124727 -0.0019188225 0.69244981
0.012419784 -0.0028660893 0.69146711
0.012361907 -0.0038036704 0.69039237
0.0123089 -0.0047341585 0.68940794
0.012262768 -0.0056596994 0.68855119
0.012223823 -0.0065820515 0.68782794
0.012191199 -0.0075022578 0.68722218
0.012162978 -0.0084204972 0.68669802
0.012143404 -0.0093410611 0.68633449
0.012131219 -0.010264874 0.68610829
0.012127963 -0.011195034 0.68604773
0.012147123 -0.012147099 0.68640363
0.012219643 -0.013159603 0.68775034
0.012594172 -0.014531702 0.69470572
0.012630316 -0.015544981 0.69537693
0.012675948 -0.01657626 0.69622439
0.012737907 -0.017637074 0.697375
0.012824247 -0.018743098 0.6989783
0.012968501 -0.019951552 0.7016573
0.016982367 0.054586172 0.75367141
0.016662836 0.052368939 0.7481612
0.016428137 0.050457895 0.74411398
0.01623412 0.048702389 0.74076831
0.016064649 0.047046483 0.7378459
0.015767988 0.045051396 0.73273009
0.015701894 0.043741018 0.73159033
0.015607227 0.042362511 0.72995788
0.015496604 0.040955335 0.72805023
0.015387673 0.039568305 0.72617185
0.01528393 0.038209826 0.72438288
0.015190466 0.036891192 0.72277111
0.015098072 0.035588324 0.72117782
0.015010333 0.034309328 0.71966481
0.014930353 0.033060074 0.71828562
0.014851217 0.031824052 0.71692103
0.01481635 0.030691057 0.71631968
0.018528379 0.037056774 0.78033137
0.018646253 0.035960674 0.78236401
0.018648436 0.034632862 0.78240162
0.018622855 0.03325513 0.78196049
0.018590236 0.031868994 0.78139806
0.018553995 0.030481577 0.78077316
0.018506058 0.029080957 0.77994645
0.018433206 0.02764982 0.77869022
0.01833085 0.026186943 0.77692509
0.018167686 0.024656177 0.77411139
0.018049346 0.023206323 0.77207077
0.014085713 0.017104119 0.70372033
0.014043017 0.016049176 0.70298404
0.014001194 0.015001327 0.70226282
0.013962905 0.013962924 0.70160264
0.013924824 0.012930214 0.70094591
0.013887005 0.011903167 0.70029372
0.01385317 0.010884643 0.69971025
0.013820319 0.0098716617 0.69914377
0.013790064 0.0088650584 0.69862211
0.013760484 0.0078631639 0.69811195
0.013731352 0.0068656802 0.69760954
0.013706096 0.0058740377 0.69717407
0.013682004 0.0048864484 0.69675863
0.013659646 0.0039027929 0.69637311
0.013638477 0.0029225349 0.69600803
0.013617691 0.0019454062 0.6956495
0.01359148 0.00097081065 0.69519758
0.013553979 -2.9802322e-08 0.69455087
0.013505114 -0.00096461177 0.6937083
0.013445855 -0.0019208193 0.69268632
0.01338292 -0.0028677583 0.6916011
0.013326906 -0.0038076639 0.6906352
0.013278303 -0.0047422051 0.68979704
0.013238103 -0.0056734383 0.68910384
0.013202573 -0.006601274 0.68849117
0.013175061 -0.0075286031 0.68801665
0.013153685 -0.0084559321 0.68764812
0.01314475 -0.0093890727 0.68749404
0.013144454 -0.010327756 0.68748891
0.013169264 -0.011287928 0.68791676
0.01362198 -0.01264894 0.69572353
0.013656717 -0.013656706 0.69632256
0.013699985 -0.014678538 0.69706875
0.013754917 -0.01571992 0.69801599
0.013828722 -0.016791999 0.69928873
0.013936293 -0.01791808 0.70114374
0.01413055 -0.019177139 0.70449346
0.018351465 0.056277812 0.75618333
0.017990839 0.053972542 0.75037909
0.017729808 0.052007467 0.74617779
0.01751703 0.050215513 0.74275327
0.017331604 0.048528492 0.73976886
0.017165596 0.046919316 0.73709702
0.017015148 0.045373738 0.73467559
0.01683289 0.043765485 0.7317422
0.016712794 0.042339087 0.72980928
0.016594546 0.040933251 0.72790605
0.016481433 0.03955546 0.7260856
0.016379999 0.038220018 0.72445297
0.016279807 0.036900908 0.72284043
0.01618439 0.035605669 0.72130471
0.016097607 0.034341574 0.719908
0.016011821 0.033091128 0.71852726
0.015976306 0.031952649 0.71795571
0.019978447 0.038625002 0.78236914
0.020103453 0.037526488 0.78438109
0.020105068 0.036189139 0.78440708
0.020076996 0.034800202 0.78395528
0.020041397 0.033402324 0.7833823
0.02000198 0.032003194 0.78274786
0.019948816 0.03058818 0.78189224
0.019868966 0.029141158 0.7806071
0.019754127 0.02765581 0.77875876
0.01957269 0.02609697 0.77583861
0.019454783 0.024642736 0.77394092
0.015182628 0.018219173 0.70518166
0.015136271 0.017154455 0.70443553
0.015091228 0.016097307 0.70371056
0.015049711 0.015049726 0.70304233
0.015008479 0.014007956 0.70237875
0.014967893 0.012972176 0.70172548
0.014931267 0.011945069 0.70113599
0.014896003 0.010923773 0.70056844
0.014863199 0.0099087954 0.70004052
0.014831302 0.0088987947 0.69952708
0.014800184 0.0078935027 0.69902629
0.014773034 0.0068940818 0.69858927
0.014747199 0.0058988929 0.69817352
0.014722957 0.0049076676 0.69778335
0.014700348 0.0039201081 0.69741946
0.01467735 0.0029354692 0.69704926
0.014647161 0.001952976 0.69656342
0.01460384 0.00097358227 0.69586617
0.014548806 -0 0.69498044
0.014482888 -0.00096550584 0.69391942
0.014414741 -0.0019219518 0.69282264
0.014355847 -0.0028711557 0.6918748
0.014304955 -0.0038146675 0.69105566
0.014263794 -0.0047545731 0.69039321
0.014225296 -0.0056900978 0.68977356
0.014199031 -0.0066261888 0.68935084
0.014175858 -0.0075604618 0.68897796
0.014170827 -0.0085024536 0.68889689
0.014178323 -0.0094522238 0.68901759
0.014220175 -0.010428101 0.68969119
0.014696319 -0.011757016 0.69735456
0.014734056 -0.01276949 0.69796205
0.01478514 -0.013799429 0.69878411
0.014850494 -0.014850467 0.69983602
0.014938875 -0.015934765 0.70125854
0.015068686 -0.017077833 0.70334774
0.01540488 -0.018485844 0.70875871
0.019746881 0.058006495 0.75877833
0.019340247 0.055603236 0.75264275
0.01905176 0.053583086 0.74828976
0.018818263 0.051750273 0.74476653
0.018616183 0.050031006 0.7417174
0.018435618 0.048393518 0.73899287
0.018273024 0.046824634 0.73653954
0.018124508 0.045311272 0.73429859
0.017945101 0.043741196 0.73159158
0.0178173 0.042316079 0.72966325
0.017694591 0.040918767 0.72781169
0.017584983 0.039566249 0.72615778
0.017476652 0.038230211 0.72452319
0.017373417 0.036918491 0.72296554
0.017279744 0.035639495 0.72155213
0.017187001 0.034374028 0.72015274
0.017151285 0.033230633 0.71961379
0.021447016 0.040213168 0.78443134
0.021579053 0.039112031 0.78642362
0.021579983 0.037764996 0.78643769
0.021549197 0.036364287 0.78597319
0.021510635 0.034954786 0.78539133
0.02146795 0.033543676 0.78474724
0.021409277 0.03211394 0.78386194
0.02132158 0.030649781 0.78253871
0.021194013 0.029141814 0.7806139
0.02099327 0.027553707 0.77758491
0.020877535 0.02609697 0.77583861
0.016292758 0.019347668 0.70665967
0.016242711 0.018273056 0.70590448
0.016194476 0.017206669 0.70517671
0.016149655 0.01614967 0.70450038
0.016105147 0.015098572 0.70382887
0.016061913 0.014054179 0.7031765
0.016022373 0.013018191 0.70257986
0.015984625 0.011988491 0.70201027
0.015949277 0.010965168 0.70147693
0.015914969 0.0099468827 0.70095927
0.015882071 0.0089336932 0.70046294
0.015852761 0.0079264045 0.70002055
0.015825247 0.0069235563 0.69960546
0.0157992 0.0059247315 0.69921243
0.015775042 0.0049297214 0.69884795
0.015749719 0.0039374232 0.69846582
0.015714535 0.002946496 0.69793493
0.01566503 0.0019581616 0.69718796
0.015603965 0.0009752512 0.69626653
0.015530951 2.9802322e-08 0.69516492
0.015459332 -0.00096616149 0.69408417
0.015396954 -0.0019245744 0.69314301
0.015343014 -0.0028768182 0.69232911
0.015301197 -0.0038252771 0.69169813
0.01526013 -0.004768759 0.69107854
0.015235039 -0.0057131052 0.69069993
0.015213847 -0.0066560507 0.6903801
0.015209684 -0.0076047778 0.69031727
0.015226173 -0.0085647404 0.69056606
0.015291902 -0.009557426 0.69155788
0.015785618 -0.010852605 0.69900745
0.015828939 -0.011871636 0.69966114
0.01588623 -0.012907505 0.70052564
0.015963014 -0.013967663 0.70168424
0.016067522 -0.015063256 0.70326108
0.016239678 -0.016239673 0.70585877
0.021167982 0.059768438 0.76143289
0.020710921 0.057259619 0.75494206
0.020394702 0.055185705 0.75045127
0.020138213 0.053307056 0.74680883
0.019918928 0.051554888 0.74369472
0.019723739 0.049889445 0.74092281
0.019548049 0.04829523 0.73842776
0.019387297 0.046757638 0.7361449
0.019237431 0.045264572 0.7340166
0.019056248 0.043717325 0.73144352
0.018923637 0.042299896 0.72956032
0.018805573 0.040929794 0.72788364
0.018689053 0.039576828 0.72622895
0.018577784 0.03824842 0.72464877
0.018476898 0.036953837 0.72321606
0.018377101 0.035673231 0.72179884
0.018341517 0.034525216 0.72129345
0.022934666 0.041822046 0.78652197
0.023073398 0.040717781 0.7884922
0.023073524 0.039360762 0.78849393
0.023040026 0.037948281 0.78801823
0.022998411 0.036526889 0.78742725
0.022952244 0.03510347 0.78677154
0.022887764 0.033658504 0.78585589
0.022790629 0.032175004 0.78447646
0.02265068 0.030645072 0.782489
0.022432765 0.029030651 0.77939439
0.022317639 0.027568877 0.77775943
0.017416468 0.020489991 0.70815659
0.017362643 0.019405365 0.70739233
0.017311053 0.018329382 0.70665962
0.017262854 0.017262876 0.70597512
0.01721506 0.01620242 0.7052964
0.017169122 0.015149236 0.70464402
0.01712667 0.014104337 0.70404112
0.017086489 0.013066143 0.70347053
0.017048612 0.012034357 0.7029326
0.017011788 0.011007637 0.70240968
0.016977087 0.0099865496 0.70191687
0.016945565 0.0089712441 0.70146918
0.016916381 0.0079606771 0.70105481
0.016888773 0.0069541931 0.70066267
0.016862858 0.005951643 0.70029467
0.016835025 0.0049515069 0.69989938
0.016793942 0.0039515197 0.69931597
0.016738225 0.0029538572 0.69852471
0.016670059 0.0019612014 0.69755661
0.016590336 0.00097593665 0.69642454
0.016515477 2.9802322e-08 0.69536138
0.016450573 -0.00096768141 0.69443977
0.016395338 -0.0019288361 0.69365531
0.016350459 -0.0028853416 0.69301796
0.01631033 -0.0038377047 0.69244808
0.016283415 -0.0047892034 0.69206583
0.016266041 -0.0057409406 0.69181907
0.016261563 -0.0066959262 0.69175553
0.016288342 -0.0076650679 0.69213581
0.016438175 -0.0087025464 0.69426364
0.016890315 -0.0099354684 0.70068461
0.016941786 -0.010962307 0.70141554
0.017007502 -0.01200527 0.70234883
0.017096104 -0.013073474 0.70360708
0.017225796 -0.014185905 0.70544887
0.017444255 -0.015391976 0.70855129
0.022632366 0.061610371 0.76437289
0.022103367 0.058942348 0.75727785
0.02175799 0.056812555 0.75264549
0.021478929 0.054890603 0.74890268
0.021240745 0.053101867 0.74570811
0.021030352 0.051407516 0.74288625
0.02084066 0.049786061 0.74034208
0.020667253 0.048223585 0.73801625
0.020505853 0.046707839 0.73585153
0.020354221 0.045231611 0.73381776
0.020215336 0.043799907 0.73195499
0.020042231 0.0423114 0.72963321
0.019917242 0.04094106 0.72795683
0.019797632 0.039595306 0.72635263
0.019689431 0.038285017 0.72490138
0.019582406 0.036989033 0.72346592
0.0195473 0.035836697 0.7229951
0.024441531 0.043451637 0.788638
0.024586853 0.042344064 0.79058713
0.024586182 0.040976971 0.79057813
0.024549592 0.039552152 0.79008734
0.02450484 0.03811869 0.78948706
0.024454936 0.036682427 0.78881776
0.02438462 0.035222262 0.7878747
0.02427748 0.033718735 0.78643769
0.024124661 0.032166243 0.78438801
0.023891207 0.030527711 0.78125691
0.023775538 0.029059023 0.77970546
0.01855387 0.021646202 0.70967096
0.018496184 0.020551294 0.70889723
0.018441344 0.019465864 0.70816171
0.018389681 0.018389702 0.70746881
0.018338382 0.01731962 0.70678067
0.018289896 0.016257703 0.7061305
0.018244399 0.015203685 0.70552027
0.018201701 0.014156878 0.70494759
0.018161329 0.013116539 0.70440602
0.018121861 0.012081265 0.70387673
0.018085545 0.011052281 0.70338964
0.018051688 0.01002878 0.70293546
0.018020842 0.009010464 0.7025218
0.017991755 0.0079963207 0.70213169
0.017963909 0.0069859922 0.70175815
0.017932432 0.0059775114 0.70133603
0.017885426 0.0049681962 0.70070559
0.017823696 0.0039608479 0.69987762
0.017746434 0.0029577613 0.69884139
0.017661173 0.0019623935 0.69769782
0.017583316 0.00097689033 0.6966536
0.01751595 2.9802322e-08 0.69575006
0.017459854 -0.00096997619 0.69499767
0.017411789 -0.0019346178 0.69435298
0.017373163 -0.0028955042 0.6938349
0.017344257 -0.0038542449 0.69344723
0.017331507 -0.0048143268 0.69327623
0.017331574 -0.0057771802 0.69327718
0.017365124 -0.006753087 0.69372708
0.017963693 -0.0079838634 0.70175529
0.01801068 -0.0090053082 0.70238554
0.018071029 -0.010039419 0.70319492
0.018148664 -0.011090815 0.70423621
0.018254086 -0.012169361 0.70565015
0.018409453 -0.01329571 0.70773393
0.018734569 -0.014571279 0.71209455
0.024130449 0.063501209 0.76743174
0.023518803 0.060653776 0.75965995
0.023142092 0.058464259 0.75487328
0.022839859 0.056498617 0.75103301
0.022582371 0.054673135 0.74776125
0.022355516 0.052947313 0.74487877
0.022151325 0.051297843 0.74228418
0.021964828 0.049709886 0.73991454
0.02179133 0.048170328 0.73771
0.021629309 0.046673775 0.73565131
0.021480156 0.045221388 0.73375607
0.021337835 0.043798715 0.73194772
0.021161433 0.042322874 0.72970629
0.021033337 0.040959656 0.72807866
0.020917639 0.039633453 0.72660857
0.020803208 0.038321674 0.72515452
0.02076894 0.037165493 0.72471911
0.025968244 0.045102775 0.79078346
0.026119787 0.043991268 0.79270905
0.026118064 0.042613715 0.79268712
0.026078517 0.041176587 0.79218459
0.02603039 0.039730638 0.79157311
0.025976477 0.038281083 0.79088807
0.025899056 0.036803901 0.78990436
0.025782462 0.035281271 0.78842282
0.025616148 0.033705473 0.7863096
0.025366668 0.032042146 0.78313959
0.025251988 0.030568242 0.78168243
0.019705286 0.022816688 0.71120393
0.019643724 0.021711498 0.71042168
0.019585447 0.020616293 0.70968115
0.019530326 0.019530356 0.7089808
0.019475512 0.018450499 0.70828432
0.01942442 0.017379791 0.70763505
0.019375725 0.016316473 0.70701635
0.019330576 0.015260994 0.70644265
0.01928767 0.014211953 0.70589757
0.019245502 0.013168007 0.70536172
0.01920755 0.012131125 0.70487946
0.01917145 0.011099279 0.7044208
0.019138798 0.010073066 0.70400596
0.019108254 0.0090512931 0.70361775
0.019078499 0.008033067 0.70323968
0.019042423 0.0070156455 0.70278132
0.018989475 0.0059967339 0.7021085
0.018919939 0.0049789846 0.70122498
0.018834626 0.0039652288 0.70014095
0.018743647 0.0029595494 0.69898492
0.018662916 0.0019645393 0.69795918
0.018593347 0.00097861886 0.69707513
0.018536646 2.9802322e-08 0.69635469
0.018485321 -0.00097286701 0.69570249
0.018448802 -0.0019419789 0.69523859
0.018417921 -0.0029080808 0.69484609
0.018410502 -0.0038758814 0.69475186
0.018420918 -0.004847616 0.69488418
0.018480649 -0.0058359504 0.69564319
0.01909674 -0.0070356131 0.70347148
0.01914697 -0.008061856 0.70410967
0.01921718 -0.0091028214 0.70500183
0.019307727 -0.010161966 0.70615232
0.019431645 -0.01124987 0.7077269
0.019626934 -0.012395918 0.7102083
0.025673516 0.065467477 0.77072769
0.024963522 0.062408805 0.7621572
0.024547607 0.060141683 0.7571367
0.024220949 0.058130294 0.75319362
0.02394359 0.05626747 0.74984562
0.023699535 0.054508984 0.7468996
0.02348022 0.052830487 0.74425226
0.023280188 0.051216453 0.74183762
0.023094404 0.049652994 0.73959506
0.022921534 0.048135251 0.7375083
0.022761894 0.046661913 0.73558128
0.02260977 0.045219541 0.73374498
0.022466831 0.043810338 0.73201954
0.022285214 0.042341918 0.72982723
0.022161832 0.040999413 0.72833788
0.022039905 0.039671838 0.72686607
0.022006754 0.038511872 0.72646588
0.027514922 0.046775401 0.7929554
0.027672574 0.04565984 0.79485846
0.027669666 0.044271469 0.79482329
0.027626891 0.042821705 0.79430693
0.027575275 0.041362941 0.79368395
0.027517498 0.039900392 0.79298645
0.027432406 0.038405389 0.79195929
0.027305905 0.036862969 0.79043233
0.027125457 0.035263121 0.78825414
0.026860723 0.033575922 0.7850585
0.026748719 0.032098472 0.78370655
0.020871064 0.024001777 0.71275693
0.020805368 0.022885948 0.71196395
0.020743784 0.021780998 0.7112205
0.020685041 0.020685077 0.71051145
0.020626629 0.019595325 0.70980632
0.020572945 0.018515676 0.7091583
0.020521054 0.017442912 0.70853192
0.020473361 0.016378701 0.70795625
0.020427892 0.015320897 0.70740736
0.020382954 0.0142681 0.70686489
0.020343425 0.013223261 0.70638776
0.020305118 0.01218313 0.70592535
0.020270651 0.01114887 0.70550936
0.020238591 0.010119289 0.70512229
0.020206472 0.0090929568 0.70473462
0.020165347 0.0080661476 0.70423818
0.020105628 0.007036984 0.70351732
0.020028047 0.0060084164 0.70258081
0.01993469 0.0049837232 0.70145386
0.019838028 0.0039676428 0.7002871
0.019754536 0.0029632151 0.69927925
0.019682964 0.0019683242 0.69841528
0.019626066 0.00098130107 0.69772846
0.019571409 2.9802322e-08 0.69706869
0.0195374 -0.00097683072 0.69665819
0.019508759 -0.00195086 0.69631249
0.019503361 -0.0029254854 0.69624728
0.019525431 -0.0039050877 0.69651377
0.019616216 -0.0049040616 0.6976096
0.020245962 -0.0060737729 0.70521122
0.020305118 -0.0071067512 0.70592535
0.020381128 -0.0081524253 0.7068429
0.020485263 -0.009218365 0.7080999
0.020635393 -0.010317683 0.70991206
0.020888578 -0.011488676 0.71296835
0.027310744 0.067626595 0.77479219
0.026432455 0.06419313 0.76469517
0.025975188 0.06184575 0.75943828
0.025622884 0.059786767 0.75538814
0.025324609 0.057884842 0.75195909
0.025062814 0.056092948 0.74894947
0.024827829 0.054384828 0.74624789
0.024613805 0.052743882 0.74378747
0.024415232 0.051155746 0.74150467
0.024231343 0.049616575 0.73939055
0.024060888 0.04812178 0.73743099
0.023898685 0.046659321 0.73556626
0.023746593 0.045231611 0.73381776
0.023603315 0.043834746 0.73217064
0.023465108 0.04246068 0.73058176
0.02329262 0.041039407 0.72859883
0.023261065 0.039876133 0.72823608
0.029195225 0.044487953 0.79645669
0.029140005 0.043016255 0.79582191
0.029078074 0.041540116 0.79510993
0.028984869 0.040026724 0.79403836
0.028848154 0.038464248 0.79246664
0.028652905 0.036839485 0.79022205
0.028375434 0.035131484 0.78703213
0.028264299 0.033648014 0.7857545
0.022051301 0.025201529 0.71432823
0.021981461 0.024074972 0.71352541
0.021916445 0.022960097 0.71277797
0.021853998 0.021854013 0.71206003
0.021791995 0.020754308 0.71134722
0.021735646 0.019665599 0.71069944
0.021680573 0.018583357 0.71006632
0.021630408 0.017510325 0.70948964
0.021582337 0.0164437 0.70893693
0.021534566 0.015381843 0.70838773
0.021493511 0.014329046 0.70791584
0.021453228 0.0132806 0.70745265
0.021416845 0.012238234 0.70703441
0.021383027 0.011200637 0.70664561
0.021348182 0.010165811 0.70624506
0.021301184 0.0091290772 0.70570469
0.021233603 0.0080890059 0.7049278
0.021148724 0.0070495903 0.70395207
0.021046888 0.0060133934 0.70278126
0.02094703 0.0049874187 0.70163333
0.020860612 0.003973484 0.70063984
0.020786662 0.0029695332 0.69978964
0.02072827 0.0019741356 0.69911838
0.020674434 0.00098451972 0.69849944
0.020639347 2.9802322e-08 0.6980961
0.020615941 -0.0009816885 0.69782698
0.020610198 -0.0019628704 0.69776106
0.02064543 -0.0029492974 0.69816601
0.021354431 -0.0040674806 0.70631689
0.021411872 -0.0050980449 0.70697725
0.021481032 -0.0061374307 0.70777237
0.021570463 -0.0071901381 0.70880049
0.021692568 -0.0082637966 0.71020418
0.021873286 -0.0093742609 0.71228182
0.022232519 -0.010586917 0.71641159
0.027926486 0.066008061 0.76727772
0.027425392 0.063577086 0.76177883
0.027045889 0.061467975 0.75761437
0.026725974 0.059526026 0.75410366
0.026445644 0.057699621 0.75102741
0.026194677 0.0559614 0.74827337
0.025966177 0.054292917 0.74576592
0.025754398 0.052679479 0.74344188
0.025559096 0.051118225 0.74129868
0.025377491 0.049601465 0.73930585
0.025204796 0.048118293 0.73741078
0.025043437 0.046671897 0.73563999
0.024891106 0.045256585 0.73396844
0.024744401 0.043865085 0.73235846
0.024608431 0.042505473 0.73086643
0.024532201 0.041258723 0.73002982
0.030557116 0.041668832 0.79614544
0.03040956 0.040085316 0.79452622
0.030198663 0.038434684 0.79221189
0.029908694 0.03670615 0.7890299
0.023321213 0.027561486 0.71674085
0.023246352 0.026416332 0.71591932
0.023172364 0.025278986 0.71510744
0.023103883 0.024154127 0.71435595
0.023037642 0.023037672 0.71362901
0.022971777 0.021927625 0.71290624
0.022912964 0.020829976 0.71226084
0.022854453 0.019737959 0.71161878
0.022801995 0.018656194 0.71104312
0.022751098 0.01758042 0.71048462
0.022701459 0.016510159 0.70993984
0.022657908 0.01544857 0.70946193
0.022615733 0.014391869 0.70899916
0.022577696 0.013341397 0.70858169
0.022541912 0.012295604 0.70818907
0.022504123 0.011252075 0.70777434
0.022450425 0.010204762 0.70718509
0.022374673 0.0091533363 0.70635378
0.022281557 0.0081023872 0.70533198
0.022171516 0.0070545673 0.70412439
0.022068661 0.006018728 0.70299566
0.021979824 0.0049954653 0.70202082
0.021905381 0.0039828122 0.70120388
0.021843482 0.0029786825 0.70052469
0.021791937 0.0019811392 0.69995904
0.021754812 0.00098890066 0.69955164
0.021737456 -0 0.69936121
0.021738144 -0.0009880662 0.69936872
0.021784261 -0.0019803941 0.69987476
0.022534253 -0.0030727983 0.70810497
0.022594752 -0.0041081309 0.70876884
0.022674803 -0.005153358 0.70964742
0.022778969 -0.0062124133 0.71079046
0.022921935 -0.0072933137 0.71235925
0.023136713 -0.0084133446 0.7147162
0.029446125 0.067854136 0.76990455
