# .PCD v0.7 - Point Cloud Data file format
VERSION 0.7
FIELDS x y z
SIZE 4 4 4
TYPE F F F
COUNT 1 1 1
WIDTH 1354
HEIGHT 1
VIEWPOINT 0 0 0 1 0 0 0
POINTS 1354
DATA ascii
0.013516914 0.074862897 0.71184182
0.013504567 0.073755711 0.71161246
0.013492242 0.072650582 0.71138358
0.013479883 0.071547061 0.7111541
0.013467714 0.070446521 0.71092808
0.013455901 0.069349676 0.71070874
0.013444054 0.068254441 0.71048874
0.013432282 0.067161441 0.71027011
0.013420532 0.066070348 0.71005189
0.013408747 0.064980894 0.70983303
0.013397036 0.063893586 0.70961559
0.013385292 0.062807947 0.70939744
0.013373625 0.061724454 0.70918077
0.013361976 0.060642809 0.70896453
0.013350294 0.059562862 0.70874751
0.013338685 0.058485031 0.70853198
0.013327043 0.057408839 0.70831573
0.013315476 0.056334734 0.70810091
0.013303929 0.055262506 0.70788646
0.013292347 0.054191917 0.70767134
0.013280841 0.053123355 0.70745778
0.013269299 0.052056521 0.70724338
0.013257831 0.050991684 0.70703042
0.013246384 0.049928695 0.70681781
0.013234902 0.048867345 0.7066046
0.013223494 0.047808021 0.70639277
0.013212052 0.046750367 0.70618021
0.013201006 0.045695812 0.70597512
0.013189977 0.044643044 0.70577025
0.01317902 0.043592125 0.70556682
0.013168028 0.042542875 0.70536268
0.013157054 0.041495353 0.70515883
0.013146152 0.040449709 0.70495641
0.013135214 0.039405644 0.70475334
0.013124349 0.038363487 0.70455152
0.013113447 0.037322938 0.70434916
0.013102565 0.036284059 0.70414698
0.013091752 0.035247028 0.70394617
0.013080904 0.034211606 0.70374471
0.013070129 0.033178002 0.70354462
0.013059318 0.032146037 0.70334387
0.013048577 0.03111589 0.70314431
0.013037802 0.030087262 0.70294428
0.013027043 0.029060364 0.70274448
0.013016356 0.028035253 0.702546
0.013005632 0.027011722 0.70234692
0.01299498 0.02598998 0.70214903
0.012984293 0.024969816 0.70195055
0.012973676 0.023951381 0.70175344
0.012963023 0.022934556 0.70155555
0.012952439 0.021919519 0.70135903
0.012941874 0.020906121 0.70116282
0.012931582 0.019894749 0.70097166
0.012921306 0.018884987 0.70078087
0.012911099 0.017876923 0.70059133
0.012900856 0.016870379 0.70040107
0.01289063 0.015865415 0.70021111
0.012880418 0.014862061 0.70002151
0.012870276 0.013860285 0.69983321
0.012860097 0.012860119 0.69964415
0.012849935 0.011861503 0.69945544
0.01283979 0.010864437 0.69926703
0.012829711 0.0098690689 0.69907981
0.012819596 0.0088751316 0.69889206
0.012809498 0.0078827739 0.69870448
0.012799466 0.0068920255 0.69851816
0.012789399 0.0059028268 0.69833124
0.012779349 0.004915148 0.69814456
0.012769314 0.003929019 0.69795823
0.012759346 0.0029444993 0.6977731
0.012749342 0.0019614697 0.69758725
0.012739354 0.00097995996 0.69740182
0.012729382 2.9802322e-08 0.69721669
0.012719474 -0.00097838044 0.69703269
0.012709534 -0.0019553006 0.69684803
0.012699609 -0.002930671 0.69666374
0.012689698 -0.0039044917 0.69647968
0.012679853 -0.0048768222 0.69629681
0.012669974 -0.0058476627 0.69611341
0.012660061 -0.0068169534 0.69592929
0.012650114 -0.0077846646 0.69574451
0.012640231 -0.0087509453 0.69556105
0.012630316 -0.0097155869 0.69537687
0.012620219 -0.010678649 0.69518936
0.012609944 -0.011639893 0.69499856
0.012599685 -0.012599677 0.69480813
0.012589346 -0.013557732 0.69461608
0.012578974 -0.014514178 0.6944235
0.012568668 -0.015469134 0.69423205
0.012558379 -0.01642248 0.69404101
0.012547576 -0.017373562 0.69384038
0.012536644 -0.018322766 0.69363731
0.012525733 -0.01927036 0.69343472
0.012514839 -0.020216256 0.69323242
0.012502957 -0.021158814 0.69301176
0.012490951 -0.022099316 0.69278878
0.01247897 -0.023038089 0.69256628
0.012466963 -0.023974925 0.69234335
0.012455028 -0.024910033 0.69212162
0.012443068 -0.025843263 0.69189954
0.012430084 -0.026772439 0.69165838
0.012415564 -0.027696252 0.69138873
0.012401077 -0.028617859 0.69111973
0.012386626 -0.02953732 0.69085139
0.012369525 -0.03044802 0.69053376
0.012347265 -0.031343073 0.6901204
0.012325788 -0.032236665 0.68972158
0.012306105 -0.033131838 0.68935603
0.012286534 -0.034024239 0.68899256
0.012266978 -0.034913689 0.68862939
0.012247529 -0.035800427 0.6882683
0.012378375 -0.037135094 0.69069815
0.0123715 -0.038066149 0.69057047
0.012362519 -0.038989455 0.6904037
0.01235355 -0.039911449 0.6902371
0.012344547 -0.040831983 0.69006991
0.012335604 -0.041751266 0.68990386
0.012326674 -0.042669237 0.68973798
0.012317711 -0.043585747 0.68957156
0.012308806 -0.044501066 0.68940628
0.012299917 -0.045415044 0.68924111
0.012291037 -0.04632774 0.68907624
0.012282126 -0.047238916 0.68891072
0.012273272 -0.04814899 0.68874633
0.012264433 -0.049057722 0.68858218
0.012255652 -0.049965322 0.6884191
0.012246883 -0.05087164 0.68825626
0.012238127 -0.051776677 0.6880936
0.012229338 -0.052680165 0.68793041
0.012220607 -0.053582639 0.68776828
0.012211889 -0.054483801 0.68760639
0.012203184 -0.055383682 0.68744469
0.012194489 -0.056282222 0.68728322
0.012185945 -0.057180196 0.68712461
0.012177413 -0.058076888 0.68696612
0.012168893 -0.058972299 0.68680787
0.012160431 -0.059866697 0.68665075
0.012151933 -0.060759634 0.68649292
0.01214345 -0.061651349 0.68633538
0.012134977 -0.062541813 0.68617797
0.012126516 -0.063430995 0.68602091
0.01211811 -0.064319193 0.68586475
0.012109674 -0.065205932 0.68570805
0.012101248 -0.066091448 0.68555164
0.012092833 -0.066975683 0.68539542
0.012084476 -0.067858934 0.68524021
0.01207613 -0.068741053 0.68508518
0.012067797 -0.069621891 0.68493044
0.012059473 -0.070501506 0.68477583
0.012051161 -0.07137993 0.68462145
0.012042861 -0.072257161 0.68446732
0.012034574 -0.073133171 0.68431342
0.012026296 -0.074007958 0.68415976
0.012018031 -0.074881583 0.68400621
0.012009776 -0.075753957 0.68385297
0.012001533 -0.076625168 0.68369985
0.011993345 -0.077495441 0.68354785
0.011985124 -0.078364268 0.68339515
0.011976915 -0.079231888 0.68324268
0.011968717 -0.080098316 0.68309045
0.011960531 -0.080963597 0.6829384
0.011952355 -0.081827641 0.68278658
0.01194419 -0.082690507 0.68263495
0.011936037 -0.083552241 0.68248355
0.011936826 -0.084475949 0.68249822
0.011961322 -0.085569471 0.68295312
0.014821242 0.091044784 0.71640402
0.014806829 0.089898646 0.71615553
0.014792509 0.088755071 0.71590859
0.014778154 0.087613344 0.71566105
0.014763826 0.086473882 0.71541399
0.014749588 0.085336953 0.71516842
0.014735317 0.084201843 0.71492237
0.014721135 0.083069324 0.71467775
0.014706917 0.081938535 0.7144326
0.014692727 0.08081001 0.71418798
0.014678627 0.079683989 0.71394473
0.014664492 0.078559816 0.71370101
0.014650445 0.077438116 0.71345878
0.014636363 0.076318234 0.71321595
0.01462231 0.075200468 0.71297359
0.014608343 0.074085176 0.71273273
0.014594526 0.072972655 0.71249449
0.01458116 0.071864307 0.712264
0.014567756 0.070757717 0.71203285
0.014554439 0.069653422 0.7118032
0.014541144 0.068551093 0.71157402
0.014527815 0.067450583 0.71134412
0.014514571 0.066352308 0.71111572
0.01450135 0.065256119 0.71088773
0.014488094 0.064161628 0.71065915
0.014474921 0.063069344 0.71043193
0.014461772 0.061979055 0.7102052
0.014448647 0.060890764 0.70997894
0.014435487 0.059804171 0.70975196
0.01442241 0.058719844 0.70952642
0.014409356 0.057637423 0.70930135
0.014396267 0.056556791 0.70907563
0.01438326 0.055478305 0.70885134
0.014370278 0.054401785 0.70862746
0.01435732 0.053327233 0.70840394
0.014344324 0.052254349 0.70817995
0.014331413 0.051183641 0.70795727
0.014318932 0.050116301 0.70774204
0.014306474 0.049050808 0.70752722
0.014294096 0.047987372 0.70731372
0.01428174 0.046925753 0.70710069
0.014269347 0.045865774 0.70688695
0.014257033 0.044807822 0.70667458
0.014244683 0.043751568 0.70646161
0.014232412 0.042697251 0.70625007
0.01422016 0.041644752 0.70603877
0.014207875 0.040593952 0.70582694
0.014195667 0.039545089 0.70561641
0.014183423 0.038497865 0.70540524
0.014171256 0.037452638 0.70519543
0.014159111 0.036409169 0.70498598
0.01414693 0.03536734 0.70477593
0.014134826 0.034327447 0.70456725
0.014122686 0.033289194 0.70435792
0.014110625 0.032252908 0.7041499
0.014098527 0.031218201 0.70394129
0.014086505 0.030185431 0.70373398
0.014074504 0.02915436 0.70352703
0.014062468 0.028124958 0.70331949
0.014050566 0.027097553 0.70311421
0.01403902 0.026072502 0.70291513
0.014027437 0.025049031 0.7027154
0.014015931 0.024027288 0.70251697
0.014004386 0.023007214 0.70231789
0.013992861 0.021988779 0.70211911
0.013981409 0.020972133 0.7019217
0.013969922 0.019957036 0.70172358
0.013958453 0.018943667 0.70152581
0.013947058 0.017931968 0.70132935
0.013935628 0.016921848 0.70113218
0.01392427 0.015913457 0.70093632
0.013912876 0.014906675 0.70073986
0.013901501 0.013901532 0.7005437
0.013890199 0.012898058 0.70034879
0.013878861 0.011896223 0.70015323
0.013867595 0.010895997 0.69995904
0.013856294 0.0098973513 0.69976419
0.013845011 0.0089003742 0.69956958
0.0138338 0.0079050362 0.69937623
0.013822555 0.0069112778 0.69918227
0.013811382 0.0059191883 0.69898963
0.013800171 0.0049286485 0.69879627
0.013789034 0.0039397478 0.69860429
0.01377786 0.0029524267 0.69841158
0.013766757 0.0019667149 0.69822007
0.013755998 0.00098261237 0.69803458
0.013745201 2.9802322e-08 0.69784844
0.013734421 -0.00098100305 0.69766253
0.013723712 -0.001960516 0.69747782
0.013712966 -0.0029384792 0.69729251
0.013702237 -0.0039148927 0.69710749
0.013691524 -0.004889816 0.69692284
0.013680881 -0.0058631897 0.6967392
0.013670202 -0.0068350732 0.69655514
0.013659541 -0.0078054368 0.6963712
0.013648893 -0.0087742507 0.69618762
0.013638318 -0.0097416639 0.69600528
0.013627705 -0.010707468 0.6958223
0.013617108 -0.011671782 0.69563955
0.013606581 -0.012634665 0.69545799
0.013596018 -0.013595968 0.69527578
0.01358547 -0.014555812 0.69509393
0.013574939 -0.015514195 0.69491231
0.013564478 -0.016471148 0.69473195
0.013553979 -0.01742655 0.69455087
0.013543497 -0.018380463 0.69437015
0.013533032 -0.019332886 0.69418967
0.013522633 -0.020283937 0.69401038
0.0135122 -0.021233439 0.69383043
0.013501782 -0.022181481 0.69365078
0.013491433 -0.023128152 0.69347239
0.013481047 -0.024073243 0.69329321
0.013470626 -0.025016844 0.69311351
0.013460169 -0.025958866 0.69293326
0.01344978 -0.026899546 0.69275403
0.013439355 -0.027838647 0.69257426
0.013428997 -0.028776437 0.69239569
0.013418451 -0.02971226 0.69221383
0.013407612 -0.030645967 0.69202691
0.01339674 -0.031578004 0.6918394
0.013385835 -0.032508463 0.69165134
0.013374998 -0.033437461 0.69146448
0.013364179 -0.034364998 0.69127786
0.013352818 -0.035289586 0.691082
0.013341323 -0.036212146 0.69088376
0.01335954 -0.037215859 0.69119793
0.013350731 -0.038144916 0.691046
0.013340815 -0.039069504 0.69087505
0.013330913 -0.03999275 0.69070429
0.013321026 -0.040914595 0.69053376
0.013311155 -0.04183504 0.69036353
0.013301296 -0.042754143 0.69019359
0.013291505 -0.043672115 0.69002467
0.013281676 -0.044588447 0.68985522
0.013272063 -0.045504183 0.6896894
0.013262413 -0.046418458 0.68952304
0.01325283 -0.047331542 0.68935776
0.013243259 -0.048243254 0.68919271
0.013233651 -0.049153537 0.68902707
0.013224108 -0.050062686 0.68886244
0.013214578 -0.050970495 0.68869817
0.013205013 -0.051876813 0.68853319
0.01319551 -0.052782059 0.68836933
0.013186022 -0.053685904 0.68820572
0.013176499 -0.054588348 0.68804145
0.013167037 -0.05548963 0.68787831
0.013157589 -0.05638963 0.68771541
0.013148106 -0.05728817 0.68755186
0.013138686 -0.058185577 0.68738949
0.013129278 -0.059081763 0.68722725
0.013119835 -0.059976369 0.68706435
0.013110456 -0.060869962 0.68690258
0.013101138 -0.061762482 0.68674201
0.013091834 -0.06265375 0.68658149
0.013082543 -0.063543737 0.68642128
0.013073266 -0.064432502 0.6862613
0.013064 -0.065319985 0.68610156
0.0130547 -0.066205978 0.68594116
0.013045462 -0.067090929 0.68578184
0.013036236 -0.067974657 0.68562275
0.013027024 -0.068857104 0.68546385
0.013017824 -0.069738328 0.68530524
0.013008637 -0.070618302 0.68514687
0.012999465 -0.071497053 0.68498862
0.012990303 -0.072374523 0.68483067
0.012981109 -0.073250532 0.68467212
0.012971973 -0.074125558 0.68451458
0.012962853 -0.074999362 0.68435729
0.012953742 -0.075871915 0.68420017
0.012944742 -0.076743811 0.68404496
0.012935849 -0.077615052 0.68389165
0.012926921 -0.078484878 0.68373775
0.012918006 -0.079353452 0.68358397
0.012909151 -0.080221146 0.68343127
0.012900308 -0.081087634 0.68327874
0.012891475 -0.081952915 0.68312639
0.012882655 -0.082817078 0.68297434
0.012873849 -0.083680004 0.68282247
0.012879387 -0.084635958 0.68291801
0.01290582 -0.085731491 0.68337381
0.015958641 0.090432316 0.71767139
0.015942303 0.08927691 0.71740842
0.015925998 0.088123888 0.71714598
0.015909793 0.086973548 0.71688515
0.015893554 0.085825205 0.71662378
0.015877347 0.084679246 0.71636295
0.015861176 0.083535552 0.71610272
0.015845034 0.082394183 0.7158429
0.015828926 0.081255198 0.71558362
0.015812853 0.080118477 0.71532488
0.015796877 0.078984439 0.7150678
0.015780868 0.077852279 0.71481013
0.01576489 0.076722503 0.714553
0.015748946 0.075594932 0.71429634
0.015733033 0.074469686 0.71404028
0.015717547 0.073348552 0.71379107
0.015702488 0.072231472 0.71354866
0.015687391 0.071116239 0.71330559
0.015672322 0.070003033 0.71306312
0.015657347 0.06889233 0.71282214
0.015642336 0.067783475 0.7125805
0.01562742 0.066677034 0.71234041
0.015612466 0.065572381 0.71209979
0.015597541 0.064469844 0.71185952
0.01558271 0.063369721 0.71162081
0.015567841 0.062271386 0.71138155
0.015553066 0.061175436 0.71114373
0.015538255 0.060081273 0.71090531
0.01552347 0.058989227 0.71066737
0.01550878 0.057899475 0.71043098
0.015494052 0.056811541 0.71019393
0.015479417 0.055725902 0.70995831
0.015464745 0.054642111 0.70972222
0.015450227 0.053560853 0.70948851
0.015436246 0.052483261 0.7092635
0.015422226 0.051407456 0.7090379
0.015408296 0.050333768 0.70881367
0.015394391 0.049262077 0.70858985
0.015380446 0.048192054 0.70836544
0.015366591 0.047124237 0.70814246
0.01535276 0.046058297 0.70791984
0.015338891 0.044994116 0.70769662
0.01532511 0.04393205 0.70747483
0.015311355 0.042871803 0.70725346
0.015297623 0.041813523 0.70703238
0.015283854 0.040756941 0.70681083
0.015270171 0.039702445 0.70659059
0.015256513 0.038649857 0.70637077
0.015242819 0.037598938 0.70615035
0.015229209 0.036550105 0.70593131
0.015215625 0.035503149 0.70571268
0.015202064 0.034458071 0.7054944
0.015188467 0.033414662 0.7052756
0.015174955 0.03237325 0.7050581
0.015161712 0.031334251 0.70484495
0.015148674 0.030297339 0.70463514
0.015135722 0.029262394 0.70442671
0.015122791 0.028229237 0.70421857
0.015109821 0.027197719 0.70400983
0.015096935 0.026168048 0.70380241
0.01508401 0.025140047 0.70359439
0.015071167 0.024113864 0.70338768
0.015058286 0.023089409 0.70318037
0.015045486 0.022066742 0.70297438
0.01503271 0.021045834 0.70276868
0.015019894 0.020026565 0.70256245
0.01500716 0.019009054 0.70235753
0.014994388 0.017993242 0.70215189
0.014981696 0.016979247 0.70194769
0.014969029 0.015966982 0.70174378
0.01495632 0.014956355 0.70153928
0.014943694 0.013947487 0.70133603
0.01493103 0.012940258 0.70113218
0.014918446 0.011934757 0.70092964
0.014905884 0.010931015 0.70072746
0.014893282 0.0099288821 0.70052469
0.014880763 0.0089284778 0.70032316
0.01486844 0.0079298615 0.7001248
0.014856374 0.0069329441 0.69993067
0.014844268 0.0059377253 0.69973582
0.014832182 0.0049440563 0.69954133
0.014820173 0.003952086 0.69934797
0.014808127 0.0029616654 0.69915408
0.0147961 0.0019728243 0.69896054
0.01478415 0.0009855926 0.69876826
0.014772161 2.9802322e-08 0.69857526
0.01476025 -0.00098398328 0.69838351
0.014748299 -0.0019664168 0.69819123
0.014736369 -0.0029472709 0.69799918
0.014724516 -0.0039265156 0.69780838
0.014712624 -0.0049041808 0.69761699
0.014700809 -0.0058802962 0.6974268
0.014688956 -0.0068548322 0.69723606
0.01467712 -0.0078277588 0.69704562
0.014665361 -0.0087992251 0.69685638
0.014653565 -0.0097690225 0.69666648
0.014641846 -0.0107373 0.69647783
0.014630086 -0.011704028 0.69628859
0.014618346 -0.012669235 0.69609964
0.014606682 -0.013632864 0.69591188
0.01459498 -0.014594942 0.69572353
0.014583352 -0.015555531 0.69553643
0.014571743 -0.016514629 0.69534957
0.014560492 -0.017472565 0.6951685
0.014549202 -0.018428952 0.69498676
0.014537929 -0.019383907 0.69480538
0.014526675 -0.020337343 0.69462419
0.014515492 -0.021289378 0.69444418
0.014504272 -0.022239864 0.69426358
0.014493069 -0.023188919 0.69408333
0.014481883 -0.024136454 0.69390333
0.014470769 -0.025082648 0.69372445
0.014459617 -0.026027322 0.69354498
0.014448483 -0.026970476 0.69336569
0.014437366 -0.027912199 0.69318682
0.014426322 -0.028852642 0.69300902
0.014415238 -0.029791504 0.69283068
0.014404172 -0.030728906 0.69265258
0.014393178 -0.031664968 0.69247562
0.014382146 -0.032599509 0.69229811
0.014371131 -0.033532619 0.69212079
0.014360132 -0.03446427 0.69194371
0.014349204 -0.035394698 0.69176787
0.01433824 -0.036323518 0.69159138
0.014349314 -0.037308156 0.6917696
0.014338789 -0.038236737 0.6916002
0.014327893 -0.039162904 0.69142485
0.01431696 -0.040087491 0.69124889
0.014306099 -0.041010797 0.69107407
0.0142952 -0.041932583 0.69089866
0.014284318 -0.042852938 0.69072354
0.014273506 -0.043772042 0.69054949
0.014262657 -0.044689655 0.69037485
0.014252039 -0.045606494 0.69020402
0.014241492 -0.04652217 0.69003427
0.014230961 -0.047436535 0.68986475
0.014220445 -0.0483495 0.68969548
0.014209944 -0.049261153 0.68952656
0.01419946 -0.050171435 0.68935776
0.014188991 -0.051080346 0.68918926
0.014178537 -0.051987946 0.68902099
0.014168153 -0.052894413 0.68885386
0.014157728 -0.053799331 0.68868607
0.014147322 -0.054702938 0.68851864
0.014136929 -0.055605203 0.68835127
0.014126551 -0.056506187 0.68818432
0.014116243 -0.057406008 0.68801838
0.014105896 -0.05830431 0.68785185
0.014095564 -0.05920136 0.68768561
0.014085247 -0.060097039 0.68751949
0.014074998 -0.060991645 0.68735456
0.014064712 -0.061884701 0.68718904
0.014054441 -0.062776446 0.6870237
0.014044236 -0.063667208 0.68685949
0.014033994 -0.06455633 0.68669462
0.014023873 -0.065444738 0.68653172
0.01401387 -0.06633231 0.68637073
0.014003881 -0.067218602 0.68620992
0.013993855 -0.068103403 0.68604863
0.013983894 -0.068987191 0.68588829
0.013973949 -0.069869727 0.68572825
0.013963966 -0.070750713 0.68556756
0.013954048 -0.071630746 0.68540794
0.013944145 -0.072509497 0.68524849
0.013934257 -0.073387057 0.68508935
0.013924431 -0.074263632 0.68493122
0.013914622 -0.075138956 0.68477333
0.013904826 -0.076013029 0.68461567
0.013895043 -0.076885879 0.68445826
0.013885275 -0.077757522 0.68430102
0.013875469 -0.078627661 0.68414325
0.013865728 -0.079496801 0.68398643
0.013856001 -0.080364794 0.6838299
0.013846288 -0.081231564 0.68367356
0.013836588 -0.082097083 0.68351746
0.013826901 -0.082961395 0.68336153
0.013817228 -0.083824515 0.68320584
0.013829143 -0.084818721 0.68339765
0.013858764 -0.085924298 0.68387431
0.017125675 0.089909822 0.71922743
0.017106062 0.088737726 0.71893144
0.017087441 0.087573171 0.71865046
0.017068861 0.086411148 0.71837008
0.017050395 0.085251957 0.71809149
0.017031893 0.084095001 0.71781236
0.017013434 0.082940489 0.71753383
0.016995015 0.08178854 0.71725583
0.016976634 0.080639064 0.71697855
0.016958367 0.07949239 0.71670294
0.016940067 0.078347862 0.71642673
0.016921805 0.077205747 0.71615124
0.016903583 0.076066166 0.71587622
0.0168854 0.074928969 0.71560192
0.016867328 0.073794574 0.71532923
0.016849224 0.072662294 0.71505606
0.016832147 0.07153663 0.71479839
0.016815107 0.070413291 0.71454132
0.016798172 0.069292456 0.71428573
0.0167812 0.068173647 0.71402961
0.016764261 0.067057073 0.71377409
0.016747359 0.065942764 0.71351898
0.016730489 0.064830661 0.71326452
0.016713655 0.063720852 0.71301043
0.016696852 0.062613219 0.71275693
0.016680153 0.06150806 0.71250498
0.016663419 0.060404897 0.7122525
0.016646719 0.05930391 0.71200049
0.01663005 0.058205187 0.71174902
0.016613416 0.057108641 0.71149802
0.016596815 0.05601427 0.71124756
0.016580248 0.054922074 0.71099752
0.016564192 0.053833634 0.71075523
0.016548511 0.052748412 0.71051866
0.016532792 0.051665008 0.71028143
0.016517168 0.050583839 0.71004575
0.016501509 0.049504548 0.70980942
0.016485944 0.048427492 0.70957458
0.016470343 0.047352254 0.70933914
0.016454771 0.046279043 0.70910424
0.016439296 0.045208067 0.70887077
0.016423782 0.044138908 0.70863664
0.016408365 0.043071985 0.708404
0.016392909 0.04200685 0.70817083
0.016377483 0.040943712 0.70793808
0.016362153 0.039882749 0.70770675
0.016346784 0.038823605 0.70747483
0.016331511 0.037766665 0.7072444
0.0163162 0.036711454 0.70701337
0.016300919 0.0356583 0.70678276
0.016285731 0.034607202 0.70655364
0.016271167 0.033559293 0.70633382
0.016256562 0.032513171 0.70611346
0.016242051 0.031469017 0.70589447
0.016227566 0.030426741 0.70567596
0.016213039 0.029386133 0.70545679
0.016198605 0.028347582 0.705239
0.016184196 0.027310848 0.70502156
0.016169749 0.026275873 0.70480359
0.01615539 0.025242835 0.70458692
0.016141059 0.024211615 0.70437068
0.016126754 0.023182243 0.70415485
0.016112408 0.02215457 0.70393836
0.016098151 0.021128863 0.70372325
0.01608392 0.020104915 0.7035085
0.016069651 0.019082755 0.7032932
0.01605547 0.018062443 0.70307928
0.016041314 0.017043918 0.70286572
0.016027186 0.016027212 0.70265239
0.016013017 0.015012234 0.70243871
0.015998935 0.013999075 0.70222622
0.015984943 0.012987792 0.7020151
0.015971359 0.011978537 0.70181006
0.01595786 0.01097104 0.70160639
0.015944321 0.0099652112 0.70140219
0.015930869 0.0089611411 0.70119917
0.015917439 0.00795874 0.70099652
0.015903967 0.0069580078 0.70079327
0.015890583 0.0059590042 0.70059133
0.015877157 0.0049616098 0.70038867
0.015863819 0.0039660037 0.70018744
0.015850501 0.002971977 0.69998646
0.015837142 0.0019796789 0.69978487
0.015823871 0.00098899007 0.69958466
0.015810559 2.9802322e-08 0.69938374
0.01579733 -0.00098732114 0.69918418
0.015784124 -0.001973033 0.69898492
0.015770877 -0.002957046 0.69878507
0.015757715 -0.00393942 0.69858646
0.015744515 -0.004920125 0.69838727
0.015731396 -0.0058992505 0.69818932
0.0157183 -0.0068767071 0.69799173
0.015705165 -0.0078525543 0.69779354
0.015692113 -0.0088267922 0.69759661
0.01567902 -0.0097993612 0.69739902
0.015666381 -0.010770619 0.69720829
0.015653759 -0.011740297 0.69701791
0.01564122 -0.012708485 0.69682872
0.01562864 -0.013675034 0.69663882
0.015616079 -0.014640033 0.6964494
0.0156036 -0.015603572 0.69626105
0.015591081 -0.016565531 0.6960721
0.015578641 -0.017525971 0.69588447
0.015566162 -0.018484801 0.69569618
0.015553702 -0.019442111 0.69550812
0.015541322 -0.020397961 0.69532138
0.015528901 -0.021352232 0.69513392
0.015516562 -0.022305012 0.69494772
0.015504181 -0.023256242 0.69476092
0.01549182 -0.024205923 0.69457442
0.01547954 -0.025154263 0.6943891
0.015467218 -0.026100934 0.69420326
0.015454975 -0.027046204 0.69401848
0.015442693 -0.027989864 0.69383311
0.01543043 -0.028932035 0.6936481
0.015418246 -0.029872835 0.69346428
0.015406022 -0.030812025 0.6932798
0.015393876 -0.031749845 0.69309652
0.01538169 -0.032686085 0.6929127
0.015369523 -0.033620805 0.69272918
0.015357494 -0.034554332 0.69254762
0.015345719 -0.035486996 0.69236994
0.01533402 -0.036418289 0.69219339
0.015346367 -0.037406743 0.69237971
0.01533455 -0.038336337 0.69220138
0.01532281 -0.039264709 0.69202423
0.015311087 -0.040191591 0.69184732
0.015299441 -0.041117251 0.69167161
0.015287755 -0.042041302 0.6914953
0.015276087 -0.042963982 0.69131923
0.015264495 -0.04388541 0.69114435
0.015252862 -0.044805259 0.69096881
0.015241304 -0.045723915 0.69079447
0.015229707 -0.046640962 0.69061947
0.015218127 -0.047556639 0.69044471
0.015206622 -0.048471093 0.69027108
0.015195076 -0.049383998 0.69009691
0.015183606 -0.050295681 0.68992388
0.015172097 -0.051205814 0.68975013
0.015160603 -0.052114546 0.68957675
0.015149187 -0.053022146 0.68940449
0.015137728 -0.053928167 0.68923157
0.015126345 -0.054832995 0.68905985
0.015114922 -0.055736214 0.68888748
0.015103515 -0.056638151 0.68871534
0.015092183 -0.057538956 0.68854439
0.015080811 -0.058438122 0.68837273
0.015069456 -0.059335977 0.68820143
0.015058176 -0.060232669 0.6880312
0.01504691 -0.06112805 0.68786126
0.015035889 -0.062023014 0.68769491
0.015024884 -0.062916696 0.68752891
0.015013895 -0.063809037 0.68736303
0.015002922 -0.064700097 0.68719751
0.014991964 -0.065589815 0.68703216
0.014981023 -0.066478252 0.68686706
0.014970099 -0.067365408 0.68670225
0.014959245 -0.06825152 0.68653846
0.014948351 -0.069136113 0.68637413
0.014937473 -0.070019394 0.68620998
0.014926611 -0.070901364 0.68604606
0.014915821 -0.071782351 0.68588328
0.014904991 -0.072661817 0.68571985
0.014894176 -0.073539972 0.68555671
0.014883433 -0.074417144 0.68539459
0.01487265 -0.075292796 0.68523192
0.014861882 -0.076167107 0.68506938
0.014851129 -0.077040195 0.68490714
0.014840447 -0.077912331 0.68474597
0.014829726 -0.078782901 0.6845842
0.01481902 -0.07965219 0.68442261
0.014808386 -0.080520585 0.68426222
0.01479771 -0.081387371 0.6841011
0.014787051 -0.082252964 0.68394029
0.014776407 -0.083117276 0.68377966
0.014765833 -0.08398065 0.6836201
0.014785958 -0.085019261 0.68392378
0.014819295 -0.086137131 0.68442678
0.018340647 0.089545518 0.72128117
0.018317187 0.088353515 0.72094798
0.018293787 0.087164521 0.72061563
0.018270524 0.085978955 0.7202853
0.018247243 0.084796041 0.71995467
0.018224178 0.083616853 0.71962714
0.018202884 0.082448393 0.71932471
0.018181641 0.081282616 0.71902311
0.018160446 0.08011961 0.71872205
0.018139377 0.078959703 0.71842283
0.018118283 0.077802062 0.71812326
0.018097235 0.076647162 0.71782434
0.018076235 0.075494885 0.71752614
0.018055286 0.07434532 0.71722865
0.018034462 0.073198736 0.71693295
0.01801361 0.072054446 0.71663678
0.017992804 0.070912838 0.71634132
0.017972048 0.069773823 0.71604657
0.017952325 0.068641275 0.71576643
0.017933022 0.067512572 0.71549237
0.017913837 0.06638661 0.71521986
0.017894616 0.065262765 0.71494693
0.017875439 0.064141273 0.71467459
0.0178563 0.063022256 0.71440279
0.017837202 0.061905593 0.71413159
0.017818222 0.060791612 0.71386206
0.017799206 0.059679717 0.71359199
0.017780231 0.058570176 0.71332252
0.017761298 0.05746302 0.71305364
0.017742403 0.056358248 0.7127853
0.017723624 0.055256039 0.71251863
0.017704809 0.054155916 0.71225142
0.017686328 0.053058982 0.71198905
0.017668622 0.051966548 0.71173757
0.017651023 0.050876498 0.71148759
0.017633386 0.049788386 0.71123707
0.017615784 0.048702508 0.71098721
0.017598217 0.047618717 0.71073771
0.017580686 0.046537101 0.71048874
0.017563188 0.045457661 0.71024019
0.017545799 0.044380575 0.70999324
0.017528372 0.043305397 0.70974582
0.017510979 0.042232394 0.70949882
0.017493621 0.041161478 0.70925236
0.017476296 0.040092707 0.70900625
0.017459007 0.039026052 0.70876074
0.017441751 0.037961483 0.7085157
0.017424529 0.03689903 0.70827115
0.017407414 0.035838813 0.70802808
0.01739083 0.034781665 0.70779258
0.017374489 0.03372699 0.70756048
0.017358251 0.032674342 0.70732987
0.017341971 0.031623602 0.70709866
0.017325724 0.030574828 0.70686793
0.017309574 0.029528111 0.70663857
0.017293386 0.028483242 0.70640874
0.0172773 0.027440429 0.70618027
0.017261172 0.026399463 0.70595121
0.017245075 0.025360435 0.70572257
0.017229076 0.024323434 0.70549542
0.017213037 0.02328825 0.70526767
0.017197099 0.022255063 0.70504129
0.017181121 0.021223754 0.70481437
0.017165173 0.020194352 0.70458788
0.017149322 0.019166887 0.70436287
0.017133433 0.01814127 0.70413715
0.017117642 0.017117679 0.70391291
0.017101809 0.016095847 0.70368803
0.017086625 0.015076429 0.70347244
0.017071469 0.014058888 0.70325714
0.017056407 0.013043165 0.70304334
0.017041372 0.012029201 0.70282984
0.017026294 0.011017025 0.70261574
0.017011313 0.010006696 0.70240289
0.016996356 0.0089980662 0.70219052
0.016981358 0.0079912245 0.70197755
0.016966455 0.0069862008 0.70176589
0.016951578 0.0059829056 0.7015546
0.016936727 0.0049814284 0.70134372
0.016921833 0.0039816201 0.70113224
0.016907034 0.0029836297 0.70092201
0.01689226 0.0019873381 0.7007122
0.016877446 0.00099280477 0.70050186
0.016862724 -0 0.70029277
0.016848028 -0.00099104643 0.70008409
0.016833358 -0.0019803643 0.69987571
0.016818648 -0.0029679835 0.6996668
0.016804028 -0.0039538443 0.6994592
0.016789434 -0.004938066 0.69925201
0.016775196 -0.0059206188 0.69904971
0.01676118 -0.0069016218 0.69885069
0.016747123 -0.0078809559 0.69865108
0.016733153 -0.0088587105 0.69845271
0.016719209 -0.009834826 0.6982547
0.016705221 -0.010809243 0.69805598
0.016691322 -0.01178208 0.69785869
0.016677381 -0.012753248 0.69766062
0.016663529 -0.013722867 0.69746393
0.016649634 -0.014690846 0.69726664
0.016635826 -0.015657216 0.69707054
0.016622042 -0.016622007 0.69687474
0.016608218 -0.017585158 0.69667852
0.016594479 -0.01854673 0.69648337
0.016580699 -0.019506663 0.69628763
0.016567007 -0.020465106 0.6960932
0.016553337 -0.021421909 0.69589907
0.016539626 -0.022377104 0.69570434
0.016526001 -0.023330808 0.69551086
0.016512334 -0.024282813 0.69531679
0.016498754 -0.025233358 0.69512397
0.016485197 -0.026182353 0.69493139
0.016471598 -0.02712968 0.69473827
0.016458148 -0.028075665 0.6945473
0.016445102 -0.029020786 0.69436204
0.016432013 -0.029964238 0.69417614
0.016418947 -0.03090623 0.69399059
0.016405962 -0.031846851 0.69380617
0.016392937 -0.032785863 0.69362116
0.016379993 -0.033723503 0.69343746
0.016367007 -0.034659535 0.69325304
0.016354043 -0.035594076 0.69306886
0.016341163 -0.036527276 0.69288599
0.016355112 -0.037520528 0.69308406
0.01634223 -0.038452297 0.69290113
0.016329303 -0.039382398 0.69271755
0.016316462 -0.040311247 0.69253516
0.016303577 -0.041238427 0.69235218
0.016290775 -0.042164356 0.69217038
0.01627793 -0.043088615 0.69198793
0.016265169 -0.044011593 0.69180679
0.016252365 -0.044932991 0.69162494
0.016239643 -0.045853078 0.69144428
0.016226942 -0.046771795 0.69126391
0.016214198 -0.047688812 0.69108289
0.016201535 -0.048604578 0.69090307
0.016188832 -0.049518764 0.69072264
0.016176209 -0.050431699 0.69054335
0.016163545 -0.051342964 0.69036353
0.016150961 -0.052253127 0.69018483
0.016138338 -0.053161591 0.6900056
0.016125793 -0.054068834 0.68982744
0.016113512 -0.05497548 0.68965304
0.016101312 -0.055881023 0.68947977
0.01608913 -0.056785136 0.6893068
0.016076965 -0.057687938 0.68913406
0.016064821 -0.058589339 0.68896151
0.016052693 -0.059489369 0.68878925
0.016040586 -0.060388058 0.68861735
0.016028494 -0.061285406 0.68844569
0.016016424 -0.062181354 0.6882742
0.016004367 -0.063076019 0.68810302
0.015992332 -0.063969314 0.68793213
0.015980255 -0.064861029 0.68776059
0.015968254 -0.065751612 0.68759012
0.015956273 -0.066640884 0.68742001
0.01594431 -0.067528814 0.68725014
0.015932364 -0.068415433 0.68708044
0.015920436 -0.069300711 0.68691111
0.015908526 -0.070184678 0.68674195
0.015896691 -0.071067542 0.68657386
0.015884817 -0.071948856 0.6864053
0.015872961 -0.072828829 0.68623692
0.01586118 -0.073707819 0.68606961
0.015849359 -0.07458517 0.6859017
0.015837615 -0.075461566 0.68573493
0.015825829 -0.076336354 0.68556756
0.015814176 -0.077210367 0.68540204
0.015802719 -0.078083992 0.68523937
0.015791336 -0.078956634 0.68507767
0.015779909 -0.079827785 0.68491542
0.015768502 -0.080697596 0.68475342
0.01575711 -0.081566185 0.68459165
0.015745793 -0.08243385 0.68443096
0.015734432 -0.083299905 0.68426961
0.015723091 -0.084164798 0.68410856
0.015752615 -0.085249454 0.68452787
0.015788874 -0.086374432 0.68504274
0.019641511 0.089478046 0.72425866
0.019608755 0.088239402 0.72381938
0.019576021 0.087004542 0.72338033
0.019545773 0.085784227 0.7229746
0.019517731 0.084576875 0.72259849
0.019489773 0.083372921 0.72222352
0.019461893 0.082172453 0.72184956
0.019434091 0.080975384 0.72147667
0.019406371 0.079781771 0.72110492
0.019378727 0.078591526 0.72073412
0.019351164 0.077404708 0.72036445
0.019323926 0.076222181 0.71999919
0.019299332 0.075052977 0.71966928
0.019274879 0.07388708 0.71934134
0.019250408 0.072723806 0.71901309
0.019225998 0.071563452 0.71868575
0.019201651 0.070406079 0.71835917
0.019177444 0.069251925 0.71803451
0.019153221 0.068100363 0.7177096
0.019129056 0.066951722 0.71738547
0.019105036 0.06580627 0.71706337
0.019080991 0.06466341 0.71674085
0.0190583 0.063527673 0.71643651
0.019036306 0.062396824 0.71614152
0.019014444 0.061268747 0.71584827
0.018992551 0.060143083 0.71555459
0.018970707 0.059019983 0.7152617
0.018948916 0.057899505 0.7149694
0.018927252 0.056781799 0.71467888
0.01890556 0.055666387 0.71438789
0.018883916 0.054553598 0.71409762
0.018862322 0.053443283 0.71380794
0.018840779 0.052335501 0.71351904
0.018819284 0.051230282 0.71323073
0.01879815 0.0501284 0.71294731
0.018778162 0.049031883 0.71267915
0.018758215 0.047937661 0.7124117
0.018738311 0.046845824 0.71214467
0.018718449 0.045756221 0.7118783
0.018698631 0.044668972 0.71161252
0.018678851 0.043584019 0.71134722
0.018659195 0.042501509 0.71108353
0.018639499 0.041421145 0.71081942
0.018619847 0.040343046 0.71055585
0.018600235 0.039267212 0.71029282
0.018580664 0.038193583 0.71003032
0.018561212 0.037122458 0.70976937
0.018541723 0.03605336 0.70950806
0.018522277 0.034986556 0.70924723
0.018503478 0.03392303 0.7089951
0.018485248 0.032862693 0.70875061
0.018466981 0.031804234 0.70850557
0.018448746 0.03074795 0.70826101
0.01843055 0.029693663 0.70801693
0.018412389 0.028641522 0.70777339
0.018394263 0.027591437 0.70753026
0.01837625 0.026543498 0.70728862
0.018358195 0.025497526 0.70704651
0.018340176 0.024453551 0.70680481
0.018322192 0.023411721 0.70656359
0.018304244 0.022371858 0.70632291
0.018286331 0.021334082 0.70608264
0.018268453 0.020298272 0.70584279
0.018250685 0.019264638 0.70560455
0.018232876 0.018232912 0.70536566
0.018215101 0.017203152 0.70512724
0.018198024 0.016176045 0.70489824
0.018181125 0.015150994 0.70467156
0.018164331 0.014127821 0.70444638
0.018147497 0.013106555 0.70422053
0.018130764 0.012087226 0.70399606
0.018113989 0.011069685 0.70377105
0.018097248 0.010054022 0.70354658
0.018080607 0.0090403259 0.70332336
0.018063925 0.0080284476 0.70309961
0.018047348 0.0070184171 0.70287734
0.018030729 0.006010294 0.70265436
0.018014209 0.0050039589 0.70243287
0.017997652 0.0039994717 0.70221072
0.017981123 0.0029968619 0.70198911
0.017964697 0.0019960999 0.70176876
0.017948227 0.0009971261 0.70154786
0.01793186 -0 0.70132834
0.017915454 -0.00099524856 0.70110828
0.017899076 -0.0019887388 0.70088863
0.017883295 -0.0029805303 0.70067698
0.017867614 -0.0039705634 0.70046663
0.017852031 -0.004958868 0.70025766
0.017836474 -0.0059454441 0.70004904
0.017820874 -0.0069303513 0.69983977
0.017805375 -0.0079134703 0.69963187
0.0177899 -0.0088949203 0.69942439
0.017774452 -0.0098747015 0.6992172
0.01775896 -0.010852695 0.69900936
0.017743565 -0.011829048 0.69880289
0.017728198 -0.012803674 0.69859684
0.017712787 -0.013776571 0.69839013
0.017697474 -0.014747888 0.69818473
0.017682185 -0.015717477 0.69797969
0.017666854 -0.016685307 0.69777399
0.017651619 -0.017651618 0.69756973
0.017636411 -0.018616199 0.69736576
0.01762116 -0.019579053 0.69716114
0.017606003 -0.020540297 0.69695783
0.017590873 -0.021499902 0.69675493
0.017575769 -0.022457898 0.6965524
0.017560827 -0.023414433 0.69635201
0.017546322 -0.024369836 0.6961574
0.017531771 -0.025323659 0.69596225
0.017517313 -0.026275963 0.6957683
0.017502811 -0.027226567 0.69557381
0.0174884 -0.028175712 0.69538051
0.017474014 -0.029123336 0.69518757
0.017459584 -0.030069292 0.69499409
0.017445246 -0.031013727 0.69480169
0.017430862 -0.031956583 0.69460881
0.01741657 -0.032897949 0.69441712
0.017402301 -0.033837795 0.69422579
0.01738799 -0.034775943 0.69403374
0.017373767 -0.035712719 0.69384301
0.017359501 -0.036647826 0.69365174
0.017375577 -0.037647069 0.69386733
0.017361375 -0.038580835 0.69367683
0.017347196 -0.039513022 0.69348663
0.017333042 -0.040443718 0.69329685
0.017318843 -0.041372746 0.69310635
0.017304733 -0.042300433 0.69291711
0.017290648 -0.0432266 0.69272822
0.017276585 -0.044151276 0.69253963
0.017262544 -0.045074403 0.69235134
0.017248526 -0.04599607 0.69216329
0.017234467 -0.046916038 0.69197476
0.017220495 -0.047834694 0.6917873
0.017206678 -0.048752218 0.69160193
0.017193144 -0.049669057 0.69142044
0.017179631 -0.050584435 0.69123924
0.017166141 -0.051498383 0.69105828
0.017152673 -0.05241093 0.69087768
0.017139224 -0.053322017 0.69069731
0.017125797 -0.054231673 0.69051719
0.017112391 -0.055139929 0.69033736
0.017099006 -0.056046724 0.69015783
0.017085705 -0.056952327 0.68997949
0.017072361 -0.057856292 0.6898005
0.017059039 -0.058758914 0.68962181
0.017045802 -0.059660256 0.6894443
0.017032521 -0.060560048 0.6892662
0.017019326 -0.061458677 0.68908918
0.017006084 -0.062355638 0.68891156
0.016992928 -0.063251436 0.68873513
0.01697973 -0.064145625 0.6885581
0.016966615 -0.065038711 0.68838221
0.016953457 -0.065930128 0.68820578
0.016940383 -0.066820413 0.68803042
0.016927265 -0.067709029 0.68785441
0.016914232 -0.068596601 0.68767959
0.016901217 -0.069482774 0.68750507
0.016888224 -0.070367575 0.68733078
0.016875567 -0.071252346 0.68716097
0.016862929 -0.072135866 0.68699157
0.016850308 -0.073017985 0.6868223
0.016837707 -0.073898822 0.68665326
0.016825126 -0.074778318 0.68648452
0.016812563 -0.075656533 0.68631601
0.016800018 -0.076533377 0.68614775
0.016787492 -0.077408969 0.68597978
0.016774923 -0.078282952 0.68581116
0.016762435 -0.079155907 0.68564367
0.016749965 -0.08002758 0.68547642
0.016737513 -0.080897987 0.68530941
0.016725082 -0.081767052 0.68514264
0.016712667 -0.082634836 0.68497616
0.016700272 -0.083501369 0.68480992
0.0166908 -0.084381267 0.68468291
0.016730798 -0.085512951 0.68521935
0.021095786 0.085493475 0.72887206
0.020985793 0.083943218 0.72747451
0.020922335 0.082588226 0.72666818
0.02085926 0.081241339 0.72586673
0.020808581 0.079948783 0.72522277
0.020765312 0.078689635 0.72467297
0.02072213 0.077435344 0.72412431
0.020679219 0.076186597 0.72357905
0.020636396 0.074942738 0.72303498
0.020601515 0.07373178 0.7225917
0.020567374 0.072527081 0.72215796
0.020533258 0.071326077 0.72172439
0.020499254 0.070129067 0.72129238
0.020465452 0.068936288 0.72086287
0.020431671 0.067747146 0.72043365
0.020399667 0.066567361 0.72002697
0.020370731 0.065400779 0.71965927
0.020341875 0.064237535 0.71929264
0.020313103 0.063077509 0.71892703
0.020284411 0.061920881 0.71856248
0.020255798 0.060767412 0.7181989
0.020227268 0.059617251 0.71783644
0.020198818 0.058470249 0.71747488
0.020170446 0.057326585 0.71711439
0.020144463 0.056192487 0.71678424
0.020119138 0.05506292 0.71646249
0.020093879 0.053936243 0.71614152
0.020068767 0.052812546 0.71582246
0.020043634 0.051691502 0.7155031
0.020018563 0.05057323 0.71518451
0.01999364 0.049457937 0.71486783
0.019968694 0.048345298 0.71455085
0.019943811 0.04723537 0.71423471
0.019918989 0.046128213 0.71391928
0.019894812 0.04502514 0.71361208
0.019872107 0.043927819 0.71332359
0.019849535 0.042833239 0.71303678
0.019826932 0.041740924 0.7127496
0.019804381 0.040651143 0.71246302
0.019781962 0.039563984 0.71217817
0.019759513 0.03847909 0.7118929
0.019737115 0.037396669 0.71160835
0.019714769 0.036316693 0.71132439
0.019692471 0.03523919 0.71104109
0.019670224 0.034164041 0.71075839
0.019648109 0.033091575 0.71047735
0.019625962 0.032021314 0.71019596
0.019604754 0.030954897 0.70992649
0.019584157 0.02989164 0.70966476
0.019563602 0.028830647 0.70940357
0.019543093 0.027771771 0.70914298
0.019522706 0.026715308 0.708884
0.01950228 0.025660902 0.70862448
0.019481899 0.024608731 0.70836544
0.019461557 0.023558766 0.70810699
0.019441262 0.022510946 0.70784909
0.019421006 0.021465331 0.70759177
0.019400794 0.020421892 0.70733494
0.019380702 0.019380718 0.70707965
0.019360572 0.018341601 0.70682383
0.019340485 0.017304689 0.7065686
0.01932044 0.016269833 0.70631391
0.019301377 0.015237927 0.70607173
0.019282585 0.014208257 0.70583284
0.019263752 0.013180494 0.70559359
0.019244956 0.012154728 0.70535475
0.019226195 0.011130959 0.70511639
0.019207472 0.010109216 0.70487851
0.019188864 0.0090894997 0.70464206
0.019170213 0.0080716908 0.70440507
0.0191516 0.0070558786 0.70416862
0.01913302 0.0060420334 0.7039324
0.019114479 0.0050301552 0.70369685
0.019095972 0.0040202439 0.70346171
0.019077579 0.0030122995 0.703228
0.019059144 0.0020062327 0.70299381
0.019040745 0.0010021925 0.70275998
0.019022381 -0 0.70252669
0.019004053 -0.0010001659 0.70229375
0.018986518 -0.0019985437 0.70207095
0.018969167 -0.0029951036 0.70185047
0.018951772 -0.0039898157 0.70162946
0.018934408 -0.0049827099 0.7014088
0.018917153 -0.0059738159 0.70118958
0.018899854 -0.0069630742 0.70096976
0.01888266 -0.007950604 0.7007513
0.018865423 -0.0089362562 0.70053232
0.018848294 -0.0099200904 0.70031464
0.018831119 -0.010902196 0.70009637
0.018813977 -0.011882484 0.69987857
0.018796939 -0.012861013 0.69966203
0.018779859 -0.013837755 0.69944501
0.018762883 -0.014812768 0.69922942
0.018745864 -0.015785992 0.69901311
0.018728876 -0.016757399 0.69879723
0.018711993 -0.017727137 0.69858277
0.018695068 -0.018695027 0.6983676
0.018678244 -0.019661278 0.69815385
0.018661819 -0.020626217 0.69794524
0.01864564 -0.021589637 0.69773966
0.018629564 -0.022551566 0.6975354
0.018613515 -0.023511797 0.69733143
0.01859742 -0.02447027 0.69712692
0.018581426 -0.025427222 0.69692373
0.018565461 -0.026382476 0.69672084
0.01854945 -0.027336001 0.69651735
0.018533537 -0.028288007 0.69631523
0.018517654 -0.029238373 0.69611335
0.018501796 -0.03018713 0.69591188
0.018485894 -0.031134129 0.69570982
0.018470094 -0.032079637 0.69550908
0.018454317 -0.033023477 0.69530863
0.018438496 -0.033965647 0.69510764
0.018422775 -0.034906268 0.69490778
0.01840708 -0.035845369 0.69470841
0.018391341 -0.036782652 0.69450837
0.018410003 -0.037788898 0.69474554
0.018394331 -0.038724869 0.6945464
0.018378682 -0.039659232 0.69434756
0.018363064 -0.040592045 0.69414914
0.01834747 -0.041523218 0.69395095
0.018331902 -0.042452782 0.69375318
0.018316364 -0.043380857 0.69355571
0.018300919 -0.04430747 0.69335949
0.018285993 -0.045233756 0.69316983
0.018271023 -0.046158344 0.69297957
0.018256076 -0.047081441 0.69278967
0.018241225 -0.048003227 0.69260097
0.018226326 -0.048923284 0.69241166
0.018211521 -0.04984206 0.69222355
0.018196743 -0.050759345 0.69203573
0.018181916 -0.051674902 0.69184732
0.018167185 -0.052589178 0.69166017
0.018152477 -0.053502023 0.69147336
0.018137792 -0.054413348 0.69128674
0.018123131 -0.055323213 0.69110042
0.018108495 -0.056231618 0.69091445
0.018093813 -0.057138354 0.69072789
0.018079225 -0.058043808 0.69054258
0.018064657 -0.058947831 0.69035745
0.018050116 -0.059850365 0.69017267
0.018035594 -0.060751438 0.68998814
0.018021101 -0.061651081 0.68980396
0.018006627 -0.062549323 0.68962008
0.017992109 -0.063445807 0.6894356
0.017977683 -0.064341158 0.68925232
0.017963484 -0.065235794 0.68907189
0.01794951 -0.066129744 0.68889433
0.017935559 -0.067022324 0.68871707
0.017921697 -0.067913771 0.68854094
0.017907787 -0.068803579 0.68836421
0.017893901 -0.069692016 0.68818772
0.017880036 -0.070579052 0.68801159
0.017866191 -0.071464717 0.68783563
0.01785237 -0.072349072 0.68766004
0.017838567 -0.073232025 0.68748468
0.017824788 -0.074113578 0.68730962
0.017811028 -0.074993819 0.68713474
0.017797291 -0.07587263 0.68696016
0.017783575 -0.076750129 0.68678588
0.017769881 -0.077626288 0.68661189
0.017756205 -0.078501135 0.68643814
0.017742554 -0.079374567 0.68626469
0.017728921 -0.080246672 0.68609142
0.017715311 -0.081117451 0.68591851
0.017701786 -0.081987187 0.68574661
0.017688215 -0.082855329 0.68557423
0.017674668 -0.083722115 0.68540204
0.017675851 -0.084658027 0.68541712
0.017721387 -0.085808799 0.6859957
0.022837734 0.087925315 0.73649675
0.022815241 0.086697906 0.73622525
0.022792794 0.085472971 0.73595423
0.022770386 0.08425048 0.7356838
0.022748027 0.083030313 0.73541385
0.022725709 0.081812561 0.73514444
0.022703435 0.080597222 0.73487562
0.022681411 0.079384983 0.73460972
0.02265892 0.07817328 0.73433828
0.02263657 0.076964349 0.73406851
0.022614166 0.075757474 0.73379803
0.022591908 0.074553311 0.73352933
0.022569587 0.073351175 0.73325992
0.022547316 0.072151452 0.7329911
0.022525189 0.070954353 0.73272401
0.022501586 0.069754899 0.73243904
0.022471068 0.068536788 0.73207068
0.021955768 0.065867305 0.72585046
0.021840667 0.064430028 0.72446108
0.021775367 0.063148588 0.72367281
0.021710457 0.061874807 0.7228893
0.021657271 0.060640395 0.72224724
0.021612648 0.059434801 0.72170866
0.021568304 0.058234453 0.72117335
0.021524047 0.057038724 0.72063911
0.021479972 0.055847943 0.72010708
0.021443242 0.054680288 0.71966374
0.02140801 0.053520054 0.71923846
0.021372896 0.052363634 0.71881461
0.021337988 0.051211178 0.71839321
0.021303102 0.050062329 0.71797216
0.021268331 0.048917174 0.71755236
0.021234483 0.047777623 0.71714377
0.021204697 0.04665032 0.71678424
0.021174993 0.045526296 0.71642566
0.021145372 0.044405282 0.71606815
0.021115836 0.043287486 0.71571159
0.021086382 0.04217279 0.71535599
0.021057008 0.041061193 0.71500146
0.021027718 0.039952666 0.71464789
0.020998508 0.038847268 0.71429527
0.020970961 0.037747741 0.71396279
0.020944888 0.036653578 0.71364808
0.020918882 0.035562128 0.71333414
0.020892939 0.03447336 0.71302098
0.020867147 0.033387452 0.71270967
0.020841334 0.032304108 0.71239805
0.020815583 0.031223416 0.71208727
0.020789981 0.030145496 0.71177816
0.020764358 0.029070109 0.71146888
0.020738797 0.027997375 0.7111603
0.020713298 0.026927322 0.7108525
0.020689661 0.025862128 0.71056718
0.020666329 0.024799615 0.71028554
0.020643139 0.023739636 0.71000564
0.020619914 0.022681922 0.70972526
0.020596826 0.021626711 0.70944655
0.020573707 0.020573735 0.70916754
0.020550638 0.019523114 0.70888907
0.020527622 0.018474877 0.70861125
0.020504741 0.017429054 0.70833504
0.020481827 0.016385496 0.70805848
0.020458963 0.015344262 0.70778239
0.020436151 0.014305294 0.70750707
0.020413555 0.013268858 0.70723432
0.020392342 0.012235403 0.7069782
0.020371171 0.011204153 0.70672268
0.020350043 0.010175049 0.70646763
0.020328959 0.0091480613 0.70621324
0.020307919 0.008123219 0.70595914
0.020286923 0.0071004331 0.7057057
0.020265972 0.006079793 0.7054528
0.02024506 0.0050612688 0.70520037
0.020224195 0.0040448606 0.70494854
0.020203453 0.0030305684 0.70469809
0.020182671 0.0020182729 0.70444727
0.020161934 0.0010081232 0.70419693
0.020141238 -0 0.70394719
0.020120585 -0.0010060072 0.70369786
0.020100135 -0.0020100176 0.70345104
0.020080775 -0.0030120909 0.70321733
0.020061372 -0.0040122569 0.70298302
0.020042006 -0.0050104856 0.70274937
0.020022677 -0.0060067773 0.70251602
0.020003386 -0.0070011616 0.70228314
0.019984212 -0.0079936683 0.7020517
0.019964995 -0.0089842081 0.70181966
0.019945815 -0.0099729002 0.70158815
0.019926671 -0.010959655 0.70135707
0.019907564 -0.011944503 0.70112646
0.019888494 -0.012927502 0.70089626
0.01986954 -0.013908654 0.70066744
0.019850541 -0.014887869 0.70043814
0.019831579 -0.015865266 0.70020932
0.019812655 -0.016840726 0.69998085
0.019793766 -0.017814368 0.69975281
0.019774992 -0.018786222 0.69952613
0.019756954 -0.019756913 0.6993084
0.019739106 -0.020726025 0.69909298
0.019721212 -0.021693319 0.69887698
0.019703427 -0.022658885 0.69866234
0.0196856 -0.023622721 0.69844711
0.019667801 -0.02458474 0.69823223
0.019650113 -0.02554512 0.69801873
0.01963238 -0.026503712 0.69780469
0.019614756 -0.027460635 0.69759196
0.019597087 -0.028415769 0.69737864
0.019579526 -0.029369265 0.69716668
0.01956192 -0.030320972 0.69695413
0.019544346 -0.031270951 0.69674206
0.01952688 -0.03221935 0.69653118
0.019509368 -0.033165902 0.69631982
0.019491963 -0.034110934 0.69610965
0.019474514 -0.035054088 0.69589907
0.019457173 -0.035995752 0.69568974
0.019439785 -0.036935568 0.69547987
0.019461712 -0.037950277 0.69574451
0.019444393 -0.038888782 0.69553542
0.019427106 -0.039825559 0.69532675
0.019409772 -0.040760487 0.69511759
0.019392695 -0.041694283 0.69491148
0.019376174 -0.042627573 0.69471204
0.019359682 -0.043559283 0.69451296
0.019343216 -0.044489384 0.69431418
0.019326778 -0.045417935 0.69411576
0.019310368 -0.046344846 0.69391769
0.019293986 -0.047270238 0.69371986
0.019277634 -0.048194081 0.69352257
0.019261308 -0.049116343 0.69332546
