# .PCD v0.7 - Point Cloud Data file format
VERSION 0.7
FIELDS x y z
SIZE 4 4 4
TYPE F F F
COUNT 1 1 1
WIDTH 503
HEIGHT 1
VIEWPOINT 0 0 0 1 0 0 0
POINTS 503
DATA ascii
-0.013483605 -0.00069142878 0.62775445
-0.011077907 0.0013847649 0.62797362
-0.0013820839 0.0055283606 0.62765318
-0.011448488 0.0024286658 0.62832892
-0.0083166463 0.0034652948 0.6281389
-0.0083166463 0.0034652948 0.6281389
-0.0041570449 0.0055427253 0.62808752
-0.0034681819 0.0065897852 0.62827957
0.0034642138 0.0069284439 0.62808794
0.0076282211 0.012482584 0.62824047
-0.010456378 -0.0020912588 0.62911379
-0.017442636 0.0024421811 0.62926185
-0.0014011289 0.0028022826 0.62995213
-0.017474281 0.0034948885 0.6295675
-0.013630265 0.0055918694 0.62957013
0.008386624 0.017472118 0.62954676
0.010481659 0.018517807 0.62952065
0.013337953 0.02105996 0.63029808
0.010551754 0.022510439 0.63064885
-0.028340658 0.0056681633 0.63187188
0.0042324839 0.0063487291 0.63112295
0.013419859 0.026486814 0.63133883
-0.028427739 0.0074625015 0.63239753
0.012451025 0.01956597 0.63259065
0.011358233 0.028395593 0.6322034
0.011379177 0.029514953 0.63251942
-0.029361162 0.0057290494 0.63370895
0.0072078048 0.00792858 0.63483274
-0.031686042 0.013682634 0.63467741
-0.031686042 0.013682634 0.63467741
0.010446027 0.025575012 0.63474756
0.0093273651 0.033722043 0.63403821
-0.010106416 -0.0043312907 0.63509983
-0.0014486267 0.00072434545 0.63568562
-0.034834411 0.016691506 0.63602442
-0.0058608353 -0.0014651716 0.63768733
0.00073711574 0.00073713064 0.63877642
-0.034557588 0.017646432 0.63833028
-0.03948148 0.024353072 0.63898289
-0.0014829219 -0.00074145198 0.63982546
-0.034872435 0.030420631 0.63994753
-0.0025915902 0.046646312 0.63957351
-0.00073913235 0.046565384 0.63926327
0.0055868528 0.033521906 0.64066303
-0.0066989521 0.04651998 0.64051759
-0.0044824956 -0.0022412539 0.64118266
0.0074747996 0.0052323639 0.64127851
-0.038964652 0.020231664 0.6417228
-0.038267024 0.025511354 0.64196754
-0.038267024 0.025511354 0.64196754
-0.033622045 0.035490185 0.64120042
-0.033622045 0.035490185 0.64120042
-0.030765623 0.039770246 0.64197892
-0.0085957535 0.049331442 0.64127016
-0.032390349 0.021844655 0.64267492
0.0063873362 0.033063218 0.64223361
-0.028552677 0.036066562 0.64222157
-0.0045186449 0.04518649 0.64263713
-0.013537068 0.049635947 0.64238405
-0.0075766682 -0.0053036213 0.64373779
-0.0075766682 -0.0053036213 0.64373779
-0.0075766682 -0.0053036213 0.64373779
0.010617174 0.0083420873 0.64390749
-0.034052648 0.018539473 0.64351058
-0.012498813 0.043178245 0.64370072
-0.01894471 0.045467317 0.64376724
0.015937744 0.017455637 0.64404529
-0.031922452 0.034202665 0.64431524
-0.0022975204 -0.0030633509 0.64571106
0.0022918237 -0.00076389313 0.64525265
0.0092021106 0.031440556 0.64595306
-0.023679864 0.039721072 0.64523464
-0.03153304 0.021534771 0.64649773
0.0084805498 0.031609356 0.64694691
-0.030843686 0.033156991 0.64697897
-0.028454198 0.038451642 0.64648175
0.0092640985 0.0046320856 0.64720017
-0.0065767709 0.04410623 0.64763105
-0.0046426654 0.044105321 0.64762729
-0.031933177 0.031933188 0.64885384
-0.023347422 0.038912386 0.64870644
-0.009341904 0.04203856 0.6487655
-0.0062558707 -0.0062558353 0.64960849
-0.0062558707 -0.0062558353 0.64960849
0.014815275 0.014815301 0.64906955
0.016428951 0.015646636 0.6496923
-0.020317547 0.042587847 0.6494782
-0.027426787 0.0086198449 0.65000415
-0.032218032 0.018073529 0.65053117
-0.020423826 0.041633219 0.65046507
-0.0039273631 0.043201029 0.65045077
-0.0086745145 -0.0094631016 0.65120387
-0.0039565051 -0.0055390894 0.65185785
0.0055149826 -0.00078782439 0.65102583
-0.03164313 0.018194854 0.65180409
0.0095377862 0.002384454 0.65270633
-0.019900102 0.041392237 0.65299332
-0.019811789 0.042001009 0.65214044
-0.004765396 0.042888582 0.6525656
-0.031982221 0.016790688 0.65385067
-0.031982221 0.016790688 0.65385067
0.0015959231 0.039898068 0.65346587
0.017677903 0.014463753 0.65481293
-0.032044999 0.028039396 0.65422958
0.0040606931 -0.0040606856 0.65688848
-0.029977798 0.030788004 0.65642309
-0.029977798 0.030788004 0.65642309
-0.018628091 0.04130578 0.65635216
0.017133165 0.013053864 0.65778816
0.001629371 0.039104939 0.65750337
-0.0057167043 0.040833592 0.65798301
0.000822831 -0.0065826178 0.6594699
-0.029662307 0.01730305 0.65974075
-0.01152297 0.038684279 0.65952742
-0.0091117071 -0.012425035 0.66079915
-0.00331132 -0.0082782805 0.66067678
0.0082828486 -0.0024847984 0.66078657
-0.0066319443 0.038962692 0.66095752
0.0008280162 0.038916767 0.66072172
-0.030744154 0.026589543 0.6614235
-0.026590424 0.028252363 0.66143018
-0.0074941884 0.038303643 0.6618495
-0.017478179 0.039950103 0.66175449
-0.017478179 0.039950103 0.66175449
0.00083677605 0.038491726 0.66283655
-0.023464341 0.036034524 0.66313493
0.01604856 0.0076019466 0.66474009
-0.03042444 0.013521999 0.66485173
-0.017804185 -0.0076303482 0.66550237
-0.017804185 -0.0076303482 0.66550237
0.0076439125 -0.0050959289 0.66586578
0.015238782 0.005079627 0.66520798
-0.017846946 0.035693914 0.66599393
-0.017846946 0.035693914 0.66599393
0.014507701 0.0025602281 0.66684842
-0.017927391 0.036708474 0.66691875
0.0094164694 -0.0042801797 0.66748786
-0.022278225 0.035131067 0.66768396
0.0043074656 0.035321236 0.66880375
0.0051611564 0.036128104 0.66848975
0.020716568 0.011221528 0.66921347
-0.015555245 0.038023949 0.66945243
-0.0052210065 -0.0147928 0.67089796
-0.0052210065 -0.0147928 0.67089796
-0.017335461 0.033804119 0.67007846
-0.00087043719 0.037428796 0.67096305
0.00087061891 -0.010447413 0.67100692
0.016562222 0.0043585002 0.67126691
0.02180478 0.012210697 0.67138648
-0.026212616 0.025338858 0.67176372
-0.0096446732 0.035071552 0.67249644
-0.0087575726 0.035030305 0.67224741
-0.016726395 0.033452809 0.67335296
0.0097572105 -0.0070961714 0.67496628
0.0097572105 -0.0070961714 0.67496628
0.0097572105 -0.0070961714 0.67496628
0.020318739 0.0088342428 0.67409819
-0.023870977 0.030943871 0.67426401
-0.0088361995 0.0344612 0.67414558
0.013318462 -0.0035515726 0.67517835
0.019534715 0.0079914927 0.67518902
-0.028507318 0.010690272 0.675892
-0.00088800467 0.036408246 0.67520416
-0.00088800467 0.036408246 0.67520416
0.01608376 -0 0.67654109
-0.0053824387 -0.017044365 0.67739356
-0.0053824387 -0.017044365 0.67739356
-0.026901389 0.015244126 0.67730653
-0.024217153 0.028701872 0.67735934
-0.02525661 0.02345261 0.67858821
-0.024308924 0.023408622 0.67817992
-0.024308924 0.023408622 0.67817992
-0.012659251 -0.012659252 0.67912185
0.0072365776 0.03346917 0.67920393
-0.011826831 0.035480529 0.68045545
0.021051317 0.0064069629 0.68178773
-0.027468791 0.0091562867 0.68187261
0.017465489 -0.00091922283 0.68274415
-0.016513547 0.029357433 0.68230557
0.0018329902 0.033910334 0.68208236
-0.017563127 0.028655648 0.68398476
0.003699031 -0.013871342 0.6840772
0.017638398 -0.0018566549 0.68494123
-0.023137074 0.026839018 0.68425226
-0.021355709 0.028783798 0.68498278
0.0074077551 0.031482995 0.68436968
-0.0027804088 0.032438129 0.68457091
-0.026036907 0.02231735 0.68531609
-0.025377352 0.0093990266 0.68773329
-0.025301307 0.010307997 0.68705332
0.017995993 -0.0037886202 0.68948495
-0.0056775501 0.030280292 0.68926787
-0.012336493 0.032264709 0.68992037
0.0037986683 0.03133899 0.69009084
0.011465861 -0.01242131 0.69149619
-0.0210905 0.025883824 0.6922617
-0.00096680952 0.029971123 0.69422936
-0.020386271 0.020386279 0.69518667
-0.013583311 0.029107124 0.69505668
-0.0029230088 -0.022409707 0.69604647
0.015622539 -0.010740519 0.69654685
0.015622539 -0.010740519 0.69654685
-0.013709906 0.025461286 0.69723976
0 0.02941066 0.69749916
0.004892603 0.029355615 0.69705671
-0.018692493 0.025579214 0.69833499
0.024724895 0.0019780397 0.69958562
0 0.028655976 0.69937813
0.0099298805 -0.016880751 0.70054942
-0.0019954008 0.026937932 0.70168704
-0.012089562 0.025186598 0.7040441
0.0030424467 -0.021297097 0.70565808
-0.024322713 0.013174832 0.7054885
-0.024322713 0.013174832 0.7054885
0 0.026335746 0.70535976
0.011187472 -0.018306762 0.70635676
0.00613072 0.026566446 0.70750201
-0.022592062 0.015403688 0.7087394
0.019678773 -0.012428671 0.71086705
-0.010353906 0.025884807 0.71078628
-0.0082607996 0.026847631 0.71011257
0.0031150028 -0.023881674 0.71149695
0.027033603 -0.0010397434 0.7118398
-0.0010437142 -0.027136564 0.71279585
0 0.023967654 0.71239913
-0.012605187 0.019958228 0.7144177
0.023442194 -0.0095899701 0.71806842
0.0032015857 0.023478299 0.71846461
0.0032015857 0.023478299 0.71846461
0.0032168997 -0.027879775 0.71969706
0.0032168997 -0.027879775 0.71969706
-0.020377455 0.012869984 0.7197448
-0.020377455 0.012869984 0.7197448
0.02472893 -0.0075261891 0.72039014
-0.010775279 0.018317997 0.72095913
0.005405053 -0.025944263 0.72179997
0.005405053 -0.025944263 0.72179997
-0.017316148 0.01515165 0.72210139
0.018481394 -0.019568533 0.72327995
-0.0065359669 0.022875875 0.72380787
-0.017571706 0.0098840892 0.72595751
-0.011020486 0.016530782 0.726879
0.025451837 -0.01106599 0.72797817
-0.0099250833 0.016541839 0.72705728
0.0066578682 -0.027741104 0.7287128
0.0022290377 0.018946826 0.72988951
0.0022290377 0.018946826 0.72988951
0.014597934 -0.02582708 0.73191732
-0.0090101566 -0.025904179 0.73272645
-0.015763586 0.012385696 0.73265421
-0.0078875795 0.015775174 0.73285377
-0.006770541 -0.027082145 0.73324645
-0.0046575111 0.017465681 0.74192655
0.0023344271 0.015173793 0.74261117
-0.0070669483 -0.029445589 0.74517298
0.011828142 -0.03193593 0.74637747
-0.010702811 0.011892051 0.7479195
-0.011999531 0.0095996559 0.75051516
0.014757308 -0.034433693 0.75771499
0.012412772 -0.035997033 0.76049173
0.015068023 -0.036414355 0.76396608
0.028870668 -0.02510497 0.76386428
0.018918397 -0.035314322 0.7653079
0.028198762 -0.029480487 0.77026558
0.02190792 -0.036083609 0.77194089
0.0251422 -0.037051648 0.78028738
0.013686789 -0.045166403 0.79124922
-0.01244907 -0 0.62779152
-0.016985929 -0.0010397285 0.62819797
-0.01877979 0.0010847086 0.62908196
-0.0011551739 0.0073931916 0.62814999
-0.028340658 0.0056681633 0.63187188
0.0049383105 0.0070547066 0.63113427
0.014467923 0.021525443 0.63120431
0.014467923 0.021525443 0.63120431
-0.014209525 -0.0042628348 0.63234508
-0.015009759 0.0010711253 0.6333769
0.0064173765 0.0078434944 0.63296443
0.0096167158 0.0128223 0.63279724
0.01001338 0.0257487 0.63349545
0.010965939 0.031026639 0.6330148
-0.0043169465 2.9802322e-08 0.63452148
-0.0082760789 -0.0029216013 0.63712072
-0.021164156 2.9802322e-08 0.63700986
-0.036972694 0.020957679 0.637573
0.008749593 0.020415753 0.63684911
0.0052184993 0.034705609 0.63660324
-0.019817635 -0.0007340014 0.63802093
-0.0014829219 -0.00074145198 0.63982546
-0.0014829219 -0.00074145198 0.63982546
-0.039517164 0.02492962 0.63914382
0.011424972 0.024693564 0.63878322
-0.033722643 0.015737236 0.64174014
0.013395326 0.017116278 0.64048302
0.01715585 0.020885378 0.6408987
-0.032452736 0.025363326 0.64094019
-0.033595834 0.033034362 0.64105988
-0.022946799 0.043083645 0.64171231
-0.013413601 0.0439668 0.64072812
-0.009205889 0.045034267 0.641029
-0.037183635 0.025587589 0.64340615
-0.015072389 0.049267124 0.64225578
0.003437992 2.9802322e-08 0.64518887
0.003437992 2.9802322e-08 0.64518887
-0.028982656 0.033177987 0.64495713
-0.028600441 0.038896352 0.64494932
-0.028600441 0.038896352 0.64494932
-0.013169519 0.04275322 0.64513403
-0.0034697587 -0.0038560033 0.64700651
-0.033248577 0.029382497 0.64749336
-0.0028908299 0.043563783 0.64696908
-0.01890415 0.044366606 0.64710546
-0.017919814 -0.0038955808 0.64891768
-0.017919814 -0.0038955808 0.64891768
0.012476213 0.0089657605 0.64907241
-0.005534783 -0.0063254833 0.65170872
0.00078792765 -0.0036787789 0.65110385
0.00078792765 -0.0036787789 0.65110385
0.018140825 0.016563386 0.65123749
-0.030772364 0.022092968 0.6513108
-0.031570613 0.031175271 0.65136641
0.010777254 0.0035929382 0.65353757
0.010777254 0.0035929382 0.65353757
0.013551905 0.0087689161 0.65327501
0.018299768 0.01591289 0.65290588
-0.0056272461 -0.0080389082 0.65489769
-0.0056272461 -0.0080389082 0.65489769
-0.0044228006 -0.0068347007 0.65491539
0.0016126243 0.039509296 0.65548187
-0.0068449741 0.041066565 0.6552273
-0.0068449741 0.041066565 0.6552273
0.017071487 0.013277213 0.65707386
-0.025211038 0.037004516 0.65716606
0.014757713 0.0081987381 0.65875578
-0.026920712 0.029181033 0.65926987
-0.019313745 0.036779389 0.65923899
-0.013942547 0.041827679 0.65882254
0.00082734268 -0.007044524 0.66088414
0.0082828486 -0.0024847984 0.66078657
-0.029744398 0.020655841 0.66029131
0.013430599 0.0025182664 0.66347301
-0.0088021262 0.037723944 0.66320682
0.017285712 0.010540023 0.66439033
0.020316383 0.012697756 0.6651879
0.0016995705 0.03739059 0.66597718
-0.0047959872 0.038651269 0.66515893
0.0025648982 -0.0085496306 0.66722798
0.013231408 0.00042784214 0.66689152
0.017030878 0.0093670189 0.6664018
-0.022749377 0.034922648 0.66709673
-0.01325329 0.039333403 0.66725385
0.0017242271 -0.0094832182 0.66895354
0.012134824 -0.0026002824 0.67007846
-0.027632572 0.02654364 0.67093784
0.0088927988 -0.0080035031 0.67551208
0.0088927988 -0.0080035031 0.67551208
0.02216707 0.010640204 0.67488509
0.0031332446 -0.011633068 0.67685759
-0.022816464 0.030869246 0.67683542
-0.0031741154 -0.016775355 0.67972976
-0.0018045706 -0.014436513 0.67865181
0.022608498 0.0090434253 0.6791479
-0.017223677 0.029914826 0.67967165
0.00090464775 0.034944974 0.67901129
0.014565847 -0.0045517683 0.68060255
-0.0050147381 0.032825962 0.68095672
0.0082495138 -0.010999352 0.68211079
-0.025834393 0.012917221 0.68356997
0.0004601033 0.034088522 0.68324506
0.0013942195 -0.01486145 0.68506324
-0.025177389 0.022379935 0.68594533
-0.022710893 0.02734746 0.68462002
-0.022710893 0.02734746 0.68462002
0.012229338 -0.010347843 0.68793035
0.0047216481 -0.015109241 0.68880224
0.0047216481 -0.015109241 0.68880224
0.019867668 0.00094610453 0.68922466
-0.014230151 0.028460354 0.6898517
0.011465861 -0.01242131 0.69149619
0.021386422 0.0033264458 0.69029832
0.012554212 -0.012554199 0.69396359
-0.025481056 0.018752649 0.69297218
-0.015399383 0.025986493 0.69317967
0.0078220163 -0.016621768 0.69687116
-0.003417572 0.028318688 0.69657034
0.01482849 -0.012851298 0.69948179
-0.020791844 0.021781921 0.69984925
-0.020791844 0.021781921 0.69984925
-0.01781291 0.025729805 0.69973296
-0.01285683 0.027197629 0.69958353
0.00098707597 0.0292858 0.69914532
-0.020896541 0.016916275 0.7010529
0 0.027888715 0.70128238
0.011019087 -0.017029464 0.70266116
0.0030424467 -0.021297097 0.70565808
0.012132408 -0.017187536 0.70490611
0.023237161 -0.0010102689 0.7047317
-0.024410421 0.012205213 0.70637077
-0.019070111 0.014946416 0.70967871
-0.0092680762 0.026774436 0.70943332
-0.010353906 0.025884807 0.71078628
0.0010357808 0.024858773 0.71088046
-0.0082607996 0.026847631 0.71011257
0.019923497 -0.01363185 0.71397662
0.0042150379 -0.02423647 0.71522093
0.028348697 2.9802322e-08 0.71430171
-0.022105487 0.012631714 0.71495116
-0.012605187 0.019958228 0.7144177
-0.010514993 0.022608429 0.71467531
-0.0021235924 0.02229777 0.71716118
0.012911873 -0.022595763 0.72058773
0.012911873 -0.022595763 0.72058773
-0.013961323 0.020405024 0.72009486
-0.016392305 0.010928184 0.7246511
-0.0076754922 0.021930009 0.72553915
-0.002187026 0.020776778 0.72481835
-0.002187026 0.020776778 0.72481835
0.018755069 -0.020961553 0.72716647
-0.014424997 0.016644269 0.7287057
0.0078301299 -0.027964741 0.73087245
0.015104806 -0.025179848 0.73097599
0.024798807 -0.015781045 0.73295546
-0.0078875795 0.015775174 0.73285377
0.016152889 -0.027690679 0.73936749
0.0011521094 0.016129553 0.73896468
-0.012783644 0.012783647 0.74138856
-0.0011740992 0.017611504 0.74427354
0.022583874 -0.02614972 0.74778038
0.029637333 -0.013040453 0.7470243
0.0095215309 -0.033325344 0.74815851
0.011124084 -0.035844237 0.75921988
0.016107274 -0.034692556 0.75994706
0.027372472 -0.026128232 0.76119816
0.026392488 -0.028906047 0.76423573
0.030535752 -0.024174124 0.76798689
0.024254436 -0.03319025 0.76900709
0.030136889 -0.030136883 0.77715516
0.030136889 -0.030136883 0.77715516
0.021214906 -0.039777935 0.78092909
0.017568022 -0.043244362 0.78707445
-0.024916589 0.0032900176 0.63107055
-0.02173632 0.00095337629 0.6338402
0.01045429 0.014065394 0.63385648
0.012644172 0.019229937 0.63375944
0.0060800985 0.03503301 0.63526917
-0.029089116 0.012589812 0.63788724
-0.0021737756 -0.0016505987 0.64174557
-0.033661671 0.026256487 0.64192951
-0.036500994 0.032031536 0.64066005
-0.0060541178 0.046063282 0.64162683
-0.0053457278 -0.0038199823 0.64526612
-0.022363566 0.039479192 0.64630252
-0.0077197999 0.043615684 0.64719331
-0.0018712583 0.043264125 0.64610296
0.012625754 0.0078911483 0.6513288
-0.031602621 0.019274294 0.64980924
-0.03022857 0.032312468 0.6495595
-0.030380189 0.030062821 0.65416813
-0.022804584 -0.0032577813 0.65744638
-0.014212084 0.041679494 0.65761065
0.0022472953 -0.0067431214 0.66175079
0.0074670981 -0.0033186674 0.6611228
0.0074670981 -0.0033186674 0.6611228
-0.024036655 0.03646943 0.660923
-0.0043591238 0.040279187 0.66133052
-0.002907698 0.040284865 0.66135883
-0.010017842 -0.013201214 0.66648585
-0.029795691 0.025621692 0.66635704
-0.02816469 0.025083333 0.67330706
0.012849143 -0.005639419 0.67852604
-0.023124125 0.023010004 0.68193233
-0.0021394035 0.033782013 0.68225771
-0.0021394035 0.033782013 0.68225771
-0.0021465779 -0.018397156 0.68626994
0.019867668 0.00094610453 0.68922466
-0.014971051 0.027328253 0.69031185
-0.0059432616 0.029953096 0.69040555
0.014460588 -0.010604164 0.69355839
0.020295488 -0.001451835 0.694143
0.0097760297 0.028350472 0.6968351
0.0097760297 0.028350472 0.6968351
-0.0010011579 -0.024027765 0.7025218
-0.013937568 -0.016924173 0.70116568
-0.013937568 -0.016924173 0.70116568
0.016538603 -0.012528643 0.7028023
-0.017512796 0.024848755 0.70241302
0.006041917 -0.023103848 0.71435583
-0.013961323 0.020405024 0.72009486
-0.0014365709 0.021206936 0.72118175
0.015361488 -0.023042202 0.72572029
0.0022460476 -0.03256768 0.73194289
0.0044911075 0.019087225 0.73188323
0.025392858 -0.014669716 0.73327506
-0.014663348 0.009586826 0.73313212
-0.010201009 0.015109817 0.7343719
0.01769956 -0.029103478 0.74566448
0.01769956 -0.029103478 0.74566448
0.019958092 -0.027002096 0.74425089
0.028940197 -0.01416938 0.74597424
-0.002067853 0.016834639 0.74606174
-0.013155441 0.008371681 0.74954855
-0.0017973351 0.015584365 0.75023538
0.032446843 -0.023361742 0.77415538
