# .PCD v0.7 - Point Cloud Data file format
VERSION 0.7
FIELDS x y z
SIZE 4 4 4
TYPE F F F
COUNT 1 1 1
WIDTH 1330
HEIGHT 1
VIEWPOINT 0 0 0 1 0 0 0
POINTS 1330
DATA ascii
-0.0054314393 -0.016294301 0.67936516
-0.0054374007 -0.017218411 0.67960501
-0.0054509458 -0.018169791 0.68015003
-0.0054877927 -0.019207269 0.68163264
-0.0055568656 -0.020375103 0.68441188
-0.0055675418 -0.021342218 0.68484145
-0.0055754827 -0.022301912 0.68516099
-0.0055846511 -0.023269355 0.68552989
-0.0055951215 -0.02424553 0.68595123
-0.005607977 -0.025235891 0.68646848
-0.0056223869 -0.026237786 0.68704832
-0.0056393696 -0.027256906 0.68773162
-0.0056600166 -0.028300047 0.68856239
-0.0056845592 -0.029370219 0.68954992
-0.0057147928 -0.030478895 0.69076639
-0.0057538943 -0.031646401 0.69233972
-0.0058101746 -0.032924294 0.69460428
-0.0061854138 -0.036081553 0.70970273
-0.0062207361 -0.037324399 0.711124
-0.0052727726 0.031636655 0.71541286
-0.0052235401 0.030296534 0.7130357
-0.0051984242 0.029111177 0.71182299
-0.0051806197 0.02797538 0.71096331
-0.0051689739 0.026878685 0.71040106
-0.0051581035 0.025790542 0.70987618
-0.0051401509 0.024672747 0.70900935
-0.0051084533 0.023498893 0.70747882
-0.005070847 0.022311777 0.70566308
-0.0050364654 0.021153152 0.70400298
-0.0050062705 0.020025134 0.70254499
-0.0049780593 0.018916637 0.7011829
-0.0049530067 0.017830878 0.69997323
-0.0049286517 0.016757458 0.69879723
-0.0049533402 0.015850723 0.69998932
-0.0056975493 0.017092675 0.73592293
-0.005816502 0.016286224 0.74166644
-0.0058259023 0.015147358 0.74212039
-0.0058322041 0.013997316 0.74242461
-0.0058313068 0.012828916 0.74238133
-0.0058229193 0.011645854 0.74197632
-0.0058083995 0.010455161 0.74127525
-0.005792906 0.0092687011 0.74052715
-0.0047609857 0.0066654086 0.69070166
-0.0047492189 0.0056990981 0.69013345
-0.0047382452 0.0047382712 0.68960357
-0.004727894 0.0037823617 0.68910384
-0.0047176057 0.0028305948 0.68860704
-0.0047080349 0.0018832386 0.68814492
-0.0046993862 0.00093993545 0.68772733
-0.0046914374 2.9802322e-08 0.68734354
-0.0046836208 -0.00093671679 0.68696612
-0.0046761623 -0.0018704236 0.68660593
-0.0046697552 -0.0028018355 0.68629658
-0.0046640271 -0.003731221 0.68602008
-0.0046583647 -0.0046583414 0.68574667
-0.0046531316 -0.0055837333 0.68549401
-0.0046473229 -0.0065062642 0.68521357
-0.0046376567 -0.007420212 0.68474674
-0.0046231393 -0.0083216429 0.68404579
-0.0046030311 -0.0092060566 0.68307495
-0.0045838691 -0.01008451 0.68214971
-0.0045689684 -0.010965496 0.68143022
-0.0045582624 -0.01185146 0.68091327
-0.0045489799 -0.012737125 0.68046504
-0.0045434614 -0.01363036 0.68019861
-0.0045401631 -0.014528513 0.68003941
-0.0045393393 -0.015433729 0.67999959
-0.0045436756 -0.016357213 0.68020898
-0.0045533348 -0.017302692 0.68067533
-0.0045766747 -0.018306702 0.68180233
-0.0046418733 -0.019495875 0.68495035
-0.0046522142 -0.020469725 0.68544966
-0.0046588676 -0.02143079 0.68577099
-0.0046661841 -0.022397667 0.68612421
-0.0046749562 -0.023374736 0.6865477
-0.0046853223 -0.024363637 0.68704826
-0.0046969159 -0.025363326 0.68760806
-0.0047111381 -0.026382357 0.68829477
-0.0047278758 -0.027421653 0.68910295
-0.0047477405 -0.028486401 0.69006211
-0.0047721565 -0.029587388 0.69124103
-0.0048036771 -0.03074351 0.69276297
-0.0048475163 -0.031993568 0.69487965
-0.0049470714 -0.033640057 0.69968665
-0.0051925979 -0.036348134 0.71154165
-0.0041995603 0.031496733 0.7142868
-0.0041762856 0.030278087 0.71288204
-0.0041606412 0.029124528 0.71193784
-0.0041499953 0.028012484 0.71129525
-0.0041418709 0.026922166 0.71080494
-0.0041295309 0.025809586 0.71006012
-0.0041085584 0.024651378 0.70879436
-0.0040780529 0.023448795 0.70695323
-0.0040489142 0.02226904 0.70519441
-0.0040242788 0.021127462 0.70370764
-0.0040006451 0.020003259 0.70228118
-0.0039801192 0.01890558 0.70104235
-0.003960351 0.01782161 0.69984925
-0.0039657033 0.016854227 0.70017231
-0.0045674429 0.018269807 0.73649049
-0.0046645454 0.017492056 0.74235111
-0.004672626 0.016354203 0.7428388
-0.004679027 0.015206844 0.74322516
-0.0046801213 0.014040381 0.7432912
-0.004675027 0.012856364 0.7429837
-0.004664219 0.011660576 0.74233139
-0.0046514715 0.010465831 0.74156201
-0.0038227418 0.007645458 0.69154382
-0.003813172 0.006673038 0.69096619
-0.0038040546 0.0057061017 0.69041586
-0.0037957146 0.0047446787 0.68991256
-0.0037874114 0.0037874281 0.6894114
-0.0037794439 0.0028345883 0.68893051
-0.0037722776 0.0018861592 0.68849802
-0.0037658897 0.00094151497 0.68811238
-0.0037595371 2.9802322e-08 0.68772906
-0.0037534032 -0.00093832612 0.68735886
-0.0037481454 -0.0018740296 0.68704146
-0.0037433924 -0.0028075278 0.68675464
-0.0037388329 -0.0037388206 0.68647945
-0.0037345355 -0.0046681464 0.68622005
-0.003730095 -0.0055951476 0.68595207
-0.0037231976 -0.0065155923 0.68553573
-0.0037125894 -0.0074251592 0.68489552
-0.0036970631 -0.0083183646 0.68395841
-0.0036809484 -0.0092023611 0.68298578
-0.0036683995 -0.010088056 0.68222839
-0.003659144 -0.010977387 0.68166983
-0.0036510539 -0.011865854 0.68118149
-0.0036464774 -0.012762666 0.68090528
-0.003643079 -0.013661534 0.68070018
-0.0036424159 -0.01456964 0.68066013
-0.0036450028 -0.015491247 0.68081629
-0.0036514136 -0.016431361 0.68120325
-0.0036672836 -0.017419577 0.68216103
-0.0037207198 -0.018603563 0.68538618
-0.0037318615 -0.019592255 0.68605864
-0.003737255 -0.0205549 0.6863842
-0.0037428464 -0.02152133 0.68672168
-0.0037499152 -0.022499442 0.68714827
-0.0037579134 -0.023486912 0.68763101
-0.003766981 -0.02448532 0.68817836
-0.0037782881 -0.025503427 0.68886077
-0.0037912999 -0.026539087 0.68964612
-0.003806717 -0.027598709 0.69057661
-0.0038256207 -0.028692126 0.69171757
-0.0038499939 -0.029837459 0.69318861
-0.0038837774 -0.031070232 0.69522762
-0.0039456729 -0.032551795 0.6989634
-0.0041610389 -0.03536877 0.71196187
-0.0031687126 0.032743365 0.71581918
-0.0031467786 0.031467795 0.71405399
-0.0031336008 0.030291498 0.71299362
-0.0031241309 0.029158592 0.71223152
-0.0031177329 0.028059602 0.71171671
-0.0031100332 0.026953608 0.71109706
-0.0030967519 0.025806278 0.71002823
-0.0030747408 0.024597943 0.7082569
-0.0030521217 0.023399621 0.70643663
-0.0030327956 0.022240549 0.70488143
-0.0030146085 0.021102309 0.70341784
-0.0029984822 0.019989908 0.70212013
-0.0029835349 0.018895745 0.70091724
-0.0029765421 0.01785928 0.70035452
-0.0029992848 0.016995966 0.70218468
-0.0034444474 0.01837039 0.73800862
-0.0035134431 0.017567217 0.74356097
-0.0035187304 0.016420722 0.74398643
-0.0035209756 0.015257597 0.74416715
-0.0035182687 0.014073133 0.74394929
-0.0035111089 0.012874097 0.74337316
-0.0035015428 0.011671841 0.7426033
-0.003493784 0.010481387 0.74197888
-0.0028703019 0.0076541901 0.69180501
-0.0028631955 0.0066808164 0.69123304
-0.002856896 0.0057137907 0.69072616
-0.0028506243 0.0047510564 0.69022143
-0.0028444231 0.0037925541 0.68972242
-0.0028389788 0.002838999 0.68928432
-0.0028340262 0.0018893778 0.68888575
-0.0028292083 0.00094309449 0.68849802
-0.0028245661 -0 0.68812442
-0.0028204264 -0.00094014406 0.68779129
-0.0028167216 -0.0018777847 0.68749321
-0.0028132796 -0.0028133094 0.68721616
-0.002809983 -0.0037466288 0.68695086
-0.0028067359 -0.0046778619 0.68668956
-0.0028021461 -0.0056042671 0.68632019
-0.0027946648 -0.0065208673 0.68571818
-0.0027838636 -0.0074236393 0.6848489
-0.0027711694 -0.008313477 0.6838274
-0.0027612902 -0.0092042983 0.68303239
-0.0027538133 -0.010097265 0.68243068
-0.0027477036 -0.010990828 0.68193901
-0.0027437059 -0.011889368 0.68161732
-0.0027405801 -0.012789339 0.68136573
-0.0027400698 -0.013700336 0.68132472
-0.0027413408 -0.014620483 0.681427
-0.0027451511 -0.015555829 0.68173361
-0.0027549353 -0.01652962 0.68252099
-0.0027957894 -0.017706662 0.68580866
-0.0028062847 -0.018708557 0.68665326
-0.0028106037 -0.019674212 0.68700087
-0.0028146408 -0.020640671 0.68732572
-0.0028199281 -0.021619439 0.68775117
-0.0028257144 -0.022605687 0.68821687
-0.0028325503 -0.023604572 0.68876696
-0.0028407951 -0.024620205 0.68943042
-0.0028502562 -0.025652289 0.69019186
-0.002861449 -0.026706845 0.69109255
-0.0028751618 -0.027793229 0.69219607
-0.0028928041 -0.028928012 0.69361579
-0.0029171694 -0.030144066 0.69557655
-0.0029586018 -0.031558365 0.69891077
-0.0031269945 -0.034396917 0.71246201
-0.0021280542 0.034048915 0.71769977
-0.0021080873 0.032675356 0.71528959
-0.0020979226 0.031468868 0.71406257
-0.0020907081 0.03031531 0.71319163
-0.0020860275 0.029204398 0.7126267
-0.0020815062 0.028100371 0.71208096
-0.0020741117 0.026963472 0.71118838
-0.0020607687 0.025759637 0.70957768
-0.0020454947 0.024545938 0.70773399
-0.0020316744 0.023364246 0.70606571
-0.0020194321 0.022213757 0.70458788
-0.0020080616 0.021084636 0.70321536
-0.0019979505 0.019979507 0.70199484
-0.0019880908 0.018886864 0.70080471
-0.0020010667 0.018009633 0.702371
-0.0023005002 0.019554287 0.73851585
-0.0023481543 0.018785238 0.74426818
-0.0023518517 0.017638922 0.7447145
-0.0023540314 0.01647827 0.74497765
-0.0023531346 0.015295386 0.74486935
-0.0023491685 0.014095038 0.74439061
-0.002343063 0.012886882 0.74365366
-0.002337164 0.011685848 0.74294156
-0.0019205342 0.0086424351 0.69264984
-0.0019157473 0.0076630414 0.69207203
-0.0019113857 0.0066898465 0.69154555
-0.0019071746 0.0057215393 0.69103718
-0.0019029821 0.0047574639 0.69053113
-0.0018992332 0.0037984848 0.69007868
-0.0018958007 0.0028437078 0.6896643
-0.001892574 0.0018925965 0.68927479
-0.0018894294 0.00094473362 0.68889523
-0.0018865372 5.9604645e-08 0.68854606
-0.0018839799 -0.0009419322 0.68823737
-0.0018816701 -0.001881659 0.6879586
-0.0018794156 -0.0028191209 0.68768638
-0.0018773001 -0.003754586 0.68743104
-0.0018745221 -0.0046862662 0.6870957
-0.0018699614 -0.00560987 0.68654525
-0.0018633389 -0.0065216422 0.68574578
-0.0018546846 -0.0074187517 0.68470114
-0.0018475691 -0.0083140135 0.68384218
-0.0018422225 -0.0092110932 0.68319678
-0.001838128 -0.010109663 0.68270254
-0.0018350674 -0.011010379 0.68233311
-0.0018328157 -0.01191327 0.68206131
-0.0018322519 -0.012825727 0.68199331
-0.0018326412 -0.013744771 0.68204021
-0.0018346841 -0.014677465 0.68228686
-0.0018401967 -0.015641659 0.68295228
-0.0018663902 -0.016797483 0.68611419
-0.0018757028 -0.017819166 0.68723828
-0.001878872 -0.018788695 0.68762082
-0.0018815782 -0.019756526 0.68794745
-0.0018849736 -0.020734668 0.68835735
-0.0018886876 -0.021719903 0.68880564
-0.0018932684 -0.022719234 0.68935859
-0.0018985991 -0.023732424 0.69000208
-0.0019047135 -0.02476123 0.69074017
-0.0019119844 -0.025811762 0.69161785
-0.0019210577 -0.026894838 0.69271314
-0.0019323345 -0.028018832 0.69407427
-0.0019476787 -0.029215157 0.69592649
-0.0019719657 -0.030565441 0.6988582
-0.0020898173 -0.033437073 0.71308422
-0.0010592965 0.033897519 0.71655774
-0.0010534223 0.032656074 0.71513957
-0.0010494629 0.031483889 0.71418363
-0.0010467843 0.030356765 0.71353704
-0.0010447124 0.029251963 0.71303678
-0.001041481 0.028119981 0.71225667
-0.0010359265 0.026934087 0.71091568
-0.0010281823 0.025704592 0.70904613
-0.0010208527 0.024500459 0.70727658
-0.0010146135 0.023336112 0.70577031
-0.0010086617 0.022190571 0.70433336
-0.001003479 0.021073103 0.70308214
-0.00099845685 0.019969165 0.70186973
-0.0010013022 0.01902476 0.70255667
-0.0011526135 0.020747066 0.73908651
-0.0011769659 0.020008445 0.74496561
-0.0011789571 0.01886335 0.74544632
-0.0011803921 0.017705917 0.74579275
-0.0011803977 0.016525596 0.74579412
-0.0011788292 0.015324801 0.74541545
-0.0011759148 0.014110982 0.74471188
-0.0011727342 0.012900084 0.74394399
-0.00096379261 0.0096379519 0.693501
-0.00096138153 0.0086524487 0.69291896
-0.00095911114 0.0076728761 0.69237083
-0.00095699058 0.0066989362 0.69185889
-0.00095487933 0.0057292879 0.69134915
-0.00095292978 0.0047646463 0.69087851
-0.00095114741 0.0038046241 0.69044822
-0.00094952289 0.0028485954 0.69005603
-0.0009479291 0.0018958747 0.68967122
-0.00094641582 0.00094643235 0.6893059
-0.0009451001 2.9802322e-08 0.68898827
-0.00094392698 -0.00094392896 0.68870503
-0.00094277447 -0.0018855333 0.68842679
-0.0009417134 -0.002825141 0.68817067
-0.00094046374 -0.0037618279 0.68786895
-0.00093840365 -0.0046919584 0.68737155
-0.00093527784 -0.0056116581 0.6866169
-0.00093105226 -0.0065173507 0.68559682
-0.00092725293 -0.0074180365 0.68467963
-0.00092431012 -0.0083187819 0.68396908
-0.00092224532 -0.0092224479 0.68347061
-0.00092051819 -0.010125697 0.68305367
-0.00091938826 -0.011032611 0.68278086
-0.00091891212 -0.011945844 0.68266588
-0.0009188783 -0.012864292 0.68265778
-0.00091990212 -0.013798475 0.68290484
-0.00092232699 -0.014757216 0.68349034
-0.00093067135 -0.015821397 0.68550485
-0.00094028696 -0.016925156 0.68782628
-0.00094201835 -0.017898321 0.68824428
-0.00094337878 -0.018867552 0.68857265
-0.00094501086 -0.019845217 0.68896675
-0.00094680983 -0.020829797 0.68940103
-0.00094909786 -0.021829188 0.68995339
-0.00095167925 -0.022840261 0.69057655
-0.00095463888 -0.023865908 0.69129109
-0.0009582882 -0.024915487 0.69217211
-0.00096270966 -0.025993139 0.69323957
-0.00096819008 -0.027109295 0.69456267
-0.00097533531 -0.028284729 0.69628769
-0.00098676456 -0.029602945 0.69904691
-0.0010474987 -0.032472461 0.71370947
0 0.035170048 0.71811777
0 0.033866823 0.71632624
0 0.032670677 0.71525311
0 0.031521618 0.71448696
0 0.030408174 0.71396488
0 0.029285222 0.71332353
0 0.028113008 0.71219385
0 0.026875556 0.71037221
0 0.025650144 0.70852077
0 0.024469495 0.70696414
0 0.023308069 0.70547563
0 0.022176534 0.70417929
0 0.021062106 0.7029559
0 0.020041436 0.70274252
0 0.021948904 0.73971218
0 0.020880103 0.74087083
0 0.020094097 0.74618191
0 0.018940657 0.74661398
0 0.017763913 0.74672627
0 0.016563445 0.74644768
0 0.015345633 0.74580216
0 0.014125526 0.74500442
0 0.012922227 0.74442923
0 0.0096491575 0.69377208
0 0.0086630285 0.69320202
0 0.0076833665 0.69268638
0 0.0067080855 0.69217396
0 0.0057375729 0.69168311
0 0.0047721267 0.6912384
0 0.0038111508 0.69084263
0 0.0028535426 0.69045258
0 0.0018992126 0.69007254
0 0.0009483099 0.68975186
0 2.9802322e-08 0.68945724
0 -0.00094583631 0.68917543
0 -0.0018895566 0.68891412
0 -0.0028309226 0.68863541
0 -0.0037670135 0.68818009
0 -0.0046943724 0.68748635
0 -0.0056087673 0.68650055
0 -0.0065155327 0.68553406
0 -0.0074214935 0.68478501
0 -0.0083290339 0.68424475
0 -0.0092352629 0.68377966
0 -0.01014623 0.68350428
0 -0.011060536 0.68334264
0 -0.011980087 0.68330169
0 -0.012914717 0.68352723
0 -0.013868511 0.68403178
0 -0.014874518 0.68526018
0 -0.016025424 0.68840188
0 -0.01700303 0.68887109
0 -0.017973632 0.68920135
0 -0.018950939 0.68957937
0 -0.019936472 0.69001597
0 -0.020934612 0.69055122
0 -0.021943599 0.691154
0 -0.022968084 0.6918624
0 -0.02401498 0.69273007
0 -0.025087357 0.6937685
0 -0.026196063 0.69505405
0 -0.027360111 0.69672543
0 -0.028642505 0.69926608
0 -0.031503171 0.7143389
0.0010736667 0.036504716 0.72002691
0.0010635477 0.035097092 0.71758401
0.0010584003 0.033868819 0.71634138
0.0010547547 0.032697409 0.71546125
0.001052403 0.031572133 0.71489352
0.0010500532 0.030451596 0.71432614
0.0010461715 0.029292792 0.7133891
0.0010392314 0.028059274 0.71171355
0.0010314761 0.026818395 0.70984125
0.0010245526 0.025613874 0.70816976
0.0010183264 0.024439871 0.70666659
0.0010126096 0.023290008 0.7052865
0.0010074958 0.022164941 0.70405191
0.0010028474 0.021059841 0.70292968
0.0010105929 0.020211875 0.70479965
0.0011612485 0.022063762 0.74117112
0.0011850497 0.021330923 0.74691725
0.0011868655 0.020176739 0.74735564
0.0011877897 0.019004643 0.74757874
0.0011870514 0.017805785 0.74740052
0.0011847635 0.016586691 0.74684811
0.0011815517 0.015360236 0.74607271
0.0011788015 0.014145613 0.74540877
0.00096847123 0.010653198 0.69463056
0.00096604036 0.0096604228 0.6940437
0.00096387422 0.0086748898 0.69352067
0.00096173258 0.0076938868 0.69300371
0.0009596225 0.0067173541 0.69249427
0.00095776358 0.005746603 0.69204545
0.00095606165 0.0047803223 0.69163465
0.00095442397 0.0038177371 0.69123924
0.00095283909 0.0028585196 0.69085664
0.00095144403 0.0019029379 0.69051981
0.00095017557 0.00095018744 0.69021356
0.00094900065 2.9802322e-08 0.68992996
0.00094789319 -0.00094789267 0.68966258
0.00094676687 -0.0018935204 0.68939066
0.00094511441 -0.0028353631 0.68899173
0.00094245124 -0.0037697852 0.68834877
0.00093856908 -0.0046928227 0.68741155
0.00093436264 -0.0056061745 0.686396
0.00093109388 -0.0065176487 0.6856069
0.00092867797 -0.0074294209 0.68502361
0.00092659355 -0.0083393157 0.68452036
0.00092540425 -0.0092540085 0.68423325
0.00092453905 -0.010169953 0.68402439
0.00092436478 -0.011092365 0.68398231
0.00092507229 -0.012025893 0.68415308
0.00092682353 -0.012975484 0.68457592
0.00093119091 -0.013967842 0.68563026
0.00094474322 -0.015115887 0.68890208
0.00094722566 -0.016102821 0.6895014
0.00094860123 -0.017074794 0.68983352
0.00095009984 -0.018051893 0.69019532
0.00095192186 -0.019038409 0.6906352
0.00095406361 -0.020035326 0.69115222
0.00095647102 -0.021042347 0.69173348
0.00095942378 -0.022066742 0.69244635
0.00096292078 -0.023110062 0.69329053
0.0009671009 -0.024177521 0.69429976
0.00097226503 -0.025278866 0.69554651
0.00097896857 -0.026432127 0.69716483
0.00098858157 -0.027680278 0.6994856
0.0010527263 -0.030529052 0.71497154
0.0010589514 -0.031768531 0.71647441
0.0021377371 0.036341548 0.71886861
0.0021258933 0.035077244 0.71743888
0.0021178757 0.033886045 0.71647114
0.0021124838 0.032743514 0.71582025
0.0021082296 0.031623453 0.7153067
0.0021014824 0.030471504 0.71449232
0.0020897391 0.029256374 0.71307474
0.002074 0.027999014 0.71117491
0.002059242 0.026770175 0.70939338
0.0020466074 0.025582612 0.70786828
0.0020346071 0.024415344 0.70641971
0.0020241458 0.02327767 0.70515692
0.0020139294 0.022153258 0.7039237
0.0020227546 0.021238953 0.70498902
0.0023272394 0.023272425 0.74174356
0.0023759969 0.022571981 0.74762905
0.0023799071 0.021419197 0.74810112
0.0023824566 0.020250857 0.74840891
0.0023819124 0.019055307 0.74834317
0.002378165 0.017836243 0.74789083
0.0023720094 0.016604066 0.7471478
0.002365785 0.015377671 0.74639642
0.0019441145 0.011664718 0.69549626
0.0019392094 0.010665685 0.69490421
0.001934703 0.0096735656 0.69436014
0.0019303887 0.0086867511 0.69383943
0.0019260937 0.0077043772 0.69332099
0.0019222681 0.0067279637 0.69285923
0.0019187299 0.0057561994 0.69243205
0.0019154246 0.0047885776 0.69203311
0.0019122183 0.0038244426 0.69164604
0.0019092923 0.0028639436 0.69129282
0.0019066657 0.001906693 0.69097579
0.0019043003 0.0009521842 0.69069028
0.0019020273 -0 0.69041586
0.0018998317 -0.00094988942 0.69015086
0.0018968643 -0.0018968284 0.68979263
0.0018919227 -0.0028378665 0.68919617
0.0018847462 -0.0037694871 0.68832988
0.0018759207 -0.0046898127 0.68726456
0.0018690533 -0.0056070983 0.68643558
0.0018638525 -0.0065234601 0.68580782
0.0018596615 -0.0074386299 0.6853019
0.0018568803 -0.0083559453 0.68496621
0.0018547534 -0.0092737377 0.68470943
0.0018544028 -0.010199219 0.68466711
0.0018553586 -0.011132121 0.68478251
0.0018581767 -0.012078106 0.68512273
0.0018654579 -0.013058186 0.68600154
0.001893161 -0.014198691 0.68934572
0.0018996515 -0.015197188 0.69012916
0.0019024683 -0.016170979 0.69046915
0.0019053299 -0.017147958 0.69081461
0.0019089936 -0.018135428 0.69125688
0.0019131323 -0.019131333 0.69175643
0.0019178326 -0.020137221 0.6923238
0.0019237092 -0.021160811 0.69303316
0.0019305079 -0.022200823 0.6938538
0.0019386159 -0.023263365 0.6948325
0.0019486269 -0.024357826 0.69604099
0.0019615986 -0.025500774 0.69760686
0.0019797054 -0.026725978 0.6997925
0.0020206715 -0.028289378 0.70473754
0.0021215214 -0.030762017 0.7169112
0.0032263449 0.037640721 0.72045702
0.0032037587 0.036309272 0.71863943
0.0031902632 0.03509289 0.7175535
0.0031807043 0.0339275 0.71678424
0.0031741131 0.032799184 0.71625376
0.003165799 0.031657994 0.71558475
0.0031510324 0.03046003 0.71439642
0.0031277633 0.029192477 0.71252388
0.0031043603 0.02793926 0.71064055
0.0030850032 0.026736736 0.70908278
0.0030661866 0.025551587 0.70756853
0.0030500875 0.024400741 0.70627302
0.0030346229 0.023265481 0.70502847
0.0030365011 0.022267699 0.70517957
0.0034983112 0.024488181 0.74234331
0.0035728684 0.023819119 0.74834317
0.0035791728 0.022668123 0.74885052
0.0035840611 0.021504372 0.74924386
0.0035846431 0.020312995 0.74929065
0.0035802997 0.019094944 0.74894112
0.0035714912 0.017857462 0.74823225
0.0035617119 0.016621321 0.74744534
0.0029270328 0.012683839 0.6963703
0.0029195978 0.011678427 0.69577199
0.0029125619 0.010679424 0.69520575
0.0029060435 0.0096868575 0.69468117
0.0028995543 0.0086986721 0.69415903
0.002893585 0.0077162683 0.69367862
0.0028880734 0.0067388713 0.69323504
0.0028830809 0.0057661831 0.69283336
0.0028782052 0.0047970414 0.69244099
0.0028736098 0.003831476 0.69207114
0.0028695669 0.0028695762 0.69174582
0.0028659508 0.0019106567 0.69145483
0.0028624639 0.00095418096 0.69117421
0.0028592034 2.9802322e-08 0.69091183
0.0028551572 -0.00095170736 0.69058621
0.0028484822 -0.0018989742 0.69004905
0.002838528 -0.0028384924 0.68924797
0.0028252252 -0.0037669241 0.68817747
0.0028139653 -0.0046899319 0.68727136
0.0028056027 -0.0056111813 0.68659836
0.0027992616 -0.006531626 0.68608809
0.0027944881 -0.0074519217 0.68570393
0.0027910171 -0.0083730221 0.68542463
0.0027901663 -0.00930053 0.68535614
0.002790903 -0.010233283 0.68541545
0.0027940823 -0.011176318 0.68567127
0.0028028786 -0.012145787 0.68637919
0.0028449623 -0.013276458 0.68976581
0.0028570376 -0.014285177 0.69073755
0.0028616453 -0.015262097 0.69110829
0.0028658304 -0.016239673 0.69144511
0.0028712573 -0.01722753 0.6918819
0.0028772452 -0.01822257 0.6923638
0.0028843218 -0.019228786 0.69293314
0.0028928933 -0.020250231 0.69362301
0.0029027953 -0.021287143 0.6944198
0.0029145863 -0.022345155 0.69536871
0.0029291119 -0.023432851 0.69653761
0.0029479107 -0.024565905 0.69805044
0.002974065 -0.025775224 0.7001552
0.0030219401 -0.027197391 0.7040078
0.0031877158 -0.029752016 0.71734846
0.0043339492 0.039005578 0.7223978
0.0042928983 0.037562877 0.71992028
0.0042720428 0.036312401 0.71866155
0.0042573032 0.035122812 0.71777195
0.0042478521 0.033982843 0.71720147
0.0042380653 0.03284502 0.71661079
0.0042217597 0.031663209 0.71562666
0.0041929442 0.030398846 0.71388751
0.0041614026 0.029129803 0.7119838
0.0041336589 0.027902216 0.71030927
0.0041083223 0.026704103 0.70878011
0.0040854448 0.025534034 0.70739931
0.0040646358 0.024387836 0.70614338
0.0040518157 0.023297966 0.70536959
0.0040834276 0.022458881 0.70727754
0.0046904315 0.024624795 0.74391347
0.004784734 0.023923695 0.74960518
0.0047920663 0.022762328 0.75004768
0.0047950284 0.021577656 0.75022644
0.0047909189 0.020361423 0.74997848
0.0047804601 0.019121855 0.74934721
0.004766956 0.017876089 0.74853224
0.0047568274 0.016648918 0.74792087
0.0039072819 0.01269868 0.69664621
0.0038975272 0.011692584 0.6960575
0.003888773 0.010694146 0.6955291
0.0038800579 0.0097001493 0.69500309
0.0038717713 0.0087114871 0.69450301
0.003864221 0.0077284575 0.69404727
0.0038574587 0.0067505538 0.69363916
0.003850868 0.0057762861 0.69324136
0.0038444623 0.0048055947 0.69285476
0.0038390348 0.0038390458 0.69252717
0.0038340339 0.0028755367 0.69222534
0.0038292659 0.00191468 0.69193757
0.0038248899 0.00095623732 0.6916734
0.0038200277 2.9802322e-08 0.6913799
0.0038118646 -0.00095292926 0.69088733
0.0037994471 -0.0018997192 0.6901378
0.0037822868 -0.0028367043 0.68910205
0.0037663856 -0.0037663579 0.68814242
0.0037541073 -0.0046926141 0.68740129
0.00374548 -0.0056182146 0.68688059
0.003738302 -0.0065419972 0.68644738
0.0037336301 -0.0074672401 0.68616539
0.0037317085 -0.0083962977 0.6860494
0.0037317364 -0.009329319 0.68605113
0.0037359716 -0.010273933 0.68630677
0.0037463775 -0.011239082 0.68693477
0.0037900936 -0.012317777 0.68957329
0.0038194156 -0.013367921 0.69134295
0.0038261767 -0.014348149 0.69175106
0.003831788 -0.015327156 0.6920898
0.003838755 -0.016314685 0.69251031
0.0038464423 -0.01730895 0.69297421
0.0038559278 -0.018315643 0.69354677
0.0038670136 -0.019335061 0.69421583
0.0038798323 -0.020369083 0.6949895
0.0038950243 -0.021422625 0.6959064
0.0039139753 -0.022505343 0.69705021
0.0039379252 -0.02362752 0.69849575
0.0039714472 -0.02482152 0.70051891
0.004028345 -0.026184201 0.70395303
0.0042585898 -0.028745472 0.71784949
0.0053930753 0.038830161 0.72122163
0.0053632008 0.037542433 0.71977913
0.0053429273 0.036331922 0.71880031
0.0053293603 0.035173833 0.71814519
0.0053184615 0.034038156 0.717619
0.0053008371 0.032865196 0.71676797
0.0052698408 0.031619102 0.71527129
0.0052298736 0.030333281 0.71334153
0.0051927269 0.029079288 0.71154797
0.005160742 0.027868003 0.71000361
0.005130474 0.026678473 0.70854217
0.0051040971 0.025520474 0.70726848
0.0050781751 0.02437526 0.7060169
0.0051083076 0.023498237 0.70747185
0.0058741346 0.025846243 0.74444914
0.0059961695 0.025183946 0.75034165
0.0060058143 0.024023324 0.75080723
0.0060112979 0.022842973 0.75107205
0.006008497 0.021630615 0.75093681
0.0059975786 0.020391792 0.7504096
0.0059813755 0.019140422 0.74962723
0.0059668245 0.017900497 0.74892467
0.0049023437 0.013726592 0.69752705
0.0048898682 0.012713701 0.69692469
0.0048786546 0.011708826 0.69638318
0.0048677004 0.010708958 0.69585425
0.0048569273 0.0097138882 0.69533408
0.0048474036 0.0087253451 0.69487423
0.0048386287 0.0077418387 0.69445056
0.0048302766 0.0067624152 0.69404733
0.0048221764 0.0057865977 0.69365621
0.0048151044 0.0048151016 0.69331473
0.0048085889 0.0038468838 0.69300014
0.0048025888 0.0028815567 0.6927104
0.0047969902 0.0019188225 0.69244003
0.0047911475 0.00095823407 0.69215798
0.0047820807 -0 0.69172019
0.0047678635 -0.0009535253 0.69103366
0.004747164 -0.001898855 0.69003427
0.0047262507 -0.0028357208 0.68902445
0.0047100559 -0.0037680268 0.6882425
0.0046983622 -0.0046983063 0.68767786
0.0046883603 -0.0056260228 0.68719494
0.0046824985 -0.0065554976 0.68691194
0.0046791006 -0.007486552 0.68674785
0.0046782079 -0.0084207356 0.68670475
0.0046832347 -0.0093664527 0.68694746
0.0046945186 -0.010327905 0.68749225
0.0047232881 -0.01133585 0.6888814
0.004786802 -0.012445658 0.69194818
0.0047961073 -0.013429075 0.69239742
0.0048031607 -0.014409482 0.69273806
0.00481153 -0.015396893 0.69314212
0.0048208758 -0.01639092 0.69359338
0.0048326841 -0.017397642 0.69416356
0.0048461077 -0.018415183 0.6948117
0.0048616272 -0.019446492 0.69556105
0.0048805578 -0.020498306 0.69647509
0.004903785 -0.021576613 0.69759661
0.0049327333 -0.022690535 0.69899434
0.0049718469 -0.023864836 0.70088291
0.0050342963 -0.025171459 0.70389819
0.0053366818 -0.027750731 0.71849871
0.0065119225 0.040156871 0.72284043
0.006466059 0.038796395 0.72099507
0.0064387671 0.037559509 0.71989685
0.0064195194 0.036377281 0.71912247
0.0064061498 0.035233825 0.71858448
0.0063887271 0.034073234 0.71788347
0.0063577718 0.032848507 0.71663785
0.0063099326 0.031549662 0.71471298
0.0062627303 0.030269861 0.71281374
0.0062235733 0.029043347 0.71123815
0.0061855665 0.027835041 0.70970887
0.0061531365 0.026663601 0.708404
0.0061216694 0.025506973 0.70713782
0.0061347787 0.024539113 0.70766538
0.0070637222 0.027077615 0.74504316
0.0072135231 0.026449591 0.75107068
0.0072259544 0.025290847 0.75157082
0.0072346958 0.024115711 0.75192261
0.0072342078 0.02290833 0.75190294
0.0072236592 0.021670997 0.75147855
0.0072050402 0.020414293 0.75072926
0.0071853125 0.019160837 0.74993557
0.0059048668 0.014762193 0.69841433
0.0058897831 0.013742864 0.69780749
0.0058757896 0.012730896 0.69724441
0.0058625252 0.011725038 0.69671071
0.0058493209 0.01072377 0.69617939
0.0058376053 0.0097293556 0.69570804
0.0058266837 0.0087400675 0.69526857
0.0058165011 0.0077553689 0.69485885
0.0058067134 0.0067745447 0.69446498
0.0057978095 0.0057978034 0.6941067
0.0057897139 0.0048247874 0.69378102
0.0057824431 0.00385499 0.69348848
0.0057755685 0.0028878152 0.69321185
0.0057687326 0.0019229352 0.69293678
0.0057590604 0.000959903 0.69254762
0.0057431739 -0 0.69190836
0.0057199537 -0.00095328689 0.69097412
0.0056935935 -0.0018978417 0.68991339
0.0056731515 -0.0028365552 0.68909091
0.0056580114 -0.0037719905 0.68848169
0.0056451168 -0.004704237 0.68796289
0.0056376536 -0.0056376159 0.6876626
0.0056323656 -0.0065710545 0.68744975
0.005631288 -0.0075083375 0.68740642
0.0056359181 -0.008453846 0.68759269
0.0056473678 -0.0094122589 0.68805349
0.0056761117 -0.010406166 0.68920994
0.0057583535 -0.01151669 0.69251913
0.0057714824 -0.012504876 0.69304746
0.0057799942 -0.013486654 0.69338995
0.005789625 -0.014474034 0.69377738
0.0058009014 -0.015469044 0.69423115
0.005814631 -0.016474783 0.69478357
0.0058302139 -0.017490625 0.69541061
0.0058484999 -0.018520236 0.69614637
0.0058710547 -0.019570172 0.69705391
0.0058981846 -0.020643651 0.69814557
0.0059319581 -0.02175045 0.69950444
0.0059761209 -0.022908449 0.70128143
0.0060465825 -0.024186313 0.70411664
0.0064202328 -0.026750952 0.71915114
0.0076543903 0.041552454 0.72481132
0.0075815544 0.040073961 0.72229934
0.0075445808 0.038800716 0.72102422
0.0075185066 0.03759253 0.72012496
0.0075018876 0.03643775 0.71955168
0.0074840621 0.035282046 0.71893692
0.0074541178 0.034075975 0.71790433
0.0074018189 0.032779455 0.71610051
0.007345655 0.031481385 0.71416348
0.0072970195 0.030230552 0.71248603
0.0072519062 0.029007643 0.71093017
0.0072118877 0.027817309 0.70955002
0.0071748067 0.026649266 0.70827115
0.0071628629 0.025581658 0.70785922
0.0082601728 0.028320581 0.74570405
0.0082943263 0.027252853 0.74688196
0.0084525365 0.026565135 0.75233853
0.0084653255 0.025395989 0.75277954
0.0084680682 0.024194479 0.75287414
0.0084588248 0.022959709 0.75255531
0.0084385676 0.02169919 0.75185663
0.0084147658 0.02043587 0.75103575
0.0069149886 0.015805691 0.69931036
0.006897205 0.014779747 0.69869697
0.0068802144 0.013760477 0.698111
0.0068646269 0.012748569 0.69757342
0.0068491087 0.01174134 0.69703823
0.0068348879 0.010740548 0.69654775
0.0068216557 0.0097452402 0.69609141
0.0068096924 0.0087553263 0.69567883
0.0067981142 0.0077692866 0.69527948
0.0067872331 0.0067872405 0.69490421
0.0067775664 0.0058093667 0.69457078
0.0067689214 0.00483495 0.6942727
0.0067606904 0.0038632751 0.6939888
0.0067528952 0.0028940737 0.69371998
0.0067427037 0.0019264817 0.69336843
0.0067257159 0.00096079707 0.69278252
0.0067007286 2.9802322e-08 0.69192076
0.0066687563 -0.00095266104 0.69081807
0.0066434578 -0.0018981099 0.68994558
0.0066244598 -0.0028390586 0.68929029
0.0066093095 -0.0037767291 0.68876785
0.0065991725 -0.0047136843 0.68841827
0.006591572 -0.0056498945 0.68815601
0.0065903063 -0.006590277 0.68811244
0.0065940535 -0.0075360239 0.68824166
0.0066049467 -0.0084920228 0.68861735
0.0066332421 -0.0094760358 0.6895932
0.0067317919 -0.010578513 0.69299209
0.0067522964 -0.011575341 0.69369924
0.0067623355 -0.012558639 0.69404554
0.0067730844 -0.013546139 0.69441617
0.0067863124 -0.014542043 0.69487244
0.0068018106 -0.015546978 0.69540697
0.0068193711 -0.0165613 0.69601262
0.0068408148 -0.017590642 0.69675219
0.0068664299 -0.018637419 0.69763559
0.0068971775 -0.019706219 0.69869602
0.0069354456 -0.020806313 0.70001584
0.0069853789 -0.02195403 0.701738
0.007060973 -0.023200303 0.70434511
0.0075093177 -0.025746197 0.71980804
0.0087083662 0.041364759 0.7236191
0.0086600967 0.04005295 0.72216249
0.0086272843 0.0388228 0.72117221
0.0086054355 0.037648767 0.72051293
0.0085875643 0.036497146 0.71997356
0.008558115 0.035302252 0.71908486
0.0085057775 0.034023136 0.71750546
0.008440813 0.032708138 0.71554494
0.0083812186 0.031429589 0.71374655
0.0083291437 0.03019318 0.71217507
0.0082804859 0.028981715 0.71070671
0.008237713 0.027802318 0.70941597
0.0081957495 0.026636213 0.70814955
0.0082572214 0.025803834 0.71000457
0.0094901975 0.028470606 0.74721295
0.0096855201 0.027845889 0.75310731
0.0097006354 0.026676774 0.75356352
0.0097080236 0.025483578 0.75378644
0.0097011067 0.024252802 0.75357771
0.0096810218 0.022992402 0.75297165
0.0096537517 0.021720916 0.75214863
0.009632241 0.020468533 0.75149953
0.0079122167 0.015824467 0.69959319
0.0078920312 0.014797568 0.69898403
0.0078740846 0.01377967 0.69844246
0.0078562191 0.012766391 0.69790328
0.0078392951 0.011758983 0.69739258
0.0078238193 0.010757774 0.69692558
0.0078098676 0.0097623467 0.69650453
0.007796451 0.0087709725 0.69609964
0.0077834437 0.0077834427 0.69570714
0.0077723204 0.0068008006 0.69537139
0.0077620423 0.0058215559 0.69506121
0.0077524213 0.0048452616 0.69477093
0.0077434527 0.0038717389 0.69450027
0.0077329515 0.002899915 0.69418335
0.0077155125 0.0019288957 0.6936571
0.0076888362 0.00096109509 0.69285208
0.0076527926 2.9802322e-08 0.69176435
0.0076212324 -0.00095266104 0.69081199
0.007597798 -0.001899451 0.69010478
0.0075803883 -0.0028426349 0.68957937
0.0075671468 -0.003783524 0.68917978
0.0075575747 -0.0047234893 0.68889087
0.0075553493 -0.0056664646 0.6888237
0.0075576887 -0.0066129565 0.68889433
0.0075672902 -0.0075672865 0.68918407
0.0075935894 -0.0085427761 0.68997777
0.007708529 -0.0096356273 0.6934464
0.0077383337 -0.010640204 0.69434577
0.0077502299 -0.01162529 0.69470471
0.0077619818 -0.012613207 0.69505942
0.007777153 -0.013610005 0.69551724
0.0077942652 -0.014614224 0.69603372
0.0078137703 -0.015627503 0.69662225
0.0078382511 -0.01665625 0.69736099
0.0078667188 -0.017700106 0.69822013
0.0079008471 -0.018764496 0.6992501
0.0079432419 -0.019858092 0.7005294
0.0079984767 -0.020996004 0.7021963
0.0080772713 -0.022212505 0.70457417
0.0086039556 -0.024736315 0.72046822
0.0086566508 -0.025969923 0.72205842
0.0098583363 0.042719483 0.72526681
0.0097885206 0.041329384 0.72339398
0.0097470796 0.040071338 0.72228241
0.0097180521 0.038872242 0.72150373
0.0096977102 0.037713319 0.72095811
0.0096702632 0.036532104 0.72022176
0.0096216248 0.035279334 0.71891713
0.0095479805 0.033948362 0.7169416
0.0094766114 0.032641679 0.71502721
0.0094171586 0.031390578 0.71343237
0.009359614 0.030158788 0.71188879
0.0093105007 0.02896601 0.71057135
0.0092624715 0.027787417 0.70928299
0.0092967385 0.026857257 0.71020216
0.010698996 0.029719442 0.74781716
0.010923858 0.02913031 0.75384891
0.010942279 0.027963609 0.75434315
0.010953831 0.026776075 0.75465298
0.010950421 0.025551021 0.75456148
0.010931707 0.024292678 0.75405955
0.01090233 0.023016065 0.75327146
0.010874634 0.021749288 0.75252855
0.0089349058 0.016877085 0.70049614
0.0089118835 0.015843391 0.69987857
0.0088909809 0.014818311 0.69931787
0.0088707339 0.013798952 0.69877481
0.0088509629 0.012784749 0.69824439
0.0088333935 0.011777848 0.6977731
0.0088171344 0.01077655 0.69733697
0.0088017974 0.0097798109 0.69692558
0.0087868208 0.0087868273 0.69652385
0.0087739127 0.0077990592 0.69617754
0.0087619293 0.0068148375 0.69585609
0.0087508271 0.005833894 0.69555831
0.00874067 0.0048559308 0.69528592
0.0087297577 0.0038799345 0.69499314
0.0087118559 0.0029039681 0.69451296
0.008684136 0.0019298196 0.69376934
0.0086449254 0.00096058846 0.69271755
0.0086075487 -0 0.69171488
0.0085786888 -0.00095316768 0.69094074
0.0085583739 -0.0019018352 0.69039577
0.0085415887 -0.0028471947 0.68994564
0.0085307481 -0.0037914515 0.68965483
0.0085264193 -0.0047368705 0.68953866
0.0085268384 -0.0056845546 0.68954992
0.0085366666 -0.0066395998 0.68981355
0.0085617583 -0.0076104105 0.69048661
0.0086828303 -0.0086827874 0.69373429
0.0087289456 -0.0096988082 0.69497132
0.0087437248 -0.010686725 0.69536781
0.0087567829 -0.011675656 0.69571805
0.0087734684 -0.012672782 0.69616562
0.0087920362 -0.013676494 0.69666374
0.0088140983 -0.014690161 0.69725549
0.0088408496 -0.015717059 0.69797313
0.0088719577 -0.016758144 0.6988076
0.0089091687 -0.017818332 0.69980574
0.0089553753 -0.018905759 0.70104522
0.0090154726 -0.020034373 0.70265734
0.0090996744 -0.021232575 0.704916
0.0092894118 -0.022707433 0.71000564
0.0097557371 -0.024931341 0.72251463
0.011036726 0.044146895 0.72727096
0.010931117 0.042631388 0.72472143
0.010877695 0.041335255 0.72343171
0.010839943 0.040107816 0.72252029
0.010816089 0.038937956 0.72194433
0.010789639 0.037763774 0.72130585
0.010744783 0.036532283 0.72022289
0.010667357 0.035202295 0.71835363
0.01058566 0.033874124 0.71638137
0.010516068 0.032599837 0.71470124
0.010450484 0.031351507 0.7131179
0.010393307 0.030140579 0.71173751
0.010339443 0.028950453 0.71043712
0.010337948 0.027912468 0.710401
0.011913985 0.030976385 0.74844998
0.012168556 0.030421376 0.75459582
0.012190493 0.029257208 0.75512546
0.012207028 0.028076231 0.75552464
0.012208161 0.026858002 0.75555193
0.012191742 0.025602669 0.75515562
0.01216057 0.024321169 0.754403
0.012126558 0.023040503 0.75358188
0.0099653602 0.01793769 0.70140594
0.0099395849 0.016897321 0.70078373
0.0099153966 0.0158647 0.70019972
0.0098927738 0.014839202 0.69965363
0.0098702153 0.013818294 0.69910896
0.0098502785 0.012805402 0.69862765
0.0098315049 0.011797845 0.69817442
0.0098142261 0.010795653 0.69775724
0.0097974688 0.0097974837 0.69735271
0.0097824512 0.0088042021 0.69699019
0.0097685866 0.0078148842 0.69665539
0.0097561674 0.0068293214 0.69635558
0.0097446153 0.0058467984 0.69607669
0.0097327875 0.0048664212 0.69579113
0.0097153252 0.0038861334 0.69536966
0.0096870372 0.0029061139 0.69468665
0.0096453195 0.0019291043 0.69367951
0.0096016023 0.00096017122 0.69262409
0.0095678568 -0 0.69180942
0.0095434031 -0.00095432997 0.69121903
0.009522588 -0.0019044876 0.69071651
0.0095104976 -0.0028531551 0.69042462
0.0095035974 -0.0038014352 0.69025809
0.0095017925 -0.0047508478 0.69021446
0.0095125586 -0.0057075024 0.69047439
0.0095369276 -0.0066758096 0.69106269
0.0096177692 -0.0076941848 0.69301438
0.0097247669 -0.0087522566 0.69559753
0.0097428691 -0.009742856 0.69603461
0.009757461 -0.010733217 0.69638687
0.0097753033 -0.011730313 0.69681764
0.0097951675 -0.012733698 0.69729716
0.0098198112 -0.013747722 0.69789213
0.0098486505 -0.014772922 0.69858831
0.0098821847 -0.015811443 0.69939792
0.0099222399 -0.016867787 0.70036495
0.0099718738 -0.017949343 0.70156318
0.01003636 -0.019069076 0.70312011
0.010126423 -0.020252824 0.70529437
0.010291086 -0.021611243 0.70926964
0.010858621 -0.023888975 0.7229712
0.012085375 0.043946862 0.72606349
0.012018242 0.042610168 0.72459
0.011972545 0.041359723 0.7235871
0.011942307 0.040169597 0.72292352
0.011917173 0.039001644 0.72237182
0.011874954 0.03778398 0.7214452
0.011799093 0.036469936 0.71978021
0.011708281 0.035124838 0.71778721
0.011626123 0.033821434 0.71598399
0.011553252 0.032559186 0.71438468
0.011486272 0.031326234 0.71291465
0.011426466 0.030124366 0.71160209
0.011380771 0.028969258 0.71059918
0.011471477 0.028157294 0.71258998
0.013179445 0.031151444 0.75007534
0.013445379 0.030557692 0.75591201
0.013466434 0.029381305 0.75637406
0.013474346 0.028173655 0.75654769
0.013461296 0.026922613 0.75626135
0.013429698 0.025638551 0.75556779
0.013390882 0.024347067 0.75471592
0.011003754 0.019006491 0.70232463
0.010975098 0.017959267 0.70169568
0.010947461 0.016918808 0.70108914
0.010922348 0.015887082 0.70053804
0.010897349 0.014860034 0.69998932
0.010874526 0.013840318 0.69948846
0.010853083 0.012826383 0.69901788
0.010833814 0.011818737 0.69859493
0.01081525 0.010815263 0.69818747
0.010797936 0.0098163188 0.69780743
0.010782368 0.0088219345 0.69746584
0.010768402 0.0078316033 0.69715923
0.010755355 0.0068443418 0.69687295
0.010742676 0.005859673 0.69659466
0.010725426 0.0048751831 0.69621611
0.010696537 0.0038896799 0.69558203
0.010654049 0.0029056668 0.69464952
0.010603556 0.001927942 0.69354135
0.01056452 0.00096043944 0.69268459
0.01053548 -0 0.6920473
0.010511095 -0.00095552206 0.69151211
0.010496822 -0.0019085109 0.69119883
0.010486942 -0.0028600991 0.69098198
0.010484944 -0.0038126707 0.69093812
0.01049414 -0.0047700703 0.69114
0.010516959 -0.0057365 0.69164079
0.010574628 -0.006729275 0.69290644
0.010725134 -0.0078000724 0.69620967
0.01074771 -0.0087935328 0.69670516
0.010763854 -0.0097853243 0.69705945
0.010782706 -0.010782659 0.69747323
0.010804041 -0.011786222 0.69794148
0.010830957 -0.012800217 0.69853222
0.010861693 -0.013823956 0.69920677
0.010897435 -0.014860123 0.69999117
0.010940672 -0.015913695 0.70094019
0.010994434 -0.016991377 0.70212007
0.01106174 -0.018101037 0.70359731
0.011156361 -0.019270062 0.70567399
0.011317587 -0.020577431 0.70921242
0.011967286 -0.022846639 0.72347164
0.013267306 0.045329958 0.7277385
0.013172824 0.043909431 0.72583771
0.013116881 0.042629898 0.72471213
0.013077969 0.041413605 0.72392929
0.013050454 0.040238917 0.7233758
0.013012047 0.039036155 0.72260308
0.012943828 0.037752867 0.72123051
0.012843323 0.03638941 0.71920866
0.012747453 0.035055518 0.71727979
0.012667149 0.033779114 0.71566427
0.012589806 0.032523721 0.71410823
0.012523684 0.031309217 0.71277791
0.012458512 0.030108064 0.71146679
0.012524415 0.029223651 0.71279275
0.014405724 0.032412946 0.7506417
0.014705983 0.031862974 0.75668246
0.014730082 0.03068769 0.75716728
0.014743321 0.029486686 0.75743359
0.014735144 0.028242379 0.75726908
0.014706271 0.026961535 0.75668824
0.014665036 0.025663793 0.75585866
0.014630659 0.024384439 0.75516701
0.012018512 0.019029349 0.70261467
0.011987272 0.017980903 0.70198619
0.011959575 0.016942739 0.70142895
0.011932101 0.015909433 0.70087624
0.011906168 0.014882743 0.70035446
0.01188237 0.013862789 0.69987571
0.011860822 0.012849301 0.69944221
0.011840241 0.011840284 0.69902813
0.011820474 0.010835469 0.69863057
0.011803373 0.0098361671 0.69828641
0.011787522 0.0088406801 0.69796753
0.011772961 0.0078486502 0.69767463
0.011759174 0.0068595409 0.69739717
0.011742247 0.0058711469 0.69705671
0.011713751 0.0048807561 0.69648337
0.011671172 0.003890425 0.69562674
0.011614595 0.0029036701 0.69448853
0.011568763 0.0019281805 0.69356644
0.011534762 0.00096127391 0.6928823
0.011507966 -0 0.69234335
0.011489864 -0.00095745921 0.69197917
0.011476512 -0.0019127429 0.69171053
0.011474319 -0.0028685629 0.69166636
0.011481427 -0.003827095 0.69180936
0.01150197 -0.0047924817 0.69222265
0.011555627 -0.0057777762 0.69330215
0.011727065 -0.0068407953 0.69675124
0.011758345 -0.0078388751 0.69738054
0.011776009 -0.0088320076 0.69773591
0.011795766 -0.0098298192 0.69813341
0.011819125 -0.010834187 0.69860333
0.011847576 -0.011847556 0.69917572
0.011880019 -0.012869984 0.69982845
0.011917938 -0.013904214 0.70059133
0.011965151 -0.014956415 0.70154119
0.012022218 -0.016029626 0.70268929
0.012093652 -0.01713267 0.70412642
0.012189453 -0.018284172 0.70605373
0.012344326 -0.019545168 0.70916957
0.013088974 -0.021814972 0.72415078
0.014482615 0.046790004 0.72977567
0.014343376 0.045236826 0.72718996
0.014273002 0.043916941 0.72588307
0.014223503 0.042670518 0.72496378
0.01419222 0.041484952 0.72438288
0.014156515 0.040291607 0.72371972
0.014095346 0.039033294 0.72258383
0.013990992 0.037668079 0.72064584
0.013882954 0.036309272 0.71863943
0.013792346 0.035011351 0.71695679
0.013705569 0.033736825 0.71534526
0.013631239 0.032505304 0.71396488
0.013559913 0.03129214 0.71264035
0.013578993 0.030291587 0.71299469
0.015639521 0.033685148 0.75126046
0.01597248 0.033173621 0.75744379
0.016000532 0.032001078 0.75796473
0.016019763 0.030807287 0.75832188
0.016017396 0.02957058 0.75827795
0.015991878 0.028293371 0.75780404
0.015949059 0.026990712 0.75700891
0.015906703 0.025695473 0.75622225
0.013069918 0.020107567 0.70354068
0.013035815 0.019052356 0.70290738
0.01300454 0.018006325 0.70232666
0.012974555 0.01696673 0.70176971
0.012945376 0.015932798 0.70122784
0.012919356 0.014906973 0.70074463
0.012895127 0.013887107 0.70029467
0.012872517 0.012872517 0.69987476
0.012850393 0.01186192 0.69946384
0.012831482 0.010857433 0.69911277
0.012813686 0.0098566711 0.69878232
0.012797503 0.0088598132 0.69848168
0.012782463 0.0078661442 0.69820237
0.012765856 0.0068739653 0.69789398
0.012737857 0.0058790743 0.69737405
0.012694602 0.0048825443 0.69657075
0.012635075 0.0038877428 0.69546527
0.012581456 0.0029034317 0.69446957
0.012541237 0.001929462 0.69372261
0.012511998 0.000962466 0.69317961
0.012489608 2.9802322e-08 0.69276386
0.012473561 -0.00095951557 0.6924659
0.012469975 -0.0019184351 0.6923992
0.012474471 -0.0028786957 0.69248271
0.012491958 -0.0038436651 0.6928075
0.012539979 -0.004823029 0.69369924
0.012730028 -0.005875349 0.69722867
0.01277443 -0.006878525 0.69805324
0.012793978 -0.0078731775 0.69841623
0.012814444 -0.0088714957 0.69879633
0.012839891 -0.0098768175 0.69926894
0.012869716 -0.010889709 0.69982278
0.012903671 -0.011911064 0.70045334
0.012945016 -0.012944996 0.70122117
0.012994772 -0.013994336 0.70214516
0.013054914 -0.015063375 0.70326209
0.013130123 -0.016160131 0.70465875
0.013228766 -0.017299145 0.70649064
0.013385789 -0.018534154 0.70940673
0.014216477 -0.020777911 0.72483331
0.015526004 0.04657802 0.72855723
0.015439427 0.045215487 0.72706431
0.01538051 0.043944329 0.72604835
0.015341772 0.042737812 0.7253803
0.015308445 0.04155153 0.72480559
0.015252913 0.040311277 0.72384804
0.015151498 0.038961023 0.72209913
0.015033785 0.037584454 0.72006929
0.014928952 0.036256015 0.71826148
0.014834549 0.034967154 0.71663356
0.014749279 0.033712655 0.71516311
0.01467174 0.032487422 0.713826
0.014635262 0.031361282 0.71319699
0.016883073 0.034972101 0.75195909
0.016952531 0.033905089 0.75315684
0.017277839 0.033321559 0.75876659
0.017303875 0.032135785 0.75921553
0.017308405 0.030907929 0.75929368
0.017287221 0.029635251 0.75892836
0.01724322 0.02832818 0.75816965
0.017194377 0.027019769 0.75732732
0.01412941 0.02119416 0.70447385
0.014092401 0.020132005 0.70383567
0.014057334 0.019077808 0.70323098
0.014024798 0.018031895 0.70266986
0.01399247 0.0169909 0.70211244
0.013963963 0.015958816 0.70162082
0.013936847 0.014932334 0.70115316
0.013912157 0.013912141 0.70072752
0.013888161 0.01289618 0.70031369
0.013866772 0.011885822 0.69994485
0.013846872 0.010879666 0.69960165
0.013829049 0.0098778605 0.69929433
0.013812742 0.0088796318 0.69901311
0.013795551 0.0078831613 0.69871664
0.01376876 0.0068843663 0.6982547
0.013726024 0.0058826208 0.69751769
0.013664123 0.0048800707 0.69645029
0.013603251 0.0038866699 0.69540054
0.013556444 0.0029049516 0.69459343
0.013523364 0.0019319355 0.69402301
0.013496215 0.00096404552 0.69355476
0.013478816 -0 0.69325477
0.013471973 -0.00096225739 0.69313675
0.01347332 -0.0019247532 0.69316
0.013489043 -0.0028904974 0.69343114
0.013530836 -0.0038659275 0.69415182
0.01373329 -0.004904747 0.69764304
0.013795442 -0.0059122741 0.69871479
0.01381781 -0.0069088638 0.69910049
0.013838829 -0.0079078972 0.69946295
0.013866388 -0.0089140534 0.69993824
0.013897419 -0.0099266768 0.70047331
0.013932801 -0.010947198 0.70108348
0.013977449 -0.011980653 0.70185339
0.014029573 -0.01302743 0.70275229
0.014092513 -0.014092505 0.70383757
0.014171084 -0.01518327 0.70519245
0.014274057 -0.016313195 0.70696819
0.014429302 -0.017521292 0.70964527
0.015349773 -0.019735396 0.72551829
0.01662071 0.046538055 0.72832716
0.016549904 0.045236409 0.72718757
0.016501075 0.044002891 0.72640169
0.016466174 0.042812079 0.72583997
0.016415682 0.041586459 0.72502732
0.016325274 0.040269017 0.72357225
0.016197523 0.03887406 0.72151613
0.016077263 0.037513644 0.71958053
0.015975082 0.036210209 0.71793592
0.015877886 0.034931362 0.71637166
0.015794085 0.033694088 0.71502286
0.015711231 0.032469898 0.71368939
0.015819786 0.031639576 0.71543652
0.018186048 0.035159707 0.75352091
0.018561965 0.034648985 0.75957125
0.018591577 0.033464879 0.76004779
0.01860531 0.032249242 0.76026887
0.01859038 0.030983984 0.76002854
0.01854912 0.029678583 0.75936449
0.018494818 0.028358757 0.7584905
0.015197263 0.022289336 0.70541716
0.015157118 0.021219999 0.70477104
0.015118038 0.020157397 0.70414209
0.01508298 0.019105136 0.70357776
0.015048021 0.018057674 0.70301509
0.015016227 0.017018437 0.70250344
0.014986064 0.015985191 0.70201796
0.014959242 0.014959276 0.70158625
0.014933347 0.013937801 0.70116955
0.014909319 0.012921453 0.70078278
0.014887611 0.011910111 0.70043343
0.014868028 0.010903239 0.70011824
0.014850083 0.0099000931 0.69982934
0.014832064 0.0088992417 0.69953942
0.014806607 0.0078968704 0.6991297
0.014764373 0.0068900585 0.69844985
0.014701845 0.0058807433 0.69744354
0.014633281 0.0048777759 0.69634008
0.014580462 0.00388816 0.69548988
0.014542042 0.0029084384 0.69487149
