# .PCD v0.7 - Point Cloud Data file format
VERSION 0.7
FIELDS x y z
SIZE 4 4 4
TYPE F F F
COUNT 1 1 1
WIDTH 1321
HEIGHT 1
VIEWPOINT 0 0 0 1 0 0 0
POINTS 1321
DATA ascii
0.0040785349 0.046903163 0.70698225
0.0040730401 0.045821726 0.70665061
0.0040682382 0.044750661 0.70636082
0.0040634475 0.043682098 0.70607162
0.0040586684 0.04261601 0.70578319
0.0040539005 0.041552514 0.70549542
0.0040491433 0.040491492 0.7052083
0.0040453952 0.039442629 0.7049821
0.0040417188 0.038396358 0.70476019
0.0040380489 0.037351936 0.70453876
0.0040343702 0.036309361 0.70431668
0.0040307138 0.035268754 0.70409602
0.0040271939 0.034231186 0.70388359
0.0040236963 0.033195496 0.70367247
0.0040199142 0.032159299 0.70344424
0.0040156068 0.031120986 0.70318425
0.0040113092 0.030084819 0.70292485
0.0040064594 0.029046834 0.70263213
0.004001461 0.028010249 0.70233047
0.0039964751 0.026976228 0.70202953
0.0039911042 0.025942206 0.70170534
0.0039854608 0.024909168 0.70136476
0.0039795334 0.023877233 0.70100701
0.0039735609 0.02284801 0.70064652
0.0039672595 0.021819949 0.70026618
0.0039609 0.020794719 0.69988233
0.0039545293 0.019772619 0.69949788
0.0039481949 0.018753916 0.69911557
0.0039418652 0.017738402 0.69873357
0.0039355713 0.016726196 0.69835365
0.0039292821 0.015717149 0.69797403
0.0039230282 0.01471135 0.69759661
0.0039167786 0.01370874 0.69721943
0.0039106561 0.012709647 0.69684988
0.00390469 0.011714101 0.69648981
0.0038987573 0.010721624 0.69613171
0.0038928273 0.0097320974 0.69577378
0.0038869299 0.0087456107 0.69541788
0.0038810363 0.0077620745 0.69506216
0.003875175 0.0067815781 0.69470841
0.0038693163 0.0058039725 0.69435477
0.0038634902 0.0048293769 0.69400322
0.0038578156 0.0038577914 0.69366074
0.0038522468 0.0028892159 0.69332457
0.0038466938 0.0019233525 0.69298941
0.0038411568 0.00096032023 0.69265521
0.0038356506 2.9802322e-08 0.69232285
0.0038301453 -0.00095751882 0.69199061
0.0038246559 -0.0019122958 0.69165933
0.003819182 -0.0028643608 0.691329
0.0038137243 -0.0038137138 0.69099951
0.0038083973 -0.004760474 0.690678
0.003803187 -0.0057047904 0.69036353
0.0037980052 -0.0066464543 0.69005084
0.0037928231 -0.0075856447 0.68973804
0.0037876547 -0.0085222125 0.68942606
0.003782501 -0.0094562173 0.68911505
0.0037773612 -0.010387719 0.68880481
0.003772235 -0.011316687 0.6884954
0.0037671227 -0.012243152 0.68818694
0.0037620529 -0.013167143 0.68788087
0.0037571657 -0.014089316 0.68758595
0.0037523056 -0.015009224 0.68729258
0.0037474437 -0.0159266 0.68699914
0.0037426085 -0.01684168 0.68670726
0.0037377717 -0.017754406 0.68641537
0.0037329616 -0.018664777 0.68612504
0.0037281497 -0.019572765 0.68583465
0.0037233639 -0.020478457 0.6855458
0.0037185769 -0.021381795 0.68525684
0.0037139121 -0.022283435 0.68497533
0.0037093554 -0.023183465 0.68470037
0.00370481 -0.02408126 0.68442595
0.0037002619 -0.02497676 0.68415141
0.0036957387 -0.025870144 0.68387842
0.0036912262 -0.026761353 0.68360615
0.0036867252 -0.027650446 0.68333447
0.003682235 -0.028537303 0.68306351
0.0036777556 -0.029422045 0.68279314
0.0036732873 -0.030304611 0.68252337
0.0036689509 -0.031186074 0.68226171
0.0036646917 -0.032066017 0.68200463
0.0036604423 -0.032943964 0.68174815
0.0036562162 -0.033819973 0.68149304
0.0036519866 -0.034693867 0.68123776
0.0036477665 -0.035565674 0.68098313
0.0036435565 -0.036435574 0.68072897
0.0036393693 -0.037303537 0.68047631
0.0036351783 -0.038169324 0.68022329
0.0036309969 -0.039033204 0.67997098
0.0036269308 -0.03989622 0.67972553
0.0036229652 -0.040758342 0.67948622
0.0036190082 -0.041618556 0.67924738
0.0036150469 -0.042476773 0.67900836
0.0036111074 -0.043333292 0.67877054
0.0036071762 -0.044187903 0.67853326
0.003603254 -0.045040667 0.67829651
0.0035993271 -0.045891404 0.67805952
0.0035954218 -0.046740443 0.67782378
0.0035915247 -0.047587693 0.67758858
0.0035877004 -0.04843393 0.67735779
0.003584 -0.049279988 0.67713445
0.0035803199 -0.050124466 0.67691237
0.0035766347 -0.050967008 0.67668986
0.0035729567 -0.05180788 0.6764679
0.0035692996 -0.052647173 0.67624718
0.0035656367 -0.053484499 0.67602617
0.0035619815 -0.054320216 0.67580545
0.0035583463 -0.055154324 0.6755861
0.0035547062 -0.055986613 0.6753664
0.0035511239 -0.056817979 0.67515016
0.0035476869 -0.057649881 0.67494273
0.0035442691 -0.058480442 0.67473644
0.0035408579 -0.059309393 0.67453063
0.0035374409 -0.060136497 0.67432439
0.0035340432 -0.06096223 0.67411923
0.0035306392 -0.061786145 0.67391384
0.0035272541 -0.062608778 0.67370951
0.003523876 -0.063429743 0.6735056
0.0035204913 -0.064248949 0.67330134
0.0035171257 -0.065066814 0.67309827
0.0035139641 -0.065886796 0.67290735
0.0035107962 -0.066705108 0.6727162
0.0035076458 -0.067522168 0.67252606
0.0035044889 -0.06833753 0.67233551
0.0035013377 -0.069151431 0.67214537
0.0034982043 -0.069964036 0.67195618
0.0034950643 -0.070775032 0.67176664
0.0034919423 -0.071584806 0.67157823
0.0034888135 -0.072392866 0.67138934
0.0034857024 -0.073199749 0.67120171
0.0034827788 -0.074009061 0.67102528
0.0034798724 -0.07481724 0.67084974
0.0034769706 -0.075624079 0.67067462
0.0034740733 -0.076429591 0.6704998
0.0057036025 0.091257662 0.73621517
0.005679931 0.089742899 0.73507226
0.0056579141 0.088263482 0.73400921
0.0056372359 0.08681348 0.73301077
0.005616758 0.085374773 0.73202193
0.0055978312 0.083967507 0.73110807
0.005579479 0.082576305 0.73022199
0.0055613462 0.081195682 0.72934645
0.0055439696 0.07983318 0.7285074
0.0055274335 0.078489572 0.727709
0.0055109961 0.077153981 0.72691536
0.0054949699 0.075830579 0.72614157
0.0054793963 0.074519813 0.7253896
0.0054643885 0.073222816 0.72466493
0.005449486 0.07193321 0.72394538
0.0054349722 0.070654631 0.72324461
0.0054205116 0.069382578 0.72254634
0.005406735 0.06812489 0.72188115
0.005393052 0.066873908 0.72122049
0.0053796922 0.065632284 0.72057545
0.0053663761 0.064396501 0.71993244
0.0053531937 0.063167691 0.71929598
0.0053405319 0.061950207 0.71868461
0.0053280438 0.060739726 0.71808159
0.0053157043 0.059535891 0.71748585
0.0053034215 0.058337688 0.71689272
0.0052911956 0.05714494 0.71630239
0.0052793599 0.055961221 0.71573097
0.0052678431 0.054785579 0.71517485
0.005256399 0.053615302 0.71462226
0.0052450043 0.052450091 0.71407211
0.005123015 0.050205529 0.70818198
0.0051144063 0.049098313 0.70776629
0.0051058261 0.047994792 0.70735198
0.0050972751 0.046894938 0.7069391
0.0050899745 0.045809776 0.7065866
0.0050827563 0.044728279 0.70623809
0.005075579 0.043650001 0.70589155
0.0050684018 0.042574584 0.70554507
0.0050612446 0.041502208 0.70519942
0.0050547617 0.040438116 0.70488638
0.005048845 0.039380997 0.70460075
0.0050429422 0.038326383 0.70431566
0.0050370535 0.037274212 0.70403135
0.0050311782 0.036224514 0.70374769
0.0050254981 0.035178483 0.70347345
0.0050209598 0.034142524 0.70325428
0.0050164289 0.033108443 0.70303553
0.0050119068 0.03207621 0.70281714
0.0050073927 0.031045854 0.70259923
0.0050028865 0.030017346 0.70238161
0.0049985684 0.028991699 0.70217311
0.0049942578 0.02796784 0.70196497
0.0049894569 0.026943088 0.70173323
0.0049841492 0.02591759 0.70147687
0.0049788323 0.024894178 0.70122015
0.0049727163 0.023869067 0.70092487
0.0049665566 0.022846192 0.70062745
0.0049604313 0.02182591 0.70033175
0.0049537523 0.020805806 0.70000923
0.0049466998 0.019786805 0.69966871
0.0049393945 0.018769711 0.69931597
0.0049320138 0.01775527 0.69895959
0.0049242475 0.016742468 0.69858462
0.004916409 0.015732527 0.69820619
0.0049085766 0.014725745 0.69782799
0.0049007498 0.013722092 0.69745004
0.0048929667 0.012721717 0.69707423
0.0048851897 0.011724502 0.69669873
0.0048774369 0.010730386 0.69632441
0.0048697279 0.0097394586 0.69595218
0.0048620244 0.0087516606 0.69558018
0.004854477 0.0077671707 0.69521582
0.0048471219 0.0067859888 0.6948607
0.0048398077 0.0058077872 0.69450748
0.0048324973 0.0048325062 0.6941545
0.004825227 0.0038602352 0.69380349
0.0048179789 0.0028908253 0.69345355
0.0048107342 0.001924336 0.69310367
0.0048035295 0.00096073747 0.69275582
0.004796328 2.9802322e-08 0.69240808
0.0047893315 -0.00095784664 0.69207031
0.0047824648 -0.0019129515 0.69173872
0.0047756182 -0.0028653443 0.69140816
0.0047687907 -0.0038149953 0.69107842
0.0047619832 -0.0047619641 0.69074976
0.0047551948 -0.0057062209 0.69042194
0.0047484254 -0.0066477954 0.69009519
0.0047416938 -0.0075867176 0.6897701
0.0047349627 -0.008522898 0.68944514
0.0047283764 -0.0094567537 0.68912715
0.0047219507 -0.010388315 0.68881691
0.0047155428 -0.011317283 0.68850744
0.004709152 -0.012243807 0.68819886
0.0047027781 -0.013167769 0.68789113
0.0046964223 -0.014089257 0.68758428
0.0046900832 -0.015008271 0.68727815
0.0046837609 -0.015924752 0.68697292
0.0046774559 -0.016838819 0.68666846
0.0046711676 -0.017750412 0.68636483
0.0046651401 -0.018660575 0.68607378
0.0046591279 -0.019568324 0.68578351
0.0046531488 -0.020473838 0.68549478
0.0046471679 -0.021376938 0.685206
0.004641219 -0.022277862 0.68491876
0.0046352684 -0.023176342 0.68463147
0.0046293503 -0.024072587 0.68434566
0.0046234298 -0.024966478 0.68405986
0.0046175416 -0.025858223 0.68377554
0.0046117194 -0.026747972 0.68349445
0.0046060989 -0.027636528 0.68322301
0.0046004914 -0.028522998 0.68295228
0.0045948983 -0.029407322 0.68268222
0.0045893183 -0.030289471 0.6824128
0.0045837518 -0.031169504 0.68214393
0.0045781988 -0.032047361 0.68187588
0.0045726425 -0.032923013 0.68160766
0.0045671165 -0.033796668 0.68134081
0.004561604 -0.034668177 0.68107462
0.004556187 -0.035538256 0.68081307
0.0045509329 -0.036407441 0.6805594
0.0045456905 -0.037274659 0.68030626
0.0045404597 -0.03813982 0.68005371
0.0045352578 -0.039003223 0.6798026
0.0045300513 -0.039864421 0.67955112
0.0045248568 -0.040723681 0.67930031
0.0045196745 -0.041581005 0.67905009
0.0045145196 -0.042436481 0.67880124
0.004509361 -0.04328984 0.67855203
0.0045042625 -0.04414174 0.67830592
0.004499353 -0.04499352 0.67806888
0.004494471 -0.045843601 0.67783314
0.0044895993 -0.046691805 0.67759794
0.0044847219 -0.047538042 0.6773625
0.0044798716 -0.04838258 0.6771282
0.0044750315 -0.04922533 0.67689449
0.0044702021 -0.050066262 0.67666137
0.0044653667 -0.050905168 0.6764279
0.0044605583 -0.051742464 0.67619574
0.0044557601 -0.052577943 0.67596406
0.0044511775 -0.053414106 0.67574275
0.0044466364 -0.054248959 0.67552358
0.0044420888 -0.055081874 0.67530394
0.0044375504 -0.055913121 0.67508483
0.0044330368 -0.056742847 0.67486686
0.0044285171 -0.057570666 0.67464864
0.0044240062 -0.058396846 0.67443085
0.0044195205 -0.059221566 0.67421424
0.0044150278 -0.060044378 0.67399728
0.0044105444 -0.060865521 0.67378086
0.0044062412 -0.06168735 0.67357308
0.0044020233 -0.062508732 0.67336941
0.0043977988 -0.063328296 0.67316544
0.0043935971 -0.064146489 0.67296255
0.0043894039 -0.064963162 0.67276001
0.0043852027 -0.065778017 0.67255723
0.0043810252 -0.066591561 0.67235553
0.0043768408 -0.067403316 0.67215347
0.0043726787 -0.068213761 0.67195249
0.0043685255 -0.069022655 0.67175192
0.004364471 -0.069831535 0.67155623
0.0043605762 -0.070641309 0.67136812
0.0043566725 -0.071449414 0.67117971
0.0043527917 -0.072256297 0.67099226
0.0043489025 -0.073061585 0.6708045
0.0043450207 -0.073865339 0.67061704
0.0043411599 -0.074667931 0.67043066
0.0043372917 -0.075468868 0.67024386
0.0043334453 -0.076268584 0.67005813
0.0069145346 0.091041386 0.73904032
0.0068755788 0.089382529 0.73747283
0.0068421699 0.087807864 0.73612857
0.0068110926 0.086273849 0.73487812
0.006782962 0.084787071 0.73374617
0.0067554582 0.08331731 0.73263955
0.0067306496 0.0818896 0.73164129
0.0067062331 0.080474854 0.73065889
0.0066827368 0.079079092 0.72971344
0.0066608815 0.077710301 0.72883403
0.0066392566 0.076351464 0.72796398
0.0066182981 0.075007439 0.72712064
0.0065981373 0.073679239 0.72630942
0.0065786182 0.072364837 0.72552407
0.0065594725 0.071060985 0.72475374
0.0065406654 0.069767088 0.723997
0.0065225051 0.068486303 0.72326624
0.0065047829 0.067216128 0.72255319
0.0064874934 0.065956235 0.72185749
0.0064703231 0.064703256 0.72116661
0.0064534107 0.063458562 0.7204861
0.0064371657 0.062225968 0.71983248
0.0064212219 0.061001629 0.7191909
0.0064054392 0.059784114 0.71855587
0.0063897059 0.058572322 0.71792287
0.0063742404 0.057368159 0.71730053
0.0063593877 0.056174576 0.71670294
0.0063447384 0.054987758 0.71611345
0.0063301558 0.053806335 0.7155267
0.0063156411 0.052630335 0.71494269
0.0061590192 0.050298691 0.70864069
0.0061467625 0.0491741 0.70814753
0.0061345282 0.048053801 0.70765531
0.006122943 0.046942592 0.70718908
0.0061126701 0.045845062 0.70677578
0.0061024562 0.044751346 0.70636481
0.0060922774 0.043661326 0.70595515
0.006082132 0.042574942 0.70554698
0.0060723638 0.041494489 0.705154
0.0060638022 0.04042533 0.70480949
0.0060552903 0.039359391 0.70446694
0.0060467771 0.038296252 0.70412445
0.0060382877 0.037236124 0.70378286
0.0060298229 0.036178946 0.70344222
0.0060224924 0.035131246 0.70314729
0.0060154935 0.034087837 0.70286566
0.0060085105 0.033046812 0.70258474
0.0060015675 0.03200838 0.70230532
0.0059946175 0.030972183 0.70202565
0.0059881839 0.029940903 0.70176685
0.0059828144 0.028916955 0.70155072
0.0059774541 0.027894795 0.70133507
0.0059721028 0.026874512 0.70111972
0.0059667611 0.025855988 0.70090485
0.0059614773 0.024839491 0.70069224
0.0059563676 0.023825496 0.70048666
0.0059511722 0.022812873 0.70027757
0.0059454208 0.021799892 0.70004618
0.00593914 0.02078706 0.69979346
0.005932685 0.019775629 0.6995337
0.0059254486 0.01876393 0.69924253
0.0059181596 0.017754495 0.69894922
0.0059108888 0.016747534 0.69865674
0.0059029162 0.01574114 0.69833589
0.0058945017 0.014736265 0.69799733
0.0058858343 0.013733625 0.69764858
0.0058771004 0.012733728 0.69729722
0.0058679106 0.011735857 0.69692743
0.0058586127 0.010740787 0.69655323
0.0058493209 0.0097489357 0.69617939
0.0058400813 0.0087601244 0.69580764
0.0058308486 0.0077744722 0.69543612
0.0058216671 0.0067919493 0.69506669
0.0058124922 0.0058125257 0.69469756
0.0058033685 0.0048361421 0.69433045
0.0057942509 0.003862828 0.69396359
0.0057853186 0.002892673 0.69360417
0.0057766354 0.0019255579 0.69325483
0.0057679564 0.00096130371 0.69290555
0.0057593258 -0 0.69255829
0.0057506985 -0.00095841289 0.69221115
0.0057421187 -0.0019139946 0.69186592
0.0057335431 -0.002866745 0.69152081
0.005725015 -0.0038166642 0.69117773
0.0057164906 -0.0047637224 0.6908347
0.0057081864 -0.005708158 0.69050056
0.0057000578 -0.0066500306 0.69017351
0.0056919744 -0.0075893104 0.6898483
0.0056838919 -0.0085258484 0.6895231
0.0056758323 -0.0094597042 0.68919879
0.0056677954 -0.010390908 0.68887538
0.0056597819 -0.011319548 0.68855298
0.0056517906 -0.012245536 0.68823141
0.0056438218 -0.013168901 0.68791074
0.0056360029 -0.014089972 0.68759608
0.0056283954 -0.015009046 0.68729001
0.0056208074 -0.015925586 0.68698466
0.0056132409 -0.016839713 0.68668026
0.0056056944 -0.017751336 0.68637663
0.0055981679 -0.018660575 0.68607378
0.0055906624 -0.019567311 0.68577176
0.0055831764 -0.020471632 0.68547052
0.0055757104 -0.02137354 0.68517017
0.0055682645 -0.022273034 0.68487054
0.0055610649 -0.023171097 0.68458092
0.0055539664 -0.024067193 0.6842953
0.0055468855 -0.024960965 0.68401039
0.0055398028 -0.025852382 0.68372536
0.0055327378 -0.026741534 0.6834411
0.005525711 -0.027628511 0.68315834
0.0055186823 -0.028513193 0.68287551
0.0055116913 -0.02939567 0.68259418
0.0055046976 -0.030275822 0.68231285
0.005497742 -0.031153858 0.682033
0.0054910854 -0.032031268 0.68176508
0.0054844446 -0.032906681 0.68149793
0.0054778196 -0.033779889 0.68123138
0.0054712109 -0.034650981 0.68096542
0.0054646181 -0.035519987 0.68070018
0.0054580416 -0.036386937 0.68043554
0.0054514804 -0.03725177 0.68017155
0.0054449346 -0.038114548 0.67990816
0.0054384051 -0.038975239 0.67964542
0.0054318719 -0.039833695 0.67938256
0.0054256674 -0.040692508 0.67913294
0.0054194578 -0.041549146 0.67888308
0.0054132622 -0.042403847 0.67863375
0.005407081 -0.043256611 0.67838502
0.0054009333 -0.044107616 0.67813766
0.0053947801 -0.044956446 0.67789012
0.0053886408 -0.045803428 0.67764306
0.005382516 -0.046648473 0.67739666
0.0053764237 -0.047491729 0.67715144
0.0053703263 -0.0483329 0.67690611
0.0053644725 -0.049174279 0.67667061
0.0053586699 -0.050014257 0.67643714
0.005352899 -0.050852537 0.67620498
0.0053471406 -0.051688999 0.67597324
0.0053413752 -0.052523524 0.67574126
0.0053356411 -0.053356409 0.67551053
0.0053299195 -0.054187506 0.67528027
0.0053242105 -0.055016786 0.67505056
0.005318495 -0.055844158 0.6748206
0.0053128097 -0.05666995 0.67459184
0.0053072684 -0.057495385 0.67436886
0.0053018699 -0.058320582 0.67415166
0.0052965009 -0.059144229 0.67393565
0.0052911239 -0.059966058 0.67371929
0.0052857576 -0.060786188 0.67350334
0.0052804216 -0.061604887 0.67328864
0.0052750772 -0.062421739 0.67307365
0.0052697435 -0.063236892 0.67285895
0.0052644396 -0.064050674 0.67264557
0.0052591274 -0.064862549 0.67243183
0.0052538812 -0.0656735 0.67222077
0.005248866 -0.066485614 0.67201895
0.0052438783 -0.067296416 0.67181832
0.0052389004 -0.068105698 0.67161798
0.0052339137 -0.068913162 0.6714173
0.0052289544 -0.069719374 0.6712178
0.0052240044 -0.070524037 0.67101866
0.005219046 -0.071326941 0.67081904
0.0052141151 -0.072128564 0.67062068
0.0052091754 -0.072928444 0.67042196
0.0052042627 -0.073727056 0.67022431
0.005199594 -0.074527502 0.67003638
0.0051949872 -0.075327307 0.66985106
0.0051903706 -0.076125398 0.66966522
0.0082162265 0.090378493 0.74418843
0.0080936886 0.087874383 0.73996222
0.0080339834 0.086078465 0.73790306
0.0079863183 0.08442679 0.73625916
0.0079463106 0.082868725 0.73487937
0.0079083098 0.081342638 0.73356873
0.0078753773 0.079878807 0.73243296
0.0078432104 0.078432113 0.73132354
0.0078131175 0.077015042 0.73028564
0.0077849505 0.0756253 0.72931421
0.0077574998 0.0742504 0.72836751
0.0077311988 0.072894216 0.72746038
0.0077062277 0.071557879 0.72659916
0.0076818215 0.070233792 0.72575748
0.0076578711 0.068920881 0.72493142
0.0076351683 0.067625791 0.72414839
0.0076129301 0.066341281 0.72338146
0.0075911838 0.065067321 0.72263145
0.0075695929 0.063800901 0.72188681
0.0075490358 0.062549144 0.72117782
0.0075289467 0.061307192 0.72048497
0.0075091249 0.060072988 0.71980137
0.0074894391 0.058845639 0.71912241
0.0074702073 0.05762735 0.71845913
0.0074517387 0.056420356 0.71782219
0.0074334885 0.055220187 0.71719277
0.0074153589 0.054026186 0.71656752
0.0073972852 0.052837789 0.71594417
0.0073797358 0.051658154 0.71533889
0.0071952646 0.049338967 0.70897675
0.0071777175 0.048193306 0.70837152
0.0071603442 0.047053695 0.70777237
0.0071461154 0.045939356 0.70728159
0.0071319714 0.044829547 0.70679379
0.007117854 0.043723971 0.70630687
0.0071038222 0.042622954 0.70582294
0.0070911366 0.041533858 0.70538545
0.007079355 0.040453494 0.70497912
0.0070676128 0.039376736 0.70457411
0.0070559094 0.038303554 0.70417047
0.0070442441 0.037233919 0.70376819
0.0070334934 0.036172271 0.70339739
0.0070236488 0.035118252 0.70305789
0.0070138597 0.034067363 0.70272022
0.0070040696 0.033019185 0.70238262
0.006994307 0.031973958 0.70204592
0.0069845985 0.030931801 0.70171112
0.0069765574 0.029899538 0.70143378
0.0069685066 0.028869569 0.70115614
0.0069604749 0.027841926 0.7008791
0.0069524609 0.026816666 0.70060271
0.0069444659 0.025793731 0.70032692
0.0069374512 0.024776608 0.70008504
0.0069312728 0.023764402 0.69987196
0.006925106 0.022753924 0.69965923
0.00691895 0.021745294 0.69944698
0.0069128051 0.020738453 0.69923502
0.0069067529 0.019733578 0.69902629
0.006900874 0.018730968 0.69882351
0.0068947882 0.017729461 0.69861364
0.0068880892 0.016728252 0.69838262
0.0068808636 0.015727699 0.69813335
0.0068732211 0.014728338 0.69786978
0.0068649226 0.01372987 0.69758362
0.0068565365 0.012733579 0.69729435
0.0068481714 0.011739731 0.69700587
0.0068389187 0.010746896 0.69668674
0.0068291305 0.0097559094 0.6963492
0.0068191322 0.0087674558 0.69600439
0.0068090567 0.0077817738 0.6956569
0.0067984834 0.0067985058 0.69529223
0.0067877853 0.0058181286 0.69492328
0.0067771212 0.004840821 0.69455546
0.0067664632 0.0038665831 0.69418788
0.0067558391 0.002895385 0.69382143
0.0067452746 0.0019272566 0.69345713
0.0067347172 0.00096213818 0.69309294
0.0067242184 -0 0.6927309
0.0067137266 -0.00095906854 0.69236904
0.0067034727 -0.0019152761 0.69201541
0.0066934549 -0.0028686225 0.69166988
0.0066834926 -0.0038191378 0.69132632
0.0066735339 -0.0047667921 0.69098282
0.0066636307 -0.0057116747 0.69064128
0.0066537312 -0.0066537559 0.69029987
0.0066438862 -0.0075930059 0.68996036
0.0066340459 -0.0085294545 0.68962091
0.0066242591 -0.009463191 0.68928343
0.0066146762 -0.010394454 0.68895292
0.0066053201 -0.011323392 0.68863022
0.0065959906 -0.012249678 0.68830848
0.0065866876 -0.013173372 0.68798763
0.0065774112 -0.014094412 0.68766767
0.0065681851 -0.01501298 0.68734944
0.0065589594 -0.015928864 0.68703133
0.0065497607 -0.016842216 0.68671405
0.0065405876 -0.017753035 0.68639767
0.0065315375 -0.018661529 0.68608552
0.0065227794 -0.019568324 0.68578351
0.0065140445 -0.020472705 0.68548226
0.0065053334 -0.021374673 0.68518186
0.006496646 -0.022274226 0.68488222
0.0064879814 -0.023171365 0.68458337
0.0064793397 -0.024066091 0.68428534
0.0064707207 -0.024958491 0.68398809
0.0064621251 -0.025848448 0.68369162
0.0064535527 -0.02673614 0.68339598
0.0064452155 -0.027622342 0.68310839
0.0064370423 -0.028506875 0.68282652
0.0064288662 -0.029389083 0.68254459
0.0064207343 -0.030269146 0.68226409
0.0064126002 -0.031146884 0.68198353
0.0064045093 -0.032022536 0.68170446
0.0063964152 -0.032895833 0.68142533
0.0063883648 -0.033767045 0.68114769
0.0063803121 -0.034635961 0.68087
0.0063723028 -0.035502791 0.68059373
0.0063645444 -0.036368817 0.68032622
0.0063568973 -0.037233263 0.68006247
0.0063492693 -0.038095593 0.67979938
0.0063416585 -0.038955897 0.67953688
0.0063340664 -0.039814115 0.67927504
0.0063264924 -0.040670305 0.67901385
0.0063189366 -0.04152441 0.6787532
0.0063113985 -0.042376518 0.67849326
0.006303879 -0.0432266 0.67823392
0.0062963767 -0.044074655 0.67797518
0.0062890956 -0.044922113 0.67772406
0.0062819673 -0.045768559 0.67747819
0.0062748319 -0.046613008 0.67723209
0.0062677125 -0.047455549 0.67698658
0.0062606102 -0.048296124 0.6767416
0.0062535452 -0.04913497 0.67649794
0.0062464741 -0.049971759 0.67625409
0.0062394193 -0.050806701 0.67601079
0.0062323804 -0.051639706 0.67576796
0.0062253796 -0.052471042 0.6755265
0.0062185046 -0.053301454 0.67528945
0.0062118433 -0.054131716 0.67505968
0.0062051741 -0.054960072 0.67482972
0.0061985417 -0.055786878 0.67460096
0.0061919228 -0.056611866 0.67437267
0.0061852965 -0.057434857 0.67414409
0.006178706 -0.058256358 0.67391682
0.0061721294 -0.059076101 0.67368996
0.0061655664 -0.059894055 0.6734637
0.0061589964 -0.060710102 0.67323709
0.0061524836 -0.061524838 0.6730125
0.0061462647 -0.062340677 0.67279804
0.0061400589 -0.063154876 0.67258394
0.0061338865 -0.063967615 0.67237109
0.0061277053 -0.064778596 0.67215794
0.0061215367 -0.065587848 0.6719451
0.0061154012 -0.066395789 0.67173362
0.0061092577 -0.067201853 0.67152166
0.0061031254 -0.068006217 0.67131019
0.0060970276 -0.068809301 0.67109984
0.00609092 -0.069610462 0.6708892
0.0060850368 -0.070412546 0.67068636
0.0060792905 -0.071214527 0.67048812
0.0060735354 -0.072014749 0.6702897
0.0060678115 -0.072813734 0.67009223
0.0060620983 -0.07361117 0.66989517
0.0060563744 -0.074406832 0.66969776
0.0060506831 -0.075201318 0.66950148
0.0092263492 0.083037168 0.73925066
0.0091473265 0.081182539 0.73686594
0.0090902429 0.079539686 0.73514318
0.0090404768 0.077974141 0.73364139
0.0089971144 0.076475471 0.73233289
0.0089573311 0.075017691 0.73113227
0.0089207999 0.073596627 0.73002982
0.0088857096 0.072196454 0.72897089
0.0088529298 0.070823461 0.72798169
0.0088215582 0.06946981 0.72703499
0.0087912176 0.068131953 0.72611934
0.0087623512 0.066812962 0.72524828
0.0087345513 0.0655092 0.72440928
0.0087074181 0.06421724 0.72359049
0.0086807553 0.062935501 0.72278583
0.0086554522 0.061670125 0.72202229
0.008630855 0.060416013 0.72127998
0.0086064348 0.059169233 0.72054303
0.0085823359 0.057930768 0.71981579
0.0085595055 0.056706727 0.71912682
0.0085370885 0.05549109 0.71845031
0.0085148243 0.054282039 0.71777844
0.0084926402 0.053079039 0.71710896
0.0084713595 0.051887095 0.71646678
0.0082997847 0.049798727 0.71128905
0.0082550757 0.048498571 0.70993984
0.0082280952 0.047311544 0.7091257
0.0082012573 0.046132088 0.70831573
0.0081803743 0.044992089 0.70768547
0.0081605287 0.043862879 0.70708662
0.0081407791 0.042739123 0.70649064
0.0081224423 0.041627526 0.70593733
0.0081064207 0.040532142 0.70545375
0.0080904951 0.039441198 0.70497322
0.0080745993 0.038354367 0.70449352
0.0080587985 0.037271976 0.70401669
0.0080452906 0.036203831 0.70360899
0.0080320202 0.035140097 0.70320857
0.0080187945 0.034079909 0.70280939
0.0080056107 0.033023149 0.70241165
0.0079924716 0.031969905 0.7020151
0.0079809027 0.030926019 0.701666
0.0079698432 0.029886931 0.70133221
0.0079587819 0.028850645 0.70099843
0.0079477523 0.02781713 0.70066559
0.0079367533 0.026786566 0.7003336
0.0079262862 0.025760442 0.70001775
0.0079171937 0.024741262 0.69974333
0.0079081217 0.023724407 0.69946957
0.0078990702 0.022709876 0.69919646
0.0078900401 0.02169764 0.69892395
0.0078810295 0.020687729 0.69865203
0.0078735268 0.019683838 0.69842559
0.0078665642 0.018683136 0.69821548
0.0078596128 0.017684162 0.69800574
0.0078526745 0.016686916 0.69779634
0.0078457482 0.015691519 0.69758731
0.0078389877 0.014698148 0.69738328
0.0078323614 0.013706654 0.69718337
0.0078253495 0.012716204 0.69697171
0.0078177387 0.011726588 0.696742
0.0078095933 0.010738194 0.69649619
0.0078007658 0.0097509623 0.69622982
0.0077913823 0.00876531 0.69594669
0.0077819307 0.0077819526 0.69566149
0.007772441 0.00680089 0.69537508
0.0077620121 0.0058215559 0.69506031
0.0077508301 0.0048442781 0.69472289
0.0077395304 0.003869772 0.69438189
0.0077281739 0.0028980672 0.69403923
0.0077162562 0.0019291043 0.69367951
0.007704197 0.00096306205 0.69331563
0.0076921461 2.9802322e-08 0.69295198
0.0076801619 -0.00095999241 0.6925903
0.007668186 -0.0019170344 0.69222891
0.0076562762 -0.0028710663 0.6918695
0.0076443744 -0.0038221478 0.69151026
0.0076325387 -0.0047703087 0.69115317
0.0076207099 -0.0057154894 0.69079614
0.0076091504 -0.0066580176 0.69044733
0.0075978558 -0.0075978339 0.69010651
0.007586624 -0.0085349381 0.68976754
0.007575396 -0.0094692111 0.68942869
0.0075642299 -0.010400772 0.68909168
0.0075530689 -0.011329591 0.68875492
0.0075419685 -0.012255698 0.68841994
0.0075308722 -0.013179004 0.68808508
0.007519837 -0.014099658 0.68775207
0.0075090313 -0.015018076 0.68742597
0.0074984818 -0.015934259 0.68710756
0.0074879616 -0.016847879 0.68679011
0.0074774707 -0.017758965 0.68647355
0.0074670091 -0.018667519 0.68615782
0.0074565769 -0.01957351 0.68584305
0.007446174 -0.020476967 0.68552911
0.0074358 -0.021377891 0.68521601
0.0074254819 -0.022276402 0.68490463
0.0074152206 -0.023172557 0.68459499
0.0074053435 -0.024067372 0.68429691
0.0073954924 -0.024959773 0.68399966
0.0073856674 -0.025849819 0.68370312
0.0073758694 -0.026737511 0.68340743
0.0073660966 -0.027622849 0.6831125
0.0073563494 -0.028505832 0.68281835
0.0073466282 -0.02938652 0.68252504
0.0073369332 -0.030264854 0.68223244
0.0073272637 -0.031140834 0.68194067
0.0073178061 -0.032015413 0.68165529
0.0073085604 -0.032888502 0.68137622
0.0072993645 -0.033759564 0.6810987
0.0072901654 -0.034628272 0.68082112
0.0072810156 -0.035494953 0.68054503
0.0072718626 -0.03635928 0.68026876
0.0072627584 -0.037221611 0.67999399
0.007253651 -0.038081646 0.67971921
0.0072445925 -0.038939655 0.6794458
0.0072355308 -0.039795399 0.6791724
0.0072267 -0.040650189 0.67890584
0.0072180736 -0.041503906 0.67864555
0.0072094677 -0.042355597 0.67838579
0.0072008818 -0.043205261 0.67812675
0.0071923165 -0.044052929 0.67786825
0.0071837716 -0.04489857 0.6776104
0.0071752467 -0.045742184 0.67735314
0.0071667419 -0.046583772 0.67709649
0.0071582585 -0.047423452 0.67684042
0.0071497937 -0.048261106 0.67658502
0.007141477 -0.049097627 0.67633402
0.0071334084 -0.049933821 0.67609054
0.0071253832 -0.050768346 0.67584836
0.0071173506 -0.051600784 0.67560595
0.0071093366 -0.052431345 0.67536414
0.0071013402 -0.053260028 0.67512286
0.007093362 -0.054086864 0.67488205
0.0070854267 -0.05491206 0.67464256
0.0070774844 -0.055735171 0.67440289
0.0070695588 -0.056556463 0.67416376
0.0070616771 -0.057376117 0.67392588
0.0070541603 -0.058196783 0.67369896
0.0070466595 -0.059015781 0.6734727
0.0070391507 -0.059832752 0.67324603
0.0070316815 -0.060648263 0.67302072
0.007024229 -0.061462015 0.67279577
0.0070167668 -0.0622738 0.67257059
0.007009346 -0.063084096 0.67234665
0.0070019406 -0.063892692 0.67212319
0.0069945501 -0.06469959 0.67190015
0.0069871512 -0.065504521 0.67167687
0.0069800122 -0.066310108 0.67146146
0.0069730082 -0.067115188 0.67124999
0.0069660181 -0.067918658 0.6710391
0.0069590667 -0.068720788 0.6708293
0.0069521051 -0.069521025 0.67061919
0.0069451574 -0.070319697 0.67040956
0.0069382475 -0.071117029 0.67020106
0.0069313273 -0.071912497 0.66999221
0.0069244206 -0.072706416 0.66978383
0.0069175521 -0.073498964 0.66957653
0.0069107204 -0.074290201 0.66937035
0.0069042365 -0.075083539 0.66917467
0.010372088 0.078366935 0.739048
0.010258205 0.076366663 0.73599309
0.010185258 0.074691892 0.73403633
0.010126579 0.073136419 0.73246229
0.010076456 0.071654826 0.73111773
0.010029687 0.070207864 0.72986317
0.0099882642 0.068808049 0.72875202
0.0099486774 0.06742996 0.7276901
0.0099103618 0.066069096 0.72666234
0.0098751122 0.064736873 0.72571677
0.0098412726 0.063421547 0.72480905
0.0098077934 0.062116027 0.72391099
0.0097765774 0.060832083 0.7230736
0.0097464044 0.059561372 0.72226429
0.0097164167 0.058298528 0.72145981
0.0096873632 0.057047814 0.72068048
0.0096598491 0.055812478 0.71994251
0.0096326573 0.05458504 0.71921301
0.0096055763 0.053364336 0.71848667
0.00957934 0.052154213 0.7177828
0.0095544225 0.050956964 0.71711439
0.0095295943 0.049765676 0.71644837
0.0094846347 0.048477024 0.71524239
0.0094592525 0.047296256 0.71456152
0.0094290683 0.046097696 0.71375179
0.0092534497 0.044210941 0.70904094
0.0092132017 0.042994976 0.70796132
0.0091833286 0.041835159 0.70716
0.0091553228 0.040690333 0.70640874
0.009133189 0.039577156 0.70581496
0.0091111995 0.038469583 0.70522511
0.0090893144 0.037367165 0.70463812
0.009070348 0.036281377 0.70412934
0.0090526259 0.035204679 0.70365393
0.0090349354 0.034131974 0.70317936
0.0090173502 0.03306362 0.70270765
0.0090004448 0.032001615 0.70225418
0.0089856815 0.030950725 0.70185816
0.0089709675 0.029903233 0.70146346
0.008956301 0.028859228 0.70107007
0.008941683 0.02781859 0.70067799
0.0089272186 0.026781678 0.70028991
0.0089148832 0.025754124 0.69995904
0.0089026168 0.02472952 0.69962996
0.0088903485 0.023707628 0.69930089
0.0088781146 0.022688538 0.6989727
0.0088659143 0.021672279 0.69864541
0.0088547915 0.020661205 0.69834709
0.0088447044 0.01965493 0.69807649
0.0088346405 0.018650919 0.69780654
0.008824599 0.017649233 0.69753718
0.0088145807 0.016649753 0.69726849
0.0088046193 0.015652686 0.69700128
0.0087967422 0.014661252 0.69678998
0.0087890169 0.013671815 0.69658267
0.0087813037 0.012684137 0.69637579
0.0087735709 0.011698097 0.69616842
0.0087658856 0.010713875 0.69596225
0.0087584518 0.0097316504 0.69576287
0.0087510999 0.0087510943 0.69556564
0.0087431818 0.0077717304 0.69535321
0.0087346351 0.0067936182 0.69512397
0.0087255975 0.0058171153 0.6948815
0.0087155318 0.0048419833 0.69461155
0.0087051541 0.0038689971 0.69433308
0.0086946655 0.002898246 0.69405174
0.0086840354 0.0019297898 0.69376665
0.0086723957 0.00096359849 0.69345444
0.0086599216 2.9802322e-08 0.69311976
0.0086473487 -0.00096079707 0.69278252
0.0086347479 -0.0019187927 0.6924445
0.0086214896 -0.0028738379 0.69208884
0.0086081075 -0.0038257837 0.6917299
0.0085947337 -0.0047748387 0.69137114
0.0085814353 -0.0057209432 0.69101441
0.0085681444 -0.0066640973 0.69065785
0.0085549271 -0.0076043904 0.69030344
0.0085417181 -0.0085416734 0.68994904
0.0085285828 -0.0094761848 0.68959665
0.0085154558 -0.010407746 0.68924457
0.0085026249 -0.011336803 0.68890035
0.008490121 -0.012263507 0.68856496
0.0084776217 -0.013187379 0.68822968
0.0084651923 -0.014108628 0.68789625
0.0084527666 -0.015027106 0.68756294
0.0084404089 -0.015943021 0.68723148
0.0084280558 -0.016856074 0.68690008
0.0084157707 -0.017766595 0.68657053
0.0084034894 -0.018674433 0.68624109
0.0083914632 -0.019580066 0.68591851
0.0083797509 -0.020483851 0.68560433
0.008368073 -0.021385044 0.68529105
0.0083564576 -0.022283852 0.6849795
0.0083448431 -0.023180127 0.68466794
0.0083332621 -0.024073809 0.68435729
0.0083217118 -0.024965107 0.68404746
0.0083101951 -0.025853932 0.68373859
0.0082987091 -0.026740253 0.68343043
0.0082872855 -0.027624249 0.68312401
0.0082763191 -0.028507292 0.6828298
0.0082653817 -0.029388011 0.68253648
0.008254474 -0.030266374 0.68224382
0.0082435943 -0.031142443 0.68195194
0.0082327435 -0.032016218 0.68166089
0.0082219206 -0.032887638 0.68137062
0.0082111266 -0.033756822 0.68108106
0.0082003605 -0.034623742 0.68079221
0.0081896232 -0.035488367 0.6805042
0.0081790322 -0.036351234 0.68022013
0.0081687951 -0.037213415 0.67994559
0.0081585543 -0.038073212 0.67967081
0.0081483675 -0.038931102 0.67939758
0.008138177 -0.039786607 0.67912418
0.0081280423 -0.040640205 0.67885232
0.008117903 -0.041491449 0.67858034
0.0081078177 -0.042340785 0.67830986
0.0080977287 -0.043187857 0.67803919
0.0080876937 -0.044032991 0.67777002
0.0080777705 -0.044876486 0.67750382
0.00806819 -0.045719743 0.67724681
0.0080586318 -0.046560943 0.67699045
0.008049096 -0.047400206 0.67673463
0.0080395835 -0.048237503 0.67647946
0.0080300933 -0.049072802 0.67622489
0.0080206245 -0.049906075 0.67597091
0.008011179 -0.050737441 0.67571753
0.008001755 -0.051566869 0.67546475
0.0079923542 -0.052394301 0.67521256
0.0079830028 -0.053220004 0.67496175
0.0079740407 -0.054046243 0.67472136
0.0079650991 -0.054870695 0.67448151
0.0079562049 -0.055693418 0.67424291
0.0079473034 -0.056514114 0.67400408
0.0079384204 -0.057333022 0.67376584
0.0079295579 -0.058150053 0.67352808
0.0079207439 -0.058965534 0.67329168
0.0079119205 -0.059778929 0.67305499
0.0079031168 -0.060590535 0.67281878
0.0078943335 -0.061400324 0.67258316
0.0078858454 -0.06221053 0.67235553
0.0078775138 -0.06302011 0.67213202
0.0078691989 -0.063827962 0.67190897
0.0078608748 -0.064633846 0.6716857
0.0078525953 -0.065438271 0.67146367
0.0078443335 -0.066241026 0.671242
0.0078360615 -0.067041874 0.67102003
0.0078278342 -0.067841202 0.67079937
0.0078196246 -0.068638921 0.67057914
0.0078114318 -0.069434941 0.67035937
0.0078033102 -0.070229769 0.67014158
0.007795529 -0.071025908 0.66993284
0.0077877641 -0.071820468 0.66972452
0.0077800411 -0.072613716 0.6695174
0.0077723064 -0.073405102 0.66930985
0.0077645876 -0.074194938 0.66910279
0.0077569108 -0.074983448 0.66889685
0.01136585 0.071604878 0.7352168
0.011274369 0.069901139 0.73300827
0.011205842 0.06835565 0.73135388
0.011146579 0.066879511 0.72992307
0.011093839 0.065453678 0.72864991
0.011045642 0.064064771 0.72748631
0.011001538 0.062708825 0.72642148
0.010959225 0.061371684 0.72539997
0.010918617 0.060052425 0.72441965
0.010881007 0.058757484 0.7235117
0.010844124 0.057473838 0.7226212
0.010808332 0.056203336 0.72175711
0.010774909 0.054952055 0.72095025
0.010741922 0.053709626 0.72015381
0.010709138 0.052474797 0.71936238
0.010678375 0.05125621 0.7186197
0.010648423 0.050047606 0.71789658
0.010617422 0.048840135 0.71714813
0.01056822 0.047557026 0.71596032
0.010540214 0.046376944 0.71528417
0.010512313 0.045203 0.71461058
0.010484601 0.044035316 0.71394157
0.010457124 0.042874187 0.71327823
0.010428008 0.041712046 0.71257526
0.010249934 0.039974749 0.70827621
0.010190149 0.038722605 0.70683283
0.010156227 0.037578076 0.70601392
0.010123555 0.036444843 0.70522511
0.010095897 0.03533566 0.70455742
0.010071673 0.034243703 0.70397258
0.010047605 0.03315714 0.70339155
0.010023895 0.032076448 0.70281911
0.010004412 0.031013697 0.70234877
0.0099849673 0.02995491 0.70187932
0.0099656377 0.028900355 0.70141268
0.0099463426 0.027849793 0.70094687
0.0099287769 0.026807725 0.70052272
0.0099126082 0.02577281 0.70013243
0.0098964917 0.024741262 0.69974333
0.0098804282 0.023713022 0.69935554
0.009864416 0.02268815 0.69896901
0.0098492317 0.021668345 0.69860238
0.0098357564 0.020655066 0.69827712
0.0098222792 0.019644588 0.69795173
0.0098088393 0.018636823 0.69762719
0.0097954357 0.017631799 0.69730365
0.0097820694 0.016629547 0.69698089
0.0097704176 0.015632689 0.69669962
0.0097593637 0.01463908 0.69643283
0.0097483359 0.013647676 0.69616657
0.0097373333 0.012658596 0.69590092
0.0097263921 0.011671692 0.69563675
0.0097157778 0.010687381 0.69538057
0.0097072963 0.0097073317 0.69517577
0.0096988287 0.0087289512 0.69497132
0.009690376 0.0077522993 0.6947673
0.0096819382 0.0067773759 0.69456357
0.0096735153 0.0058041215 0.6943602
0.0096654054 0.0048327148 0.6941644
0.0096571594 0.0038628876 0.69396532
0.0096484823 0.0028945506 0.69375587
0.0096390024 0.0019278526 0.69352698
0.0096291341 0.00096294284 0.6932888
0.0096178437 2.9802322e-08 0.69301623
0.0096064685 -0.00096064806 0.69274157
0.0095949732 -0.0019189715 0.69246411
0.0095832124 -0.0028749406 0.6921801
0.009570309 -0.0038281083 0.6918686
0.009556599 -0.004778266 0.69153762
0.00954282 -0.005725652 0.69120497
0.0095289713 -0.0066702366 0.69087064
0.0095144399 -0.0076115429 0.69051981
0.0094997715 -0.0085497797 0.6901657
0.0094851125 -0.0094850957 0.68981183
0.0094705354 -0.010417551 0.68945986
0.0094559668 -0.011347145 0.68910813
0.0094414782 -0.012273878 0.68875837
0.009426998 -0.01319775 0.68840879
0.0094125988 -0.01411888 0.68806118
0.0093982071 -0.01503709 0.68771368
0.0093841422 -0.015953034 0.68737406
0.0093704341 -0.016866803 0.68704319
0.0093567306 -0.017777771 0.68671238
0.0093431035 -0.018686175 0.68638337
0.0093294801 -0.019591898 0.68605447
0.0093159312 -0.020495027 0.68572742
0.009302387 -0.021395475 0.68540037
0.0092889173 -0.022293389 0.68507516
0.0092754522 -0.023188621 0.68475014
0.0092622647 -0.024081886 0.68443179
0.0092494236 -0.024973422 0.68412173
0.0092366179 -0.025862485 0.68381256
0.0092238476 -0.026749134 0.68350428
0.0092111127 -0.027633339 0.68319678
0.0091984123 -0.028515071 0.68289024
0.0091857808 -0.029394478 0.6825853
0.0091731502 -0.030271381 0.6822803
0.009160555 -0.031145871 0.68197626
0.0091479942 -0.032017946 0.68167305
0.0091359345 -0.032889336 0.68138182
0.0091239391 -0.033758521 0.68109226
0.0091119763 -0.0346255 0.68080348
0.0091000441 -0.035490185 0.68051547
0.0090881437 -0.036352575 0.68022811
0.0090762749 -0.0372127 0.67994153
0.009064436 -0.038070649 0.67965573
0.0090526277 -0.038926303 0.67937064
0.0090408511 -0.039779723 0.67908633
0.0090291696 -0.040631264 0.6788044
0.0090179089 -0.041482359 0.67853248
0.0090067079 -0.042331517 0.67826211
0.0089955032 -0.04317838 0.67799157
0.008984358 -0.044023335 0.67772245
0.0089732083 -0.044865996 0.67745328
0.0089621181 -0.045706809 0.67718565
0.0089510242 -0.046545327 0.67691773
0.0089399889 -0.047381908 0.67665136
0.008928949 -0.048216283 0.67638481
0.0089179687 -0.049048811 0.67611969
0.0089074578 -0.049881756 0.67586601
0.0088969739 -0.050712734 0.67561287
0.0088865133 -0.051541746 0.67536032
0.0088760769 -0.05236885 0.67510831
0.0088656656 -0.053193986 0.67485696
0.0088552786 -0.054017156 0.6746062
0.0088449158 -0.054838479 0.6743561
0.0088345772 -0.055657804 0.67410642
0.0088242628 -0.056475282 0.67385745
0.0088139726 -0.057290822 0.67360902
0.0088040465 -0.058106691 0.67336941
0.0087942369 -0.058921367 0.67313254
0.0087844478 -0.059734225 0.67289627
0.0087746819 -0.060545266 0.67266041
0.0087649664 -0.061354786 0.67242599
0.0087552434 -0.06216222 0.67219114
0.0087455409 -0.062967867 0.67195696
0.0087358607 -0.063771784 0.67172325
0.0087262318 -0.064574093 0.67149079
0.0087165944 -0.065374434 0.67125815
0.0087070987 -0.066173941 0.67102885
0.0086979559 -0.066974252 0.67080814
0.0086888336 -0.067772895 0.6705879
0.0086797299 -0.068569869 0.67036813
0.008670615 -0.069364935 0.67014807
0.0086615495 -0.070158541 0.66992927
0.0086525027 -0.070950493 0.66971081
0.0086434446 -0.071740583 0.66949219
0.0086344359 -0.072529241 0.66927463
0.008625445 -0.073316261 0.66905755
0.0086164745 -0.074101657 0.66884094
0.0086078169 -0.074888006 0.66863203
0.012488307 0.066982776 0.73490673
0.012362029 0.065181613 0.7321353
0.012277319 0.063618839 0.73027611
0.012208582 0.062152803 0.72876751
0.012148919 0.060744613 0.72745806
0.012094246 0.059371769 0.72625816
0.012044437 0.058032304 0.72516495
0.01199833 0.056719393 0.72415304
0.011952575 0.055416524 0.72314882
0.011910571 0.054138958 0.72222692
0.011870395 0.052877218 0.72134519
0.011830489 0.051624 0.72046936
0.011793176 0.050389022 0.71965039
0.011757202 0.04916653 0.71886086
0.011693257 0.047836065 0.71745741
0.011657939 0.046631783 0.71668226
0.011626958 0.045450836 0.71600235
0.011596093 0.044275969 0.71532494
0.011565439 0.043107569 0.71465218
0.011534946 0.041945279 0.71398294
0.011504567 0.040788949 0.7133162
0.011474395 0.039638847 0.71265399
0.011444428 0.038494915 0.71199632
0.011414666 0.037357092 0.71134305
0.011380347 0.036210239 0.71058989
0.011174935 0.034540713 0.70608163
0.011120115 0.033360362 0.70487851
0.011084507 0.032245874 0.70409703
0.011049127 0.03113845 0.70332044
0.011022397 0.030061126 0.70273376
0.010996147 0.028989881 0.70215774
0.010970067 0.027923822 0.70158529
0.01094598 0.026867449 0.70105666
0.010924863 0.025822431 0.70059323
0.010903782 0.024781346 0.70013046
0.010882827 0.023744345 0.69967055
0.010861951 0.022711366 0.69921243
0.010843889 0.021687806 0.698816
0.010826355 0.020668507 0.69843119
0.010808879 0.019652516 0.69804764
0.010791458 0.018639833 0.69766527
0.010774051 0.017630309 0.69728327
0.01075834 0.016626567 0.69693851
0.010743725 0.015627295 0.69661766
0.010729106 0.014630616 0.69629681
0.010714527 0.013636678 0.69597685
0.010699988 0.012645423 0.69565779
0.010685489 0.01165688 0.69533956
0.010673429 0.010673434 0.69507486
0.010661437 0.0096922219 0.6948117
0.010649472 0.0087132156 0.69454908
0.010637576 0.0077364147 0.69428802
0.010625665 0.0067617893 0.69402659
0.010614722 0.0057898462 0.69378644
0.010605518 0.0048207343 0.69358444
0.010596289 0.0038532317 0.69338185
0.010587117 0.0028874576 0.6931805
0.010577961 0.0019232929 0.69297957
0.010568861 0.00096079707 0.6927799
0.010560101 2.9802322e-08 0.69258761
0.010550992 -0.00095915794 0.6923877
0.010541574 -0.0019166172 0.69218099
0.010531167 -0.0028721094 0.69195253
0.010520297 -0.0038255453 0.69171399
0.010507924 -0.0047763288 0.69144249
0.010495541 -0.0057248771 0.69117069
0.010483107 -0.0066710711 0.69089782
0.010470184 -0.0076146424 0.69061422
0.010456022 -0.0085549057 0.69030339
0.010441146 -0.0094919205 0.68997681
0.010426193 -0.010426223 0.68964875
0.010411165 -0.011357605 0.6893189
0.010395356 -0.012285411 0.68897188
0.010379437 -0.013210177 0.68862253
0.010363529 -0.014132053 0.68827337
0.010347707 -0.015051186 0.68792617
0.010331896 -0.015967458 0.68757904
0.010316172 -0.016880989 0.68723398
0.010300456 -0.017791688 0.68688911
0.010284826 -0.018699646 0.68654609
0.010269206 -0.019604832 0.68620324
0.010253978 -0.020507932 0.68586898
0.01023906 -0.021408916 0.68554157
0.010224224 -0.022307396 0.68521601
0.010209394 -0.023203194 0.68489051
0.010194643 -0.02409637 0.6845668
0.010179899 -0.024987012 0.68424314
0.010165234 -0.025875121 0.68392128
0.010150573 -0.026760608 0.68359959
0.010135992 -0.027643591 0.68327957
0.010121603 -0.028524488 0.68296367
0.010107662 -0.029404104 0.68265778
0.010093797 -0.030281365 0.6823535
0.010079932 -0.031156123 0.68204916
0.010066106 -0.032028496 0.68174577
0.010052318 -0.032898486 0.68144315
0.010038567 -0.033766091 0.68114132
0.010024854 -0.034631282 0.68084037
0.010011178 -0.035494149 0.6805402
0.0099975755 -0.03635481 0.68024164
0.0099844085 -0.037214577 0.67995268
0.0099713849 -0.038072556 0.67966682
0.0099583957 -0.038928241 0.67938173
0.0099454392 -0.039781719 0.67909741
0.0099325171 -0.040632993 0.67881382
0.0099196285 -0.041482091 0.67853093
0.0099067725 -0.042328894 0.67824876
0.009893951 -0.043173581 0.67796743
0.0098811612 -0.044016063 0.67768669
0.0098684048 -0.044856369 0.67740673
0.0098561766 -0.045696825 0.67713833
0.0098439781 -0.046535164 0.67687058
0.0098318448 -0.047371596 0.67660433
0.009819706 -0.048205793 0.67633796
0.0098076323 -0.049038112 0.6760729
0.009795554 -0.049868286 0.67580783
0.0097835399 -0.050696522 0.67554414
0.0097715203 -0.051522523 0.67528033
0.009759564 -0.052346736 0.67501795
0.009747603 -0.053168744 0.67475545
0.0097360853 -0.05399099 0.67450261
0.0097246971 -0.054811895 0.67425269
0.0097133359 -0.055630893 0.67400336
0.0097020008 -0.056447983 0.67375457
0.0096906926 -0.057263166 0.67350638
0.0096794106 -0.058076471 0.67325878
0.0096681546 -0.058887839 0.67301178
0.0096569248 -0.05969733 0.67276525
0.0096457219 -0.060504973 0.67251939
0.0096345441 -0.061310738 0.67227405
0.0096236272 -0.062116116 0.67203444
0.009612971 -0.062921226 0.67180061
0.0096023381 -0.063724607 0.6715672
0.0095917294 -0.064526141 0.67133439
0.0095811766 -0.065326184 0.67110276
0.0095706135 -0.066124231 0.67087096
0.0095600747 -0.066920489 0.67063963
0.0095495582 -0.067715019 0.67040884
0.009539065 -0.06850782 0.67017853
0.0095286276 -0.069299102 0.66994947
0.00951818 -0.070088431 0.66972017
0.0095081832 -0.070879146 0.66950077
0.0094982721 -0.071668744 0.66928321
0.0094883824 -0.072456732 0.66906619
0.0094785132 -0.073243037 0.66884959
0.0094686318 -0.074027494 0.66863275
0.0094588026 -0.074810535 0.66841698
0.013446589 0.060509652 0.73134536
0.013344442 0.058937997 0.72929037
0.013264844 0.057481021 0.72768897
0.013196159 0.056083709 0.72630715
0.01313473 0.054728091 0.72507125
0.013078425 0.053403586 0.72393847
0.013027688 0.052110761 0.7229178
0.01297824 0.050831467 0.72192293
0.012930114 0.049565464 0.72095466
0.012884221 0.048315853 0.72003144
0.012809512 0.046968251 0.71852839
0.012770443 0.045760781 0.71774238
0.012731613 0.044560671 0.71696115
0.012693017 0.043367863 0.71618474
0.012654603 0.042182028 0.71541178
0.012618857 0.041011333 0.71469271
0.012585582 0.039854378 0.71402329
0.012552484 0.038703531 0.71335733
0.012519506 0.037558556 0.71269387
0.012486752 0.036419719 0.712035
0.01245417 0.035286874 0.71137941
0.012421706 0.03415969 0.71072632
0.012389665 0.033039123 0.71008176
0.012356113 0.031919986 0.70940667
0.012316724 0.030791849 0.70861423
0.012083721 0.029202342 0.70392656
0.012036679 0.028085619 0.70298016
0.011998386 0.026996374 0.70220983
0.011963435 0.025920779 0.70150661
0.011935136 0.024864852 0.70093733
0.011906971 0.023813963 0.70037067
0.011878938 0.022767991 0.69980669
0.011854781 0.02173382 0.69932067
0.011832028 0.020706058 0.69886291
0.011809408 0.019682348 0.69840783
0.011786829 0.018662512 0.69795358
0.011764979 0.017647475 0.69751406
0.01174606 0.016640276 0.69713342
0.011727203 0.015636295 0.69675398
0.011708405 0.014635533 0.69637579
0.011689669 0.01363793 0.69599891
0.011670945 0.012643576 0.69562215
0.011654859 0.011654884 0.69529861
0.011639091 0.010669172 0.69498134
0.011623364 0.0096861422 0.6946649
0.01160768 0.0087057948 0.69434941
0.011592037 0.0077280998 0.69403464
0.011577062 0.0067533255 0.69373339
0.01156413 0.0057820976 0.69347322
0.011551226 0.0048130155 0.69321358
0.011538351 0.0038461387 0.6929546
0.011525505 0.0028814077 0.69269621
0.011512688 0.0019187927 0.6924383
0.011501485 0.00095847249 0.69221288
0.011491579 5.9604645e-08 0.69201362
0.011481691 -0.00095677376 0.69181472
0.011471819 -0.0019119382 0.69161606
0.011461965 -0.0028654635 0.69141781
0.011452214 -0.0038173795 0.69122171
0.011442785 -0.0047677755 0.69103193
0.011432806 -0.0057163537 0.69083124
0.011422671 -0.006663233 0.69062734
0.011411339 -0.0076075792 0.69039929
0.011399293 -0.0085494518 0.690157
0.011385977 -0.0094883144 0.68988907
0.011372693 -0.010424912 0.68962181
0.011359267 -0.011359245 0.68935174
0.011345273 -0.012290686 0.68907022
0.011329859 -0.013218164 0.6887601
0.011313804 -0.014142245 0.6884371
