# .PCD v0.7 - Point Cloud Data file format
VERSION 0.7
FIELDS x y z
SIZE 4 4 4
TYPE F F F
COUNT 1 1 1
WIDTH 681
HEIGHT 1
VIEWPOINT 0 0 0 1 0 0 0
POINTS 681
DATA ascii
0.011340974 -0.042404138 0.63937998
0.012567715 -0.042507827 0.6392982
0.013325623 -0.042567313 0.63954812
0.0089357989 -0.042445034 0.64059532
0.0074674594 -0.045551479 0.6411013
0.015733274 -0.043453783 0.64169466
0.0045196381 -0.047456175 0.64267713
0.0064058094 -0.043713093 0.64277399
0.015064599 -0.041427642 0.6426667
0.008285529 -0.040674388 0.6426667
0 -0.049307585 0.64395803
0.010594661 -0.046919197 0.64351928
0.01515788 -0.046989381 0.64379269
0.0022679316 -0.044602633 0.64332998
0.0022679316 -0.044602633 0.64332998
0.012120944 -0.037877917 0.64371186
-0.00076067081 -0.044879556 0.64446306
0.019039925 -0.044934213 0.6446867
0.013700615 -0.038057268 0.64457762
0.014473296 -0.038849354 0.64472419
-0.0084185461 -0.052041918 0.64558607
-0.0053402833 -0.048062533 0.6450007
0.0034380234 -0.042022526 0.64527804
0.0045855627 -0.041651592 0.64532971
-0.0076880548 -0.049203515 0.64642692
0.012296203 -0.035351574 0.64635628
-0.010438207 -0.054124907 0.6474911
-0.010822843 -0.05334115 0.64745414
0.0065729422 -0.037507609 0.64752257
0.0077252318 -0.035536051 0.64732444
-0.0093046986 -0.049625039 0.64801693
0.020975487 -0.042727828 0.64837384
0.021816716 -0.042854249 0.64892882
0.0023316017 -0.038860023 0.64845371
0.0062280907 -0.03659004 0.64877021
0.0077897194 -0.033495784 0.64888144
0 -0.039014071 0.64919752
0.0070375027 -0.033623606 0.64959908
0.011719135 -0.032032251 0.64943755
-0.0078529548 -0.044368595 0.65040803
0.018089553 -0.038538575 0.65069938
0.011849763 -0.030019403 0.65153992
-0.0063581197 -0.039738238 0.65269417
-0.015580494 -0.060724691 0.65371877
0.0287489 -0.054303467 0.6536153
0.030402251 -0.05440402 0.65397233
0.029493252 -0.051413372 0.65326148
-0.00079620676 -0.035033077 0.6530422
0.0035940183 -0.03274712 0.65364671
0.010371052 -0.02752246 0.65342039
-0.016865155 -0.06183888 0.65470701
0.028521506 -0.055435792 0.65478301
-0.0040130783 -0.035315096 0.65458947
0.00053520303 -0.032644134 0.65461862
0.0044141794 -0.031303331 0.65459776
0.0056060255 -0.030432701 0.6541658
0.0056060255 -0.030432701 0.6541658
-0.016137166 -0.05648005 0.65561372
-0.015310259 -0.055600375 0.65535897
0.0177243 -0.033837259 0.65532207
0.014481415 -0.031376362 0.65504998
0.0064575318 -0.026637286 0.65569419
0.026737168 -0.050638065 0.65642464
-0.0080978069 -0.037249923 0.65631926
-0.017506883 -0.055369273 0.6573993
-0.012220521 -0.042364448 0.65750718
-0.012220521 -0.042364448 0.65750718
0.0224117 -0.035451233 0.65757257
-0.0056999954 -0.033385664 0.65740669
-0.0040761349 -0.031793863 0.65763414
0.019672502 -0.031967789 0.65871096
0.0040941723 -0.027021497 0.65850502
-0.013573215 -0.065810449 0.65942156
-0.0065940125 -0.031321555 0.65981281
0.019751713 -0.031273544 0.65950775
-0.0057714917 -0.030506402 0.65987253
-0.0024706244 -0.028411493 0.65964139
-0.0024706244 -0.028411493 0.65964139
0.0032918979 -0.02633518 0.65950453
0.0074019008 -0.021383256 0.65937388
0.032280348 -0.060422152 0.6606456
-0.019855961 -0.054603845 0.66055644
-0.018204186 -0.052130133 0.66058815
-0.015676068 -0.049503356 0.66000706
0.028659908 -0.043541204 0.66041267
0.00041270367 -0.026428893 0.66021168
0.0049598077 -0.023145735 0.66038811
-0.010803101 -0.034486204 0.66144395
0.016606163 -0.027400136 0.66127503
0.016606163 -0.027400136 0.66127503
-0.00083023653 -0.025737315 0.66125768
0.01329583 -0.024098694 0.66143948
0.01329583 -0.024098694 0.66143948
0.0049990374 -0.02082932 0.66196662
0.035104323 -0.057671398 0.66260505
-0.016713776 -0.048469931 0.66257405
-0.014236192 -0.039358884 0.66299278
-0.013341696 -0.038357347 0.66213155
-0.009187636 -0.030903846 0.66246557
-0.0050130105 -0.026736051 0.66252887
0.0091704596 -0.018340915 0.66208863
0.035339866 -0.063106865 0.66395891
0.026894875 -0.041602656 0.66372705
0.012575786 -0.020959616 0.66322511
0.0058765179 -0.017629534 0.66349477
0.028656749 -0.038770884 0.66430181
0.0025304463 -0.021087021 0.66445547
-0.010187319 -0.071311191 0.66577387
-0.010172517 -0.02839759 0.66547608
-0.0067844777 -0.024593711 0.66556066
0.016117178 -0.022903353 0.66561198
-0.01106047 -0.068064421 0.66622347
-0.017881021 -0.045128256 0.66638565
0.0076653813 -0.013627291 0.66644168
-0.0068507558 -0.022264957 0.66756076
-0.0017138505 -0.018852323 0.66770095
0.0008569223 -0.017995358 0.66770029
0.027491005 -0.035222828 0.66822457
-0.0094804065 -0.023270041 0.66889113
-0.0094804065 -0.023270041 0.66889113
-0.0025793132 -0.018484324 0.66838801
-0.0069301995 -0.072767064 0.66995817
0.02938284 -0.069136113 0.66945755
-0.012106051 -0.025941521 0.66958225
0.018990582 -0.021580189 0.66921782
-0.0077795573 -0.020745456 0.66950434
0.018141206 -0.02073276 0.66937685
-0.0043219314 -0.018152088 0.66950226
-0.020866681 -0.042602807 0.67072344
0.027796255 -0.032139391 0.67052746
0.013464767 -0.016504377 0.67053235
-0.0017376521 -0.015638828 0.67057401
0.0017360303 -0.014756262 0.67037833
0.0052184295 -0.0095670819 0.67079425
-0.0060986406 -0.075797379 0.67115551
0.028855646 -0.065580994 0.67192304
0.028035911 -0.067461401 0.67233551
-0.018446304 -0.037770987 0.67288435
0.019330537 -0.01845184 0.67294836
0.015800854 -0.015800864 0.67274672
-0.0035204913 -0.077450827 0.6733014
-0.00088292459 -0.077697337 0.67397773
-0.020241329 -0.038722515 0.67328566
-0.01763105 -0.034380525 0.67364645
-0.012335259 -0.021146148 0.67353481
-0.011439465 -0.020239055 0.67326176
-0.0017622357 -0.012335628 0.67354161
-0.0017622357 -0.012335628 0.67354161
0.00044305404 -0.07791242 0.67456782
0.018557593 -0.075114056 0.6741637
0.023886003 -0.072542667 0.67439842
0.026597092 -0.064719558 0.67485774
0.02914618 -0.060942024 0.67404854
-0.006202559 -0.01329115 0.67473948
-0.005304418 -0.01326099 0.67425418
0.0053351102 -0.078248262 0.67548919
0.021363221 -0.073881119 0.67571831
0.022195863 -0.073690236 0.67516309
0.02399921 -0.071108758 0.67541063
-0.017796289 -0.031587794 0.67564112
0.0053292955 -0.0044410527 0.67525518
-0.0062521831 -0.069667161 0.67645097
-0.022353487 -0.037553847 0.67668527
-0.012514923 -0.017430767 0.676633
-0.0062667704 -0.010743022 0.67695409
0.00029800602 -0.008340627 0.67658037
0.0026823226 -0.0053646266 0.67667758
0.011664669 -0.077166244 0.67744398
0.004481846 -0.073502272 0.67722356
0.03412218 -0.043101728 0.67760575
0.03412218 -0.043101728 0.67760575
-0.017964587 -0.028743297 0.67767268
-0.0018044123 -0.072626844 0.67863274
0.021631753 -0.070303172 0.67841959
0.018902382 -0.069308698 0.67812747
-0.021674467 -0.033414781 0.67884916
0.026125567 -0.024323761 0.67831296
-0.0036108601 -0.0072217286 0.67875564
0.0018050001 -0.0045124888 0.67870367
0.010865827 -0.075155273 0.67942441
0.00045386146 -0.072592154 0.67988718
0.018156435 -0.010893852 0.67998844
0.016289309 -0.0099546015 0.67929798
-0.006332715 -0.0081420243 0.67922843
-0.0027140011 -0.0063326657 0.67922688
0.0036303911 2.9802322e-08 0.67993438
0.0045285593 2.9802322e-08 0.67947906
0.0072533619 -0 0.67971051
-0.018221032 -0.02459833 0.68076819
0.025446065 -0.022719681 0.68022174
0.025518553 -0.021873027 0.68084681
0.015511716 -0.071171403 0.68110669
-0.0027397298 -0.06940645 0.6812973
-0.0063995942 -0.065824419 0.68153501
-0.017366782 -0.020565242 0.68148994
-0.010978716 -0.0091489255 0.68169564
0.0027409503 0.0009136498 0.68139559
0.012843681 -0.071557641 0.68230224
0.0073436126 -0.067468747 0.68243408
0.0082585914 -0.067903936 0.68235427
0.022488121 -0.064253926 0.68242478
-0.016496429 -0.017412871 0.68207592
-0.013763562 -0.011928409 0.68234205
0.013749189 -0.0054996312 0.68211073
-0.0073581077 -0.0045987964 0.6828714
-0.0036920842 -0.06645751 0.68365788
0.021210469 -0.064553559 0.68345833
0.032263838 -0.035951138 0.68336892
-0.021199374 -0.02765134 0.68334186
0.025819825 -0.01844272 0.68344438
-0.0018406977 -0.0018406808 0.68301278
0.0009229398 0.00046220422 0.68363833
0.0018471872 0.0027707815 0.68379611
0.0064433897 0.0036819577 0.68304545
0.019463584 -0.064878583 0.68457925
0.019463584 -0.064878583 0.68457925
-0.014807618 -0.011105716 0.68425059
-0.010203489 -0.0046379268 0.68476093
0.012967363 -0.0027786791 0.68443507
0.0037098231 0.0055647492 0.6847285
0.0093219364 -0.068050116 0.68587238
0.0037254293 -0.064263582 0.68567044
0.020503677 -0.062442988 0.68582207
-0.01300154 -0.0074294209 0.68502444
0.015823532 -0.0037231743 0.68553495
0 0.0018627346 0.685673
0.013066633 -0.067199796 0.68614691
0.00046739777 -0.065461978 0.68659127
0.020556593 -0.061669767 0.6864028
-0.023355402 -0.026158065 0.6863606
0.023362119 -0.01775521 0.68642551
-0.0037459987 0.0018730164 0.68691194
0.0018655551 0.0055966675 0.68601334
0.010321588 -0.066621125 0.68735284
-0.022555022 -0.02349481 0.68770689
-0.022555022 -0.02349481 0.68770689
0.023471095 -0.015960306 0.68747789
-0.012189188 -0.0037505031 0.68718481
0.0075576608 -0.061405987 0.6888935
-0.016979154 -0.0094328225 0.68855035
-0.0066132527 0.0028342307 0.68890381
-0.0037743836 0.0037744045 0.6886251
0.014186791 0.00094583631 0.68915385
-0.0037887304 0.0047359169 0.68949103
0.0094734039 0.0047367215 0.68952918
0.031401832 -0.028547108 0.69055039
-0.023830418 -0.020970762 0.69094777
-0.022950567 -0.019125432 0.69168574
0.02482819 -0.010504186 0.69136149
-0.0076595577 0.0057446957 0.6919685
0.014387218 0.0038366318 0.69237971
0.031023983 -0.024237484 0.69487876
-0.02327719 -0.015518069 0.69497132
-0.016533131 0.00097256899 0.69561219
-0.012630953 0.0058296919 0.69538873
-0.0067904172 0.0097006261 0.69501406
-0.00097115542 0.012625039 0.69527858
0.0067937104 0.014557958 0.69512761
0.0048555131 0.016508758 0.69526583
-0.020537848 -0.0068459511 0.69692928
0.022462485 -0.0058597326 0.6966002
0.012676542 0.0087760985 0.69623542
-0.00097440457 0.013641685 0.69606298
0.012737158 0.0097978413 0.69736111
-0.011834826 0.010848612 0.69891924
-0.025718365 -0.012859166 0.69962716
0.022740252 -0.0019773841 0.69951576
-0.014910207 0.0099401474 0.70079702
-0.014910207 0.0099401474 0.70079702
-0.0079271654 0.014863491 0.70004427
-0.00099279091 0.019855887 0.7005018
0 0.020805925 0.70001113
-0.023059022 -0.0060153902 0.70286179
-0.021998623 -0.0039997399 0.70222718
-0.01898288 0.0049955249 0.7020247
-0.018050024 0.0080222487 0.70291317
-0.018113917 0.0090569854 0.70377016
0.021167045 0.0020159185 0.70416266
-0.013109165 0.016134351 0.70426959
0.012120898 0.017171293 0.70467448
-0.0030223539 0.02115652 0.70404112
0.01922923 0.0010121167 0.7051549
-0.019315885 0.010166258 0.70625603
0.013248596 0.018344253 0.70685893
0 0.028494477 0.7065056
-0.026721427 -0.002055496 0.70894098
0.014338628 0.018435419 0.70808166
-0.0010244939 0.029710323 0.70815563
0.022625029 0.0071989 0.7091012
-0.025875555 0.0010350347 0.71069741
0.019721556 0.0093418062 0.71141064
-0.019739492 0.016622752 0.71163851
-0.0093384963 0.026977897 0.71132225
-0.0020737336 0.032142878 0.71114266
0.020889275 0.012533575 0.71297669
0.01353193 0.022900194 0.71212065
0.003131561 0.034447193 0.71282941
-0.013631982 0.027263969 0.71397871
0.0094067715 0.027175158 0.71315372
-0.0020970346 0.035649598 0.71395534
0.0021011117 0.03676948 0.7144475
-0.023222029 0.013722122 0.71565247
0.0010533558 0.037920833 0.71512347
0.027543228 -0.0010593534 0.71657181
-0.025447685 0.0084826052 0.71680486
0.010599069 0.029677391 0.71670502
-0.0095343553 0.03284058 0.7165761
-0.021238629 0.021238655 0.71719384
-0.012749781 0.031874478 0.71732664
0.017128387 0.016057909 0.71926832
-0.02354438 0.018193424 0.71918982
-0.019293129 0.027867883 0.71958613
-0.0096558314 0.036477625 0.71983469
-0.0021397574 0.041725278 0.71911252
-0.022569085 0.02256909 0.72028089
0.010767859 0.033380389 0.72078007
-0.025941005 0.014051408 0.72176731
0.005401249 0.037808716 0.72161627
0.0010800119 0.044280499 0.72155887
-0.019521624 0.031451523 0.72265071
-0.013016955 0.037966102 0.72270179
0 0.045481473 0.72225416
-0.0097818449 0.040214241 0.72321492
-0.016364785 0.03709355 0.72420812
0.017533377 0.02410841 0.72537917
-0.021887098 0.030641943 0.7250216
0.0087746447 0.039485931 0.7256192
-0.018711008 0.037422031 0.72654068
-0.014323919 0.041869938 0.72682863
0.0066039138 0.041824818 0.72654188
-0.012160568 0.044220269 0.7277137
0.0022129095 0.048684001 0.72794271
0 0.050847948 0.72768533
-0.02325221 0.032110244 0.72813421
0.0044441177 0.045552224 0.72904718
-0.0099999309 0.046666354 0.72906494
0.025692763 0.013404936 0.73050702
-0.02240466 0.038087934 0.73126906
-0.02024105 0.042731136 0.73229986
0.0079008536 0.047405154 0.73331159
-0.011301005 0.050854564 0.73365128
-0.0067807869 0.051986039 0.73365873
-0.0067807869 0.051986039 0.73365873
0.011331512 0.045326114 0.73438781
-0.017032525 0.048826605 0.73495525
-0.026182132 0.03528899 0.7356438
0.015952701 0.035323828 0.73591542
-0.020539993 0.046785563 0.73630935
-0.003422973 0.054767579 0.7362805
-0.025231836 0.040141582 0.73770744
0 0.054937482 0.73713487
0.022964036 0.02296409 0.73802131
0.0080526387 0.051766992 0.73854643
0.016183488 0.040458739 0.73989511
-0.019631876 0.051966757 0.73961818
0.0046225511 0.055470616 0.73981655
-0.0011545657 0.05772832 0.73955774
-0.0046758568 0.061955124 0.74303383
-0.0093586668 0.062001169 0.74324369
-0.0093586668 0.062001169 0.74324369
-0.015267015 0.061068088 0.74434268
0.011803755 0.054297298 0.74578869
0.011803755 0.054297298 0.74578869
0.013014402 0.044958889 0.74645311
0.0071134996 0.06046474 0.74704605
0.0071134996 0.06046474 0.74704605
-0.019060018 0.063136309 0.74841434
0.0023868892 0.065639466 0.74894392
-0.01796741 0.065880537 0.75000191
-0.0071883746 0.069487631 0.75005877
0.014500142 0.055583894 0.75254124
-0.025481213 0.061883003 0.75375938
-0.0012105845 0.071424484 0.75308192
0.0060774786 0.068067819 0.75426757
-0.0085151717 0.07420364 0.75449872
-0.0085151717 0.07420364 0.75449872
-0.018391127 0.073564559 0.75682163
-0.0036782434 0.076017022 0.75682306
0.0098669184 0.067835063 0.75858152
0.0049263919 0.072664291 0.75815493
-0.014817177 0.077790201 0.75891948
-0.0098852906 0.07908234 0.75913596
-0.024856869 0.072084934 0.76086986
-0.021096373 0.075698763 0.76041585
-0.0099364286 0.080733508 0.76067919
-0.018657388 0.078361064 0.76110703
-0.0012447232 0.079662323 0.76132369
0 0.079890072 0.76218277
-0.030366339 0.068324298 0.76628274
0.015014174 -0.043199457 0.64084333
-0.0084217414 -0.051296055 0.64565623
-0.0028523777 -0.050209925 0.6444838
-0.0066882949 -0.049291853 0.64532018
0.012575542 -0.045730725 0.64482725
0.008364304 -0.038399205 0.64439559
0.015453562 -0.039019063 0.64736187
0 -0.040325493 0.64804077
-0.014221961 -0.057677954 0.65157008
-0.012664021 -0.05144757 0.65190619
0.0062752496 -0.034513891 0.65019333
0.0090825837 -0.029616989 0.65149653
0.00059588044 -0.034858763 0.65263742
0.0072646085 -0.029062983 0.65305221
0.010974619 -0.027734287 0.65350342
-0.011317112 -0.062244117 0.65597755
0.032485511 -0.05530576 0.65526301
-0.012084812 -0.045115136 0.65532303
-0.012084812 -0.045115136 0.65532303
-0.0072192564 -0.038502663 0.6544745
0.016717864 -0.033233136 0.65533042
-0.015107892 -0.063698016 0.65797555
-0.0087849395 -0.037085433 0.65716439
-0.017585069 -0.054391414 0.65828407
-0.018121695 -0.053128868 0.65968287
-0.014986032 -0.06826967 0.66181803
0.026937343 -0.045068078 0.66092551
-0.013228033 -0.040510833 0.66041654
-0.011065809 -0.035269916 0.6611762
-0.0099124098 -0.03469342 0.66024321
0.018800598 -0.029098071 0.66106278
0.013249323 -0.024426967 0.66073775
0.012496719 -0.021660954 0.66195256
-0.0013927927 -0.024512937 0.66257304
-0.0011198494 -0.023236901 0.66359222
0.008751885 -0.018337101 0.66204673
0.032873373 -0.064620949 0.66519594
-0.01605463 -0.042670965 0.66481721
-0.015993644 -0.043772042 0.66404235
-0.012784558 -0.072445795 0.66658527
-0.0088104848 -0.068497375 0.66667354
0.033154573 -0.062908679 0.66605735
0.014585114 -0.019732773 0.66794789
-0.0072467653 -0.073117256 0.66972268
0.012946293 -0.016972095 0.6691488
-0.0052326913 -0.075874016 0.67136818
0.028621387 -0.068951093 0.67020923
-0.010765558 -0.021529853 0.6715436
-0.0030378441 -0.016489193 0.67033952
0.002828232 -0.012946624 0.67096388
0.002828232 -0.012946624 0.67096388
0.026415803 -0.065598249 0.67339885
-0.015812822 -0.028988412 0.67290723
0.018983949 -0.018691033 0.67234606
0.020250946 -0.018929198 0.67338657
0.0035248192 -0.007930845 0.67356259
0.0048882291 -0.078207985 0.67537868
0.0090394989 -0.075276583 0.67546785
0.024801224 -0.074704595 0.67467493
-0.01424889 -0.021373302 0.67581999
-0.012745377 -0.019265085 0.6754843
-0.0031072961 -0.011095367 0.67512929
0.020971216 -0.076744877 0.67626107
0.020971216 -0.076744877 0.67626107
0.034992125 -0.044861674 0.6774323
-0.019666728 -0.03441602 0.67663759
0.025979161 -0.025979161 0.67709416
0.025979161 -0.025979161 0.67709416
0.012856452 -0.0095669134 0.67736524
-0.0027044367 -0.072118312 0.67845714
0.02104979 -0.070667818 0.67861813
0.02104979 -0.070667818 0.67861813
0.031667925 -0.038906306 0.67925847
0.031667925 -0.038906306 0.67925847
-0.019031798 -0.029907078 0.67961532
-0.018078178 -0.02688951 0.67904383
-0.017136065 -0.024351209 0.67855835
-0.014498774 -0.016763479 0.67959046
-0.0092531629 -0.01105696 0.67873108
0.013241531 -0.0084257629 0.67878246
0.019067647 -0.068098754 0.68002748
-0.0063767578 -0.066500455 0.68074739
0.016674884 -0.066699654 0.68040466
-0.010357051 -0.0088332891 0.68143797
0 -0.0045417249 0.68011498
0.00045549887 -0.0031916797 0.68103099
0.010774812 -0.071244672 0.68299866
0.0027563921 -0.068449751 0.68263823
-0.016865671 -0.017171135 0.6828984
-0.014758701 -0.011991411 0.68351245
-0.0067669502 -0.0033829014 0.68359321
0.0018652701 -0.065284401 0.68597889
-0.013602136 -0.0086552901 0.68470955
0.0018593575 0.0046483874 0.68526518
0.014021462 -0.066368252 0.68649292
-0.0028034963 -0.064480394 0.68642884
0.0084266989 -0.06460467 0.68686366
0.0084266989 -0.06460467 0.68686366
0.033605177 -0.035472095 0.6861822
-0.0070289704 0.00046943873 0.68706369
0.0031151872 0.007165452 0.68644089
0.0051394836 0.007475391 0.68641078
0.0070236432 0.0070238858 0.68691236
0.0085036401 -0.063775405 0.68892765
-0.023297234 -0.022981625 0.68883455
0.02315544 -0.014649324 0.68900371
-0.017971069 -0.010876447 0.68916821
-0.015057155 -0.0065875053 0.68801588
0.012911223 0.0015752017 0.6888957
-0.011107101 0.0015871327 0.69065654
-0.0053943559 0.0053950651 0.69064301
0.021206874 -0.011084646 0.69353878
0.0077028032 0.011554211 0.69327354
0.00096018973 0.012979805 0.69294363
0.011613067 0.0077420771 0.69445777
0.0048555131 0.016508758 0.69526583
-0.021500302 -0.011237994 0.69675875
-0.0186616 -0 0.69794244
-0.013656185 0.0058526993 0.69631338
0.0088356463 0.012762606 0.69783354
-0.020665407 -0.0049203038 0.69839567
-0.0069233812 0.014835864 0.69959974
-0.0069233812 0.014835864 0.69959974
0.019889608 -0.003479898 0.70090973
0.019889608 -0.003479898 0.70090973
-0.017892303 0.005467996 0.7007978
-0.011610641 0.013601234 0.70107746
-0.026116878 -0.0085373521 0.70332754
-0.0025085425 0.020569161 0.70305789
-0.024613515 -0.0047197938 0.70502055
0.016126493 0.01310277 0.70415092
-0.014171313 0.016195804 0.70519644
0.012181538 0.01827231 0.70589459
0.012181538 0.01827231 0.70589459
0.0070827049 0.021248132 0.70509464
-0.021345841 0.0050823689 0.70621812
-0.0091508208 0.021351933 0.70628798
-0.0091508208 0.021351933 0.70628798
-0.025230817 2.9802322e-08 0.70943725
0.010814351 0.022656664 0.70944798
-0.0046195611 0.025662452 0.70863926
0.019364722 0.0086453557 0.71127594
0.019364722 0.0086453557 0.71127594
-0.021743942 0.010872886 0.71079481
-0.010398621 0.027036428 0.71186578
-0.026804758 0.0027852952 0.71294284
-0.019336548 0.019335166 0.71314996
-0.010812591 0.028601509 0.71343732
-0.0027849458 0.033058506 0.7128529
-0.019958299 0.019958347 0.71441871
-0.019109804 0.024949938 0.71712732
-0.018053908 0.026549906 0.7172091
-0.0026534391 0.03873837 0.71704811
-0.02354438 0.018193424 0.71918982
0.009266315 0.032788448 0.7189393
0.0042764791 0.0374192 0.71892929
0.00053457357 0.041667208 0.71875304
0.018285874 0.018824413 0.72050333
-0.013438147 0.034940317 0.72036737
0.0021580304 0.043160617 0.72131824
0.0021580304 0.043160617 0.72131824
0.019196218 0.023181301 0.72315073
-0.020650292 0.030432045 0.72321147
-0.020812316 0.032861561 0.72527027
-0.016431998 0.038341343 0.72528994
0.0071291439 0.040576458 0.72557807
-0.010984149 0.042838156 0.72600174
0.0049549704 0.04293412 0.72659546
0.0066384347 0.043149859 0.7279309
-0.012160568 0.044220269 0.7277137
0.011135167 0.041200131 0.72964764
0.017178729 0.030997753 0.73130584
0.0089686103 0.044843048 0.73147267
-0.029123744 0.026854914 0.73475802
-0.024960415 0.037440687 0.73472899
0.017086888 0.036452025 0.73583025
0.017086888 0.036452025 0.73583025
-0.017032525 0.048826605 0.73495525
-0.012511926 0.052322596 0.73542511
-0.0090768095 0.052760258 0.73473787
-0.0073827868 0.053382069 0.73502433
0.02513206 0.019420266 0.73661256
0.02513206 0.019420266 0.73661256
0.016408352 0.037397444 0.73720157
0.022964036 0.02296409 0.73802131
-0.02319902 0.048717946 0.74085784
0.0116113 0.049928635 0.74114245
-0.0069774017 0.060470819 0.74156988
-0.0069774017 0.060470819 0.74156988
0.012873404 0.049153 0.74335861
-0.023344155 0.050774768 0.74260974
-0.012950717 0.062988967 0.74505544
0.014265126 0.05230549 0.74781305
0.014265126 0.05230549 0.74781305
-0.0071164668 0.066420406 0.74716544
-0.0071164668 0.066420406 0.74716544
0.02379941 0.030939221 0.74810517
-0.02327374 0.059077561 0.74895656
-0.019146536 0.064619601 0.7497198
-0.020426437 0.064884007 0.75090194
-0.0030022743 0.069662318 0.75078583
-0.010850422 0.071130574 0.7518791
-0.0090788193 0.07262966 0.75305992
-0.030424193 0.046854183 0.75462288
0.010970803 0.063386887 0.75510824
0.010970803 0.063386887 0.75510824
-0.0048722564 0.074301928 0.75488758
0.009179974 0.066704527 0.75630695
0.0012237303 0.073423803 0.75625551
0.0012237303 0.073423803 0.75625551
-0.017196825 0.074929059 0.75736952
-0.028647875 0.066014707 0.76152569
-0.0093151424 0.080731109 0.76067024
-0.003739323 0.081018656 0.76173836
-0.027617224 0.071553707 0.76388401
-0.0050052898 0.082587332 0.76291692
-0.023280319 0.078649357 0.76462328
0.0031536852 0.080695003 0.76521921
0.010163492 0.074955761 0.76753139
0.010163492 0.074955761 0.76753139
0.0014485116 -0.048508845 0.64332956
0.014348304 -0.042233463 0.64152545
0.014348304 -0.042233463 0.64152545
0.022905629 -0.044451579 0.64827281
-0.0058834217 -0.042223357 0.65029955
0.01016783 -0.032692444 0.64875013
0.03050413 -0.049206145 0.65718669
0.018724171 -0.033254981 0.65664321
-0.0090971105 -0.030490335 0.66274226
0.017485661 -0.026677024 0.66262871
-0.012877265 -0.069664687 0.66467488
-0.020495327 -0.046966773 0.66698802
0.028898237 -0.038186654 0.66626012
-0.0021397555 -0.01946298 0.66736311
0.0051231636 -0.017055038 0.66510487
0.025595384 -0.067311235 0.67118537
-0.015450396 -0.033341821 0.66932666
0.028965449 -0.034757853 0.67059654
-0.01015867 -0.024445929 0.66862881
-0.0017441291 -0.014822399 0.67133796
-0.0056301644 -0.077076413 0.67267507
-0.0088314246 -0.068662532 0.67403036
0.014043869 -0.013700113 0.67380571
-0.002118422 -0.07340429 0.67753518
0.018010702 -0.070095651 0.67782068
0.023352211 -0.061669692 0.67765635
0.034992125 -0.044861674 0.6774323
-0.0071305363 -0.012478411 0.67600387
-0.0071305363 -0.012478411 0.67600387
0.012690303 -0.0072515607 0.67965734
0.014089014 -0.072770745 0.68075037
0.034103252 -0.040923715 0.6803757
-0.021375068 -0.027524605 0.68355942
0.015470075 -0.0081900358 0.68051541
0.0023957849 0.0016353955 0.6824798
0.0050770063 0.0046154261 0.68367314
-0.0023442737 -0.065623336 0.68551201
0.013724392 -0.066463143 0.68634337
0.021991082 -0.059424333 0.68674904
0.021991082 -0.059424333 0.68674904
-0.01865273 -0.017905354 0.6859479
-0.01865273 -0.017905354 0.6859479
-0.017587386 -0.014255131 0.68624228
0.013356324 -0.064349107 0.68844426
0.0066340878 -0.060620718 0.68950713
0.024760893 -0.010950595 0.69073653
0.024161296 -0.007247299 0.69414306
0.0094394851 0.009439392 0.69449019
-0.02296913 -0.013193794 0.69678235
-0.0062902886 0.013840364 0.6984973
-0.0023566203 0.014526816 0.69771951
-0.020106453 0.0045247972 0.70352721
0.0067593246 0.02246983 0.70553774
-0.0046005528 0.024534732 0.70762098
-0.0030847276 0.027249336 0.70906055
-0.01702271 0.025097724 0.71502352
0.0065123243 0.030114152 0.71404922
0.007418971 0.031795561 0.71669209
-0.028796963 0.010801837 0.72152662
-0.013569335 0.037777275 0.72288364
0.00081337208 0.045268495 0.72257578
0.010246805 0.038516477 0.72585547
0.0073225405 0.047307372 0.73274964
-0.022214822 0.046002652 0.73760188
0.014481194 0.039100483 0.74051285
-0.021660861 0.058111023 0.74654788
-0.013937516 0.064943135 0.74718809
-0.030103341 0.041543394 0.75152445
-0.0011911262 0.066703111 0.74838424
-0.0012239817 0.074662894 0.75631618
-0.0012239817 0.074662894 0.75631618
-0.017512051 0.076840714 0.75922728
