# .PCD v0.7 - Point Cloud Data file format
VERSION 0.7
FIELDS x y z
SIZE 4 4 4
TYPE F F F
COUNT 1 1 1
WIDTH 1311
HEIGHT 1
VIEWPOINT 0 0 0 1 0 0 0
POINTS 1311
DATA ascii
-0.016981907 -0.044341624 0.68858725
-0.016966999 -0.04524532 0.68838739
-0.016952308 -0.046147913 0.68819034
-0.01693847 -0.047051311 0.68800467
-0.016924657 -0.047953188 0.68781942
-0.016910801 -0.048853427 0.68763357
-0.016897032 -0.049752355 0.68744892
-0.016883286 -0.050649852 0.68726456
-0.016869562 -0.051545858 0.6870805
-0.016855858 -0.052440435 0.68689668
-0.016842179 -0.053333551 0.68671322
-0.01682852 -0.054225206 0.68652999
-0.016814886 -0.055115432 0.68634719
-0.016801208 -0.056004018 0.68616372
-0.01678768 -0.056891561 0.68598223
-0.016774487 -0.057778776 0.68580526
-0.016761374 -0.058664799 0.68562949
-0.016748222 -0.059549242 0.68545306
-0.016735274 -0.060432881 0.68527937
-0.016722472 -0.061315715 0.68510771
-0.016709752 -0.062197387 0.68493706
-0.016697176 -0.063078225 0.68476838
-0.016684677 -0.0639579 0.68460083
-0.020004926 -0.077796936 0.72913295
-0.01999196 -0.078857154 0.72895908
-0.019978922 -0.079915673 0.7287842
-0.019962713 -0.080959886 0.72856683
-0.019946089 -0.082000583 0.72834384
-0.019929407 -0.083039165 0.72812003
-0.019912751 -0.084076017 0.72789663
-0.019894013 -0.085102171 0.7276454
-0.01987268 -0.086114943 0.72735924
-0.019851305 -0.087125152 0.72707254
-0.018150913 0.045911133 0.71858668
-0.018075928 0.044658214 0.71752179
-0.018015517 0.043449223 0.7166639
-0.017955508 0.042248309 0.71581167
-0.017905464 0.041077256 0.715101
-0.017857051 0.0399158 0.71441352
-0.017808896 0.038760543 0.71372962
-0.01725536 0.036540806 0.70586866
-0.017209206 0.035430759 0.70521325
-0.017169746 0.034339458 0.70465291
-0.017135018 0.033262104 0.70415968
-0.017109171 0.032205492 0.70379257
-0.01708333 0.03115198 0.70342565
-0.01705757 0.030101627 0.70305985
-0.017033795 0.029057682 0.70272219
-0.017014578 0.028024048 0.70244926
-0.016995473 0.026992828 0.702178
-0.016976343 0.025963843 0.70190632
-0.016957322 0.024937242 0.7016362
-0.016938278 0.023912907 0.70136571
-0.01692318 0.022896051 0.70115137
-0.016908377 0.021881431 0.70094115
-0.016893603 0.020868599 0.70073128
-0.016878787 0.019857407 0.70052087
-0.016864063 0.018848091 0.70031178
-0.016849363 0.017840534 0.70010304
-0.01683669 0.016836703 0.69992304
-0.016825302 0.015835643 0.69976127
-0.016813859 0.014835775 0.69959885
-0.016802501 0.013837397 0.6994375
-0.01679109 0.012840271 0.69927549
-0.016779762 0.011844575 0.69911456
-0.016768385 0.010850132 0.69895303
-0.016758671 0.009858042 0.69881511
-0.01674943 0.008867383 0.6986838
-0.016740201 0.0078777671 0.69855273
-0.016732035 0.0068896711 0.69843686
-0.016724009 0.0059026182 0.69832283
-0.016716054 0.0049164891 0.69820988
-0.01670929 0.0039316118 0.6981138
-0.016702596 0.0029475093 0.69801879
-0.016695712 0.0019642115 0.69792104
-0.01668844 0.0009817183 0.69781774
-0.016681176 -0 0.69771457
-0.016673263 -0.00098076463 0.69760215
-0.016665291 -0.0019606054 0.69748896
-0.016656088 -0.0029392838 0.69735831
-0.0166467 -0.0039168298 0.69722492
-0.016635893 -0.0048928857 0.69707149
-0.016624512 -0.0058674216 0.69690984
-0.016613018 -0.0068406463 0.69674665
-0.016601475 -0.0078124702 0.69658267
-0.016589301 -0.0087825358 0.69640982
-0.016575724 -0.009750396 0.696217
-0.016560944 -0.010715872 0.69600713
-0.016545802 -0.011679381 0.69579214
-0.016530626 -0.012641042 0.69557655
-0.016514705 -0.01360032 0.69535047
-0.016498178 -0.014557213 0.69511575
-0.016481619 -0.015512079 0.6948806
-0.016465094 -0.016465038 0.69464594
-0.0164486 -0.017416149 0.69441164
-0.016432142 -0.018365294 0.69417793
-0.016415777 -0.01931265 0.69394553
-0.016399384 -0.020258039 0.69371277
-0.016383085 -0.021201611 0.69348127
-0.016366882 -0.022143394 0.69325113
-0.016350711 -0.023083329 0.69302154
-0.016334509 -0.024021327 0.69279146
-0.016318401 -0.024957538 0.6925627
-0.016302327 -0.02589193 0.69233441
-0.01628622 -0.026824355 0.69210571
-0.016271267 -0.02775687 0.69189334
-0.016256528 -0.028687984 0.69168401
-0.016241815 -0.029617399 0.69147503
-0.016227126 -0.030545175 0.69126654
-0.016212529 -0.031471342 0.69105917
-0.016197894 -0.03239575 0.69085139
-0.016183287 -0.03331852 0.69064391
-0.016168706 -0.03423959 0.69043684
-0.016154151 -0.035158992 0.69023019
-0.016139867 -0.036077321 0.6900273
-0.016125608 -0.03699407 0.68982482
-0.016111376 -0.037909061 0.6896227
-0.016097229 -0.038822711 0.68942177
-0.016083045 -0.039734602 0.68922043
-0.016069008 -0.040645123 0.68902099
-0.016055845 -0.041556269 0.68883401
-0.016042704 -0.042465985 0.68864751
-0.016029581 -0.043374151 0.68846112
-0.016016424 -0.044280678 0.68827426
-0.016003344 -0.045185894 0.68808848
-0.015990287 -0.046089619 0.68790305
-0.015977254 -0.046991885 0.68771797
-0.01596424 -0.04789269 0.68753314
-0.015951246 -0.048792005 0.6873486
-0.015938275 -0.049689889 0.68716443
-0.015925324 -0.050586313 0.68698055
-0.015912691 -0.05148223 0.68680114
-0.015900139 -0.052376896 0.6866228
-0.015887607 -0.053270191 0.68644488
-0.015875094 -0.054162055 0.6862672
-0.015862837 -0.055053353 0.68609321
-0.015850658 -0.055943459 0.68592018
-0.015838558 -0.056832433 0.68574828
-0.015826594 -0.057720482 0.68557835
-0.015814707 -0.058607399 0.68540961
-0.018962193 -0.071387053 0.73010784
-0.018949859 -0.072455347 0.72993267
-0.018937118 -0.073520511 0.72975177
-0.018921195 -0.074571759 0.72952563
-0.018905299 -0.075621188 0.72929996
-0.018889429 -0.076668829 0.72907454
-0.018873671 -0.077715099 0.72885072
-0.018854594 -0.078745633 0.72857988
-0.01883422 -0.079768419 0.7282905
-0.018813975 -0.080789417 0.72800303
-0.018793773 -0.08180818 0.72771603
-0.018766737 -0.082794428 0.72733217
-0.018739451 -0.083776355 0.72694468
-0.018712325 -0.084755778 0.7265594
-0.018685935 -0.08573544 0.72618461
-0.018665515 -0.086739689 0.72589463
-0.017304694 0.052995622 0.7219286
-0.017196599 0.051589787 0.72029757
-0.017120622 0.050291836 0.71915114
-0.017054098 0.049030542 0.7181474
-0.016997181 0.047804594 0.71728849
-0.016876999 0.046411753 0.7154752
-0.016831297 0.045234144 0.71478558
-0.016314538 0.042825699 0.70698822
-0.016263431 0.041675061 0.70621717
-0.016225921 0.040564805 0.7056511
-0.016191464 0.039466739 0.70513117
-0.01616694 0.038396508 0.70476115
-0.016142426 0.037329406 0.7043913
-0.016118051 0.036265612 0.70402354
-0.016094785 0.035207361 0.70367247
-0.016076621 0.034162819 0.70339835
-0.016058434 0.033120543 0.70312393
-0.016040351 0.03208071 0.70285112
-0.016022246 0.031043112 0.70257795
-0.016004244 0.030007958 0.70230633
-0.01598954 0.02898106 0.70208442
-0.015975501 0.027957141 0.70187259
-0.015961487 0.026935041 0.70166117
-0.015947497 0.025914669 0.70145011
-0.015933532 0.024896175 0.70123935
-0.01591959 0.023879409 0.70102894
-0.015907381 0.022866875 0.70084476
-0.015896514 0.021857738 0.70068079
-0.015885727 0.020850033 0.70051801
-0.015874891 0.019843638 0.70035452
-0.015864132 0.018838704 0.70019215
-0.015853388 0.017835081 0.70003009
-0.015842596 0.016832769 0.69986725
-0.015833259 0.015833259 0.69972634
-0.015824497 0.014835477 0.69959414
-0.015815742 0.013838828 0.699462
-0.015807997 0.012844026 0.69934517
-0.015800448 0.011850357 0.69923127
-0.015792841 0.010857612 0.69911647
-0.015786428 0.0098665655 0.69901967
-0.015780017 0.0088762939 0.69892293
-0.01577355 0.0078867972 0.69882536
-0.015766654 0.0068979561 0.69872129
-0.015759764 0.0059099197 0.69861734
-0.015752321 0.0049225986 0.69850504
-0.015744824 0.0039362311 0.69839191
-0.015735911 0.0029504597 0.69825751
-0.015727008 0.0019659102 0.6981231
-0.015716821 0.00098234415 0.69796932
-0.015706029 -0 0.6978066
-0.015695129 -0.00098091364 0.69764215
-0.01568412 -0.001960516 0.69747597
-0.015672453 -0.0029385686 0.69729996
-0.015659576 -0.0039148927 0.69710565
-0.015645621 -0.0048891902 0.69689506
-0.015631262 -0.0058616996 0.69667846
-0.015616871 -0.0068323314 0.69646126
-0.015601594 -0.0078007877 0.69623077
-0.01558586 -0.0087670088 0.69599342
-0.015570219 -0.0097313523 0.69575739
-0.015554548 -0.010693729 0.69552088
-0.015538909 -0.011654198 0.69528496
-0.015523301 -0.012612671 0.69504941
-0.015507726 -0.013569236 0.69481438
-0.01549224 -0.014523923 0.69458073
-0.015476845 -0.015476823 0.69434845
-0.015461482 -0.016427785 0.69411665
-0.015446149 -0.0173769 0.69388527
-0.015430787 -0.018324047 0.69365352
-0.015415514 -0.019269377 0.69342303
-0.015400273 -0.020212799 0.69319302
-0.015385001 -0.021154344 0.69296265
-0.015370822 -0.022095561 0.69274867
-0.015356846 -0.023035258 0.69253784
-0.015342955 -0.023973346 0.69232821
-0.01532903 -0.024909645 0.69211805
-0.015315129 -0.025844276 0.69190836
-0.015301255 -0.026777178 0.69169903
-0.015287405 -0.027708441 0.69149005
-0.015273639 -0.028638035 0.69128227
-0.015259955 -0.029566169 0.69107592
-0.015246413 -0.030492783 0.69087154
-0.015232952 -0.031417936 0.6906684
-0.015219458 -0.032341331 0.69046479
-0.015205987 -0.033263087 0.69026148
-0.015192539 -0.034183174 0.69005865
-0.015179232 -0.03510195 0.68985784
-0.01516675 -0.036020994 0.68966943
-0.015154291 -0.036938578 0.6894815
-0.015141851 -0.037854612 0.68929386
-0.015129432 -0.038769156 0.6891064
-0.015117034 -0.039682209 0.68891931
-0.015104597 -0.040593594 0.68873167
-0.01509224 -0.041503668 0.68854523
-0.015079902 -0.042412192 0.68835902
-0.015067585 -0.043319315 0.68817317
-0.015055287 -0.044224888 0.68798769
-0.015043235 -0.045129716 0.68780577
-0.015031315 -0.046033382 0.68762594
-0.015019415 -0.046935648 0.68744642
-0.015007534 -0.047836512 0.68726707
-0.014995671 -0.048735887 0.68708807
-0.014983995 -0.049634486 0.68691194
-0.014972449 -0.050532013 0.68673772
-0.014961034 -0.051428527 0.68656546
-0.014949691 -0.052323878 0.68639427
-0.014938422 -0.053218096 0.68622434
-0.017911937 -0.064930737 0.73109114
-0.017900243 -0.066007107 0.73091471
-0.017887205 -0.067077011 0.73071802
-0.01787219 -0.068137676 0.7304914
-0.017857121 -0.069196314 0.73026401
-0.017842079 -0.070253134 0.73003703
-0.017827058 -0.071308196 0.72981048
-0.017807787 -0.072344124 0.72951961
-0.017788557 -0.073377788 0.72922957
-0.017769368 -0.074409217 0.72893995
-0.017748488 -0.075431049 0.72862494
-0.017722636 -0.07642889 0.72823489
-0.017696779 -0.077423394 0.72784472
-0.01767092 -0.078414679 0.72745448
-0.017647939 -0.079415679 0.7271077
-0.01762913 -0.080432892 0.72682393
-0.017613925 -0.08146435 0.72659451
-0.017600527 -0.082502455 0.72639233
-0.017588539 -0.083545536 0.72621149
-0.017579038 -0.084599137 0.72606808
-0.017570395 -0.085655659 0.72593772
-0.017564537 -0.086724877 0.72584933
-0.01630272 0.059776694 0.72320926
-0.016194796 0.05830127 0.72147226
-0.016122505 0.056966215 0.72030872
-0.016057108 0.055664659 0.71925616
-0.016003285 0.054411203 0.71838993
-0.015949959 0.053166538 0.71753162
-0.015906285 0.051960558 0.71682876
-0.015863186 0.050762236 0.71613503
-0.015820321 0.049570322 0.71544516
-0.015274398 0.046841532 0.7066586
-0.015240404 0.045721233 0.70611149
-0.015217167 0.044637024 0.70573753
-0.015194063 0.043556333 0.70536566
-0.015170966 0.04247874 0.7049939
-0.01514843 0.041405737 0.70463121
-0.015131205 0.040349931 0.70435399
-0.015114081 0.039296627 0.70407838
-0.015096935 0.038245618 0.70380241
-0.015079888 0.037197053 0.70352805
-0.015062818 0.036150753 0.70325333
-0.015048685 0.035113633 0.70302582
-0.01503542 0.034080297 0.70281231
-0.015022177 0.033048809 0.70259923
-0.0150089 0.032018989 0.70238549
-0.014995705 0.030991137 0.70217317
-0.014982535 0.029965103 0.70196116
-0.014970879 0.028943747 0.70177358
-0.014960613 0.027926475 0.7016083
-0.014950422 0.026910782 0.70144427
-0.014940184 0.025896311 0.70127952
-0.014930019 0.024883389 0.70111597
-0.01491981 0.02387172 0.70095164
-0.014909673 0.022861511 0.7007885
-0.014900792 0.02185452 0.70064557
-0.014892514 0.020849556 0.70051229
-0.014884245 0.019845665 0.70037925
-0.014876869 0.018844068 0.70026046
-0.014869737 0.017843693 0.70014572
-0.014862551 0.016844243 0.70003003
-0.014856491 0.015846938 0.69993252
-0.014850436 0.014850467 0.69983506
-0.014844327 0.013854772 0.69973671
-0.014837812 0.012859464 0.69963187
-0.014831302 0.01186505 0.69952708
-0.014824389 0.010871232 0.6994158
-0.014817131 0.0098781288 0.6992991
-0.014808712 0.0088852644 0.69916356
-0.014800242 0.0078934729 0.69902724
-0.014790733 0.0069023669 0.69887412
-0.01478054 0.0059122145 0.69871008
-0.014770184 0.0049234331 0.69854343
-0.014759844 0.0039359629 0.69837701
-0.014748649 0.0029497445 0.69819683
-0.014736486 0.0019648671 0.69800103
-0.014723361 0.00098159909 0.69778979
-0.014709798 -0 0.69757152
-0.014696203 -0.00097975135 0.69735277
-0.0146816 -0.0019575059 0.69711775
-0.014666738 -0.0029333234 0.69687849
-0.014651907 -0.0039071739 0.69663978
-0.014637163 -0.0048790276 0.69640249
-0.01462239 -0.0058489144 0.69616473
-0.014607649 -0.0068168938 0.6959275
-0.014592993 -0.0077828765 0.69569159
-0.014578368 -0.0087470114 0.69545615
-0.014563826 -0.0097092092 0.69522214
-0.014549315 -0.01066947 0.69498861
-0.014534776 -0.011627793 0.6947546
-0.014520323 -0.012584239 0.69452202
-0.014505898 -0.013538808 0.6942898
-0.014491444 -0.014491439 0.69405717
-0.014477078 -0.015442163 0.69382596
-0.014463741 -0.016392231 0.69361138
-0.014450543 -0.01734063 0.69339889
-0.014437366 -0.018287331 0.69318688
-0.014424214 -0.019232273 0.69297516
-0.014411087 -0.020175517 0.69276386
-0.014398038 -0.021117121 0.69255382
-0.014384957 -0.022056878 0.69234329
-0.014371957 -0.022995114 0.69213402
-0.014359198 -0.02393198 0.69192874
-0.014346407 -0.024867088 0.69172287
-0.014333639 -0.025800556 0.69151735
-0.014320894 -0.026732326 0.69131225
-0.014308172 -0.027662486 0.69110751
-0.014295527 -0.028591067 0.69090402
-0.014282905 -0.029517978 0.69070077
-0.014271118 -0.030445039 0.69051111
-0.01425935 -0.03137055 0.69032168
-0.014247603 -0.032294512 0.69013262
-0.014235873 -0.033216983 0.68994385
-0.014224164 -0.034137994 0.68975544
-0.014212475 -0.035057425 0.68956727
-0.014200803 -0.035975367 0.68937945
-0.014189098 -0.036891639 0.68919098
-0.014177466 -0.037806571 0.68900377
-0.014166012 -0.038720459 0.68881947
-0.014154739 -0.039633244 0.68863797
-0.014143482 -0.040544629 0.68845683
-0.014132244 -0.041454554 0.68827593
-0.014121024 -0.042363048 0.68809533
-0.01410982 -0.043270111 0.68791509
-0.014098793 -0.044176221 0.68773752
-0.01408789 -0.045081258 0.68756211
-0.01407711 -0.045985222 0.6873886
-0.014066399 -0.046887994 0.68721616
-0.016865041 -0.057341129 0.73225963
-0.016853906 -0.058426857 0.73208046
-0.016842863 -0.059511393 0.73190272
-0.016829794 -0.060587227 0.73169243
-0.016815541 -0.061656952 0.73146296
-0.016801313 -0.062724888 0.73123395
-0.016787183 -0.063791275 0.7310065
-0.016771877 -0.064851224 0.73076022
-0.016753681 -0.065897793 0.73046738
-0.016735526 -0.066942066 0.73017514
-0.016717335 -0.067983806 0.72988236
-0.01669584 -0.069009483 0.72953641
-0.016671438 -0.07002002 0.72914362
-0.016647033 -0.071027309 0.72875082
-0.016622553 -0.072031021 0.72835684
-0.016602768 -0.073052168 0.72803843
-0.016586112 -0.07408461 0.72777039
-0.016571829 -0.075125575 0.72754043
-0.016560055 -0.076176256 0.72735095
-0.016549174 -0.07722947 0.72717583
-0.016540714 -0.078292698 0.72703969
-0.016533498 -0.079360783 0.72692358
-0.016527964 -0.080436081 0.72683448
-0.016525343 -0.081524998 0.72679228
-0.016525779 -0.082628876 0.72679925
-0.016533498 -0.083769739 0.72692358
-0.016678477 -0.085616142 0.72925693
-0.016673809 -0.086703807 0.72918177
-0.016666329 -0.087776005 0.72906142
-0.015295143 0.066643149 0.72457618
-0.01518658 0.065085381 0.72270411
-0.015115338 0.063700378 0.7214756
-0.01505194 0.062358052 0.72038233
-0.015000755 0.061074495 0.71949965
-0.014950491 0.059801966 0.71863288
-0.014908236 0.05856806 0.71790427
-0.014867672 0.057346791 0.71720475
-0.014827264 0.05613181 0.71650791
-0.014792073 0.054942012 0.71590102
-0.014757979 0.053761244 0.7153132
-0.014724043 0.0525859 0.714728
-0.014691063 0.051418751 0.71415925
-0.014660809 0.05026567 0.71363747
-0.014194688 0.047653586 0.70559955
-0.014178369 0.046586066 0.70531815
-0.014162202 0.045521379 0.70503938
-0.01414613 0.044459283 0.70476216
-0.014130036 0.043399423 0.7044847
-0.014114036 0.042342126 0.70420873
-0.014100399 0.041294038 0.70397359
-0.014087923 0.040251255 0.70375842
-0.014075466 0.03921023 0.70354366
-0.014063033 0.038171142 0.70332921
-0.014050622 0.037133813 0.70311522
-0.014038177 0.036098182 0.70290065
-0.014027044 0.035067648 0.7027086
-0.014017445 0.034042388 0.70254308
-0.014007802 0.03301841 0.70237684
-0.013998229 0.031995982 0.70221174
-0.013988614 0.030974805 0.70204592
-0.013979066 0.029955149 0.70188129
-0.013969476 0.028936774 0.70171589
-0.013961124 0.027922243 0.70157188
-0.013953282 0.026909918 0.70143664
-0.013945504 0.025898844 0.70130253
-0.013938567 0.024890333 0.7011829
-0.013931858 0.023883224 0.70106721
-0.013925101 0.022876978 0.70095062
-0.013919401 0.021873385 0.70085239
-0.013913705 0.020870566 0.70075417
-0.01390796 0.019868523 0.70065504
-0.013901833 0.018866807 0.70054942
-0.01389571 0.017865926 0.70044386
-0.013889262 0.016865581 0.70033264
-0.013882326 0.015865564 0.70021302
-0.013874353 0.014865369 0.70007557
-0.013866443 0.013866454 0.69993913
-0.013857556 0.012867719 0.69978595
-0.013847912 0.011869669 0.69961965
-0.013838174 0.010872871 0.69945168
-0.013828448 0.0098775029 0.69928396
-0.01381781 0.0088828802 0.69910055
-0.013806372 0.00788939 0.69890326
-0.013794084 0.0068970621 0.69869137
-0.013781329 0.0059063137 0.69847143
-0.013768489 0.0049173534 0.69825
-0.013754647 0.0039299428 0.69801134
-0.013740672 0.0029444993 0.69777024
-0.013726724 0.0019610226 0.69752973
-0.013712805 0.00097951293 0.69728976
-0.013698967 -0 0.69705117
-0.013685104 -0.00097748637 0.69681209
-0.013671377 -0.0019530654 0.69657534
-0.013657622 -0.0029266179 0.69633818
-0.013643948 -0.003898263 0.69610238
-0.013630303 -0.0048679709 0.69586706
-0.013616632 -0.005835712 0.69563133
-0.013603041 -0.006801486 0.69539696
-0.013589477 -0.0077653825 0.69516301
-0.013575886 -0.0087273121 0.69492871
-0.013562376 -0.0096873939 0.69469571
-0.013549836 -0.010646313 0.69447947
-0.013537425 -0.011603504 0.69426548
-0.013525035 -0.012558937 0.69405174
-0.013512721 -0.013512731 0.69383943
-0.013500377 -0.014464676 0.69362658
-0.013488056 -0.015414923 0.69341409
-0.013475809 -0.016363442 0.69320285
-0.013463739 -0.0173105 0.69299477
-0.013451691 -0.01825586 0.69278705
-0.013439664 -0.01919952 0.69257963
-0.013427659 -0.020141482 0.69237262
-0.013415726 -0.021081865 0.69216686
-0.013403765 -0.022020429 0.69196051
-0.013391824 -0.022957385 0.6917547
-0.013380006 -0.02389282 0.69155085
-0.013368872 -0.024827898 0.69135886
-0.013357808 -0.025761455 0.69116807
-0.013346762 -0.026693523 0.69097757
-0.013335735 -0.027623981 0.69078743
-0.013324725 -0.028553009 0.69059765
-0.013313735 -0.029480398 0.69040805
-0.013302762 -0.030406326 0.69021887
-0.013291807 -0.031330645 0.69002992
-0.01328087 -0.032253504 0.68984127
-0.013270253 -0.033175617 0.68965822
-0.013259652 -0.034096241 0.68947542
-0.01324912 -0.035015494 0.68929386
-0.013238553 -0.035933197 0.68911159
-0.013228004 -0.036849409 0.68892968
-0.013217471 -0.037764192 0.688748
-0.013207054 -0.038677782 0.68856841
-0.013196852 -0.039590538 0.68839246
-0.013186717 -0.040502012 0.6882177
-0.013176646 -0.041412324 0.68804407
-0.015798571 -0.050781131 0.73325753
-0.015788171 -0.051875412 0.73307824
-0.015777789 -0.052968234 0.73289907
-0.015764721 -0.054050446 0.73267382
-0.015751323 -0.055129617 0.73244274
-0.015737947 -0.056206942 0.73221207
-0.015724592 -0.057282448 0.73198175
-0.015709218 -0.058348507 0.73171663
-0.015692044 -0.059405565 0.73142058
-0.015674978 -0.060460627 0.73112625
-0.01565795 -0.061513364 0.73083258
-0.015636003 -0.062543988 0.73045409
-0.015613001 -0.063567221 0.73005748
-0.015590137 -0.064587742 0.72966319
-0.015567409 -0.065605462 0.72927129
-0.015550199 -0.066643685 0.72897446
-0.015535715 -0.067691326 0.72872472
-0.015522702 -0.068743408 0.72850031
-0.015512113 -0.069804519 0.72831774
-0.015502707 -0.070869505 0.72815549
-0.015494684 -0.071939588 0.72801721
-0.015488859 -0.073018879 0.72791672
-0.015484135 -0.07410261 0.72783524
-0.015482286 -0.075199664 0.72780341
-0.015484477 -0.076316297 0.72784114
-0.015497358 -0.077486783 0.72806329
-0.01562505 -0.079241306 0.73026526
-0.015619615 -0.080329448 0.73017156
-0.015612026 -0.08140558 0.73004073
-0.01560361 -0.082476199 0.72989559
-0.015595205 -0.083545715 0.72975057
-0.015586669 -0.084613323 0.72960341
-0.015578141 -0.08567977 0.72945631
-0.015569485 -0.086744219 0.72930706
-0.015560839 -0.087807596 0.72915798
-0.014292634 0.073662043 0.72624755
-0.014170825 0.071944207 0.72398555
-0.014099134 0.070495695 0.72265416
-0.014037974 0.069110066 0.72151834
-0.013989608 0.067795813 0.7206201
-0.013942469 0.066494852 0.71974474
-0.013901943 0.065232217 0.71899211
-0.013863721 0.063986391 0.71828234
-0.013825943 0.062748551 0.71758074
-0.013792405 0.061535358 0.71695793
-0.013760368 0.060333937 0.71636295
-0.013728595 0.059138596 0.71577287
-0.013697662 0.057951689 0.71519846
-0.013669337 0.056780398 0.71467245
-0.013641072 0.055613637 0.71414757
-0.013614121 0.054456502 0.71364701
-0.013588581 0.053309053 0.71317273
-0.013563194 0.052166164 0.71270126
-0.013537845 0.051027298 0.7122305
-0.01351287 0.049893707 0.71176666
-0.013144717 0.04752323 0.70492977
-0.01313304 0.046470791 0.70471293
-0.013121331 0.045419991 0.70449549
-0.013109694 0.044371277 0.70427936
-0.013098079 0.043324411 0.70406365
-0.013086485 0.042279422 0.70384836
-0.013075909 0.041239411 0.70365196
-0.013066873 0.040205777 0.70348418
-0.013057902 0.039173722 0.70331752
-0.013048891 0.038142949 0.70315015
-0.013039945 0.037113696 0.70298409
-0.013030957 0.036085755 0.7028172
-0.013022035 0.035059333 0.7026515
-0.013014116 0.034036934 0.7025044
-0.013006829 0.033017337 0.70236909
-0.01299955 0.031998903 0.70223391
-0.012993007 0.030983359 0.70211238
-0.01298673 0.029969394 0.70199585
-0.012980406 0.028956354 0.70187831
-0.012975072 0.027946293 0.70177937
-0.012969743 0.026937157 0.70168036
-0.012964367 0.025928736 0.70158052
-0.012958632 0.024920493 0.70147401
-0.012952904 0.023913056 0.70136762
-0.012946974 0.022906184 0.70125753
-0.012940329 0.021899045 0.70113409
-0.012932867 0.020891577 0.70099556
-0.012925467 0.019885331 0.70085806
-0.012917201 0.018878996 0.70070457
-0.012908178 0.01787287 0.70053709
-0.012899065 0.016868055 0.70036781
-0.012889914 0.015864491 0.70019788
-0.012879858 0.014861405 0.70001113
-0.012869155 0.013859123 0.69981235
-0.012857708 0.012857735 0.6995998
-0.012845723 0.011857599 0.69937724
-0.01283371 0.01085934 0.69915414
-0.012820658 0.0098620355 0.69891173
-0.012807581 0.0088668168 0.6986689
-0.012794532 0.007873565 0.6984266
-0.012781508 0.0068823993 0.69818467
-0.012768512 0.0058932006 0.69794333
-0.012755643 0.0049060285 0.69770432
-0.012742748 0.0039208829 0.69746488
-0.01272993 0.0029377043 0.69722688
-0.012717137 0.0019564927 0.6969893
-0.012704371 0.00097727776 0.69675219
-0.012691579 2.9802322e-08 0.69651467
-0.012678864 -0.000975281 0.69627845
-0.012666175 -0.0019486248 0.69604284
-0.01265346 -0.0029200315 0.69580674
-0.012640821 -0.0038894415 0.69557202
-0.012629089 -0.0048573315 0.6953541
-0.012617526 -0.0058234334 0.69513941
-0.012605936 -0.0067877769 0.69492412
-0.012594366 -0.007750392 0.6947093
-0.012582818 -0.0087111592 0.69449484
-0.012571341 -0.0096702278 0.6942817
-0.012559981 -0.010627687 0.6940707
-0.012548689 -0.011583388 0.69386101
-0.012537418 -0.01253739 0.69365174
-0.012526214 -0.013489723 0.69344366
-0.012514984 -0.014440328 0.6932351
-0.012503774 -0.015389264 0.6930269
-0.012492582 -0.016336441 0.69281906
-0.012481412 -0.01728192 0.69261158
-0.012470357 -0.018225878 0.6924063
-0.01245999 -0.019169182 0.69221383
-0.01244964 -0.020110935 0.69202155
-0.012439259 -0.021051079 0.69182885
-0.012428944 -0.021989673 0.69163728
-0.012418645 -0.022926688 0.69144595
-0.012408364 -0.023862183 0.69125509
-0.0123981 -0.024796158 0.69106448
-0.012387852 -0.025728613 0.6908741
-0.012377857 -0.026659966 0.69068849
-0.012367925 -0.027589977 0.69050407
-0.012358009 -0.028518468 0.69031996
-0.012348109 -0.029445469 0.69013608
-0.012338225 -0.030370981 0.68995255
-0.012328404 -0.031295151 0.6897701
-0.012318551 -0.032217711 0.68958712
-0.012308806 -0.03313905 0.68940616
-0.012299217 -0.034059346 0.68922812
-0.012289737 -0.034978479 0.6890521
-0.012280363 -0.03589645 0.68887794
-0.014724297 -0.044172853 0.7342639
-0.01471457 -0.045275569 0.73408335
-0.01470439 -0.046375364 0.73389435
-0.014691837 -0.04746592 0.73366117
-0.014679371 -0.048554808 0.73342967
-0.014666859 -0.049641669 0.73319733
-0.014654369 -0.050726652 0.73296535
-0.014638934 -0.051799297 0.73267871
-0.01462294 -0.052867562 0.7323817
-0.014606981 -0.053933412 0.73208529
-0.014590402 -0.054994553 0.73177743
-0.014568899 -0.056034237 0.73137808
-0.014547395 -0.057070494 0.73097867
-0.014525888 -0.058103532 0.73057938
-0.014506321 -0.059141099 0.73021591
-0.014490359 -0.060190707 0.72991955
-0.014477716 -0.061251849 0.72968471
-0.014466447 -0.062316984 0.72947544
-0.01445648 -0.063386083 0.72929031
-0.014448516 -0.064462543 0.72914249
-0.014441201 -0.06554082 0.72900665
-0.014436394 -0.066629499 0.7289173
-0.014433063 -0.067724347 0.72885549
-0.014431846 -0.068828791 0.72883296
-0.014435496 -0.06995663 0.72890073
-0.01456668 -0.071712852 0.73133683
-0.014563681 -0.072818398 0.73128116
-0.014557618 -0.073907912 0.73116863
-0.014549998 -0.074988425 0.73102707
-0.014542126 -0.076066464 0.73088086
-0.014534198 -0.077143013 0.73073363
-0.014526277 -0.0782184 0.73058659
-0.014518238 -0.07929191 0.73043722
-0.014510141 -0.08036384 0.7302869
-0.014501989 -0.08143422 0.7301355
-0.014493717 -0.082502723 0.7299819
-0.014485518 -0.083570272 0.72982961
-0.014477136 -0.084635586 0.72967398
-0.014468763 -0.085699588 0.72951847
-0.014460335 -0.086762011 0.72936201
-0.01445179 -0.087822378 0.72920328
-0.013277869 0.080773711 0.72795099
-0.013145195 0.078871191 0.72528183
-0.013074153 0.077355415 0.72385257
-0.013015149 0.075921744 0.72266555
-0.012969887 0.074576885 0.72175491
-0.012925771 0.073246062 0.7208674
-0.012887319 0.071954221 0.72009379
-0.012851295 0.070682138 0.71936899
-0.012816129 0.069420695 0.71866155
-0.012784692 0.068185061 0.71802902
-0.012754492 0.06696111 0.71742147
-0.01272492 0.065745413 0.71682656
-0.012696024 0.064538151 0.71624517
-0.012669662 0.063348323 0.71571481
-0.012643409 0.062163413 0.71518672
-0.012617797 0.060986042 0.71467137
-0.01259403 0.059821665 0.71419322
-0.012570406 0.058661938 0.71371794
-0.012546818 0.057506263 0.71324337
-0.012523736 0.056356847 0.71277899
-0.012502196 0.055218071 0.71234566
-0.012481094 0.054084748 0.71192116
-0.012460011 0.052955061 0.71149695
-0.012439051 0.051829398 0.71107531
-0.012418211 0.050707728 0.71065605
-0.012398927 0.049595743 0.71026802
-0.012117277 0.047459364 0.70460165
-0.012108919 0.046417534 0.70443356
-0.012100525 0.045376927 0.7042647
-0.01209219 0.044338048 0.70409697
-0.012083867 0.043300509 0.70392954
-0.012075508 0.042264283 0.70376134
-0.012067208 0.041229635 0.70359439
-0.01205979 0.040199339 0.70344514
-0.012053012 0.039172351 0.70330876
-0.012046193 0.038146317 0.70317161
-0.012040154 0.037123829 0.70305014
-0.012034266 0.036102831 0.70293164
-0.012028384 0.035082817 0.70281333
-0.012023422 0.034066379 0.70271349
-0.012018465 0.033050835 0.70261371
-0.012013463 0.032035917 0.7025131
-0.012008128 0.031021029 0.70240581
-0.0120028 0.030007035 0.70229858
-0.011997331 0.028993607 0.70218861
-0.011991006 0.027978987 0.7020613
-0.011984113 0.026964277 0.70192266
-0.011977229 0.02595067 0.70178413
-0.011969588 0.024936676 0.70163035
-0.011961146 0.023922294 0.7014606
-0.011952671 0.022909313 0.70129007
-0.011944206 0.021897733 0.70111978
-0.01193471 0.020885766 0.70092869
-0.011924755 0.019874632 0.70072842
-0.011914153 0.018864095 0.70051515
-0.011903006 0.017854512 0.70029092
-0.011891689 0.016846597 0.70006323
-0.011879549 0.015839398 0.69981897
-0.011867387 0.014834285 0.69957423
-0.011855249 0.013831139 0.69933015
-0.011843137 0.012830079 0.69908637
-0.011831095 0.011831135 0.69884419
-0.011819125 0.010834247 0.69860333
-0.011807132 0.0098393261 0.69836211
-0.011795211 0.008846432 0.6981222
-0.011783312 0.0078555644 0.69788283
-0.011771438 0.0068666935 0.69764394
-0.011759541 0.0058797896 0.69740456
-0.011747715 0.0048949122 0.69716668
-0.011735913 0.0039120018 0.69692922
-0.011724089 0.0029310584 0.69669133
-0.011712334 0.0019520819 0.69645488
-0.011701468 0.00097513199 0.69623625
-0.011690669 -0 0.69601899
-0.011679891 -0.00097331405 0.69580215
-0.011669176 -0.0019448698 0.69558662
-0.011658437 -0.0029145479 0.6953705
-0.011647806 -0.003882587 0.69515669
-0.011637332 -0.0048488975 0.69494593
-0.01162683 -0.00581339 0.69473469
-0.011616347 -0.006776154 0.69452375
-0.011605884 -0.0077372491 0.69431329
-0.011595439 -0.0086965561 0.69410318
-0.01158506 -0.0096541941 0.69389427
-0.011574652 -0.010610104 0.69368494
-0.011564263 -0.011564225 0.6934759
-0.011553938 -0.012516767 0.69326818
-0.011544297 -0.013468325 0.69307423
-0.011534671 -0.014418304 0.69288063
-0.011525064 -0.015366733 0.69268727
-0.011515469 -0.016313553 0.69249427
-0.011505849 -0.017258793 0.69230068
-0.011496288 -0.018202454 0.69210833
-0.011486743 -0.019144565 0.69191635
-0.011477388 -0.020085424 0.69172812
-0.011468138 -0.021024883 0.69154203
-0.011458902 -0.021962881 0.69135624
-0.011449682 -0.022899359 0.69117069
-0.011440475 -0.023834318 0.69098544
-0.011431283 -0.024767786 0.69080055
-0.011422106 -0.025699735 0.69061589
-0.011412987 -0.026630312 0.69043249
-0.011403927 -0.027559459 0.69025022
-0.01139501 -0.028487504 0.69007081
-0.011386193 -0.029414326 0.68989348
-0.011377476 -0.030339926 0.68971807
-0.013641994 -0.037515461 0.73527658
-0.013632949 -0.038626671 0.73509467
-0.013622865 -0.03973332 0.73489177
-0.013611192 -0.040833563 0.73465693
-0.013599539 -0.041931927 0.7344225
-0.013587905 -0.043028325 0.73418844
-0.013575985 -0.044121891 0.73394859
-0.013561083 -0.045203596 0.73364884
-0.013546214 -0.046282887 0.73334968
-0.013531316 -0.047359586 0.73304999
-0.013514443 -0.048426718 0.73271054
-0.013494398 -0.049479425 0.7323072
-0.01347447 -0.050529271 0.73190629
-0.013454422 -0.051575243 0.73150301
-0.013437741 -0.05263111 0.73116738
-0.013423922 -0.053695679 0.73088932
-0.013412166 -0.054766297 0.73065281
-0.013402408 -0.055843353 0.73045653
-0.013393438 -0.056922108 0.73027611
-0.013386451 -0.058007926 0.73013544
-0.013380545 -0.059097379 0.73001665
-0.013376013 -0.060192019 0.72992551
-0.013373869 -0.06129688 0.72988242
-0.013374286 -0.062413305 0.7298907
-0.013380902 -0.063559264 0.73002386
-0.013497674 -0.065238744 0.73237312
-0.01349373 -0.066344172 0.73229378
-0.013487486 -0.06743741 0.7321682
-0.013480159 -0.068524092 0.73202074
-0.013472838 -0.069609672 0.73187345
-0.013465466 -0.070693702 0.73172516
-0.013458041 -0.071776181 0.73157579
-0.013450505 -0.072856873 0.73142415
-0.013443036 -0.073936671 0.73127389
-0.013435336 -0.075013906 0.73111892
-0.013427704 -0.076090276 0.73096544
-0.01342002 -0.077165127 0.73081088
-0.013412227 -0.078237951 0.730654
-0.013404381 -0.079309225 0.73049629
-0.013396545 -0.080379248 0.73033857
-0.013388599 -0.081447273 0.73017877
-0.013380545 -0.082513362 0.73001671
-0.013371485 -0.083571762 0.72983438
-0.013360357 -0.084615558 0.7296105
-0.013346756 -0.085641682 0.72933698
-0.013328683 -0.086636424 0.72897327
-0.013298985 -0.087551624 0.72837573
-0.013275989 -0.08850655 0.72791314
-0.012109839 0.085869759 0.72660041
-0.012039694 0.084277868 0.72506082
-0.011984692 0.082803369 0.72385371
-0.011941373 0.081418484 0.72290295
-0.011900167 0.080055684 0.72199857
-0.011863998 0.078733802 0.72120476
-0.011830489 0.077435941 0.72046936
-0.011797829 0.076149672 0.71975243
-0.011768465 0.074890226 0.7191081
-0.011740348 0.073644042 0.71849096
-0.011712867 0.072406828 0.71788776
-0.011686157 0.07117936 0.71730161
-0.011661792 0.069970787 0.71676683
-0.011637528 0.06876725 0.71623433
-0.011613416 0.067568988 0.71570516
-0.011591403 0.066387147 0.715222
-0.011569573 0.065210313 0.7147429
-0.011547871 0.064038217 0.71426654
-0.011526637 0.062872559 0.71380055
-0.011506347 0.061715871 0.71335524
-0.011486848 0.060567021 0.71292734
-0.011467414 0.059422076 0.71250081
-0.011448047 0.058280975 0.71207571
-0.011428982 0.05714494 0.71165723
-0.011410878 0.056017041 0.71125996
-0.011393304 0.054894984 0.71087426
-0.011375832 0.053776652 0.71049076
-0.011358365 0.052661538 0.71010745
-0.011340952 0.051549822 0.70972532
-0.011323874 0.050442725 0.70935047
-0.011307914 0.049343646 0.70900017
-0.011104859 0.047448069 0.70454371
-0.011097963 0.046409667 0.70439231
-0.011091701 0.045375168 0.70425487
-0.011085446 0.044341832 0.70411754
-0.011079822 0.043312043 0.70399415
-0.011074382 0.042284042 0.70387477
-0.011068992 0.041257232 0.70375645
-0.011064364 0.040234089 0.70365489
-0.011059784 0.039211959 0.70355439
-0.011055163 0.038190603 0.70345294
-0.011050236 0.03716898 0.70334482
-0.011045313 0.03614831 0.70323676
-0.01104035 0.035128415 0.7031278
-0.011034374 0.034106284 0.70299667
-0.011028007 0.033084035 0.7028569
-0.011021647 0.032062978 0.70271736
-0.011014633 0.031041265 0.70256341
-0.011006835 0.030018657 0.70239228
-0.010998961 0.028997302 0.70221943
-0.010991141 0.027977496 0.70204782
-0.010982282 0.026956528 0.70185333
-0.010973041 0.025936306 0.70165062
-0.010963337 0.024916738 0.70143759
-0.010953039 0.023897558 0.70121157
-0.010942455 0.02287972 0.70097929
-0.010931198 0.021862417 0.70073223
-0.010920008 0.020847291 0.7004866
-0.010908796 0.019834191 0.70024055
-0.010897608 0.018823117 0.69999504
-0.010886529 0.017814308 0.69975185
-0.010875472 0.016807556 0.6995092
-0.010864395 0.015802771 0.69926608
-0.010853383 0.014800102 0.69902438
-0.010842393 0.013799429 0.69878322
-0.010831383 0.012800723 0.69854152
-0.010820438 0.011804134 0.69830132
-0.010809516 0.010809511 0.69806165
-0.010798572 0.009816885 0.69782138
-0.010787693 0.0088262856 0.69758266
-0.010776835 0.0078377128 0.69734442
-0.010766801 0.0068516433 0.69712412
-0.010756869 0.0058673918 0.69690615
-0.010746913 0.0048849583 0.6966877
-0.010736976 0.0039044023 0.69646955
-0.010727141 0.0029256344 0.69625366
-0.010717407 0.0019486248 0.69604003
-0.01070769 0.00097343326 0.69582683
-0.010697992 2.9802322e-08 0.69561398
-0.010688311 -0.00097164512 0.69540155
-0.010678689 -0.0019415617 0.69519031
-0.010669042 -0.0029097199 0.69497859
-0.010659413 -0.0038761199 0.69476724
-0.010649802 -0.004840821 0.69455636
-0.010640209 -0.0058037341 0.69434577
-0.010630672 -0.0067649484 0.69413644
-0.010621768 -0.0077248812 0.693941
-0.01061288 -0.0086832345 0.69374603
-0.010604006 -0.0096399784 0.69355118
-0.010595147 -0.010595143 0.69335681
-0.010586303 -0.011548668 0.69316268
-0.010577473 -0.012500644 0.69296885
-0.010568699 -0.01345107 0.69277632
-0.010560182 -0.014400214 0.6925894
-0.010551638 -0.015347809 0.69240189
-0.010543109 -0.016293883 0.69221467
-0.010534593 -0.017238408 0.69202781
-0.010526091 -0.018181413 0.69184124
-0.010517603 -0.019122899 0.69165486
-0.010509128 -0.020062864 0.69146889
-0.010500667 -0.021001279 0.69128317
-0.0104923 -0.021938443 0.69109952
-0.010484066 -0.022874326 0.69091886
-0.010475964 -0.023809016 0.69074094
-0.010467915 -0.024742305 0.69056433
-0.012551702 -0.030808687 0.73629808
-0.01254335 -0.031928539 0.7361148
-0.012533353 -0.033042461 0.7358954
-0.012522631 -0.034152597 0.73566002
-0.01251187 -0.035260677 0.73542386
-0.012501128 -0.03636691 0.73518801
-0.012489271 -0.037467778 0.73492789
-0.012475513 -0.038560688 0.73462594
-0.012461727 -0.039650917 0.73432338
-0.012448031 -0.04073897 0.73402274
-0.01243105 -0.041813523 0.73365015
-0.012412546 -0.042879671 0.733244
-0.012394098 -0.04394269 0.73283911
-0.012375593 -0.045002133 0.73243296
-0.012361586 -0.046074986 0.73212552
-0.012349715 -0.047153443 0.73186493
-0.012339138 -0.048234791 0.73163283
-0.012330623 -0.049322486 0.73144603
-0.012323003 -0.050412238 0.73127872
-0.012316551 -0.051505536 0.73113716
-0.012311812 -0.052605033 0.73103315
-0.012308013 -0.053707689 0.73094976
-0.012306526 -0.054819942 0.7309171
-0.012308397 -0.055947274 0.73095822
-0.012320521 -0.05712238 0.7312243
-0.012419885 -0.058712184 0.73340505
-0.012415347 -0.059819371 0.73330545
-0.012409188 -0.060917825 0.73317027
-0.012402421 -0.062012106 0.73302174
-0.012395662 -0.063105166 0.73287338
-0.012388798 -0.064196467 0.73272276
-0.012381942 -0.065286577 0.73257232
-0.012374982 -0.066374868 0.73241955
-0.012367975 -0.067461699 0.73226583
-0.012360919 -0.068546921 0.73211092
-0.012353872 -0.069630921 0.73195624
-0.012346666 -0.070712715 0.73179805
-0.01233947 -0.071793258 0.7316401
-0.012332281 -0.072872549 0.73148239
-0.012324936 -0.073949605 0.73132116
-0.012317599 -0.07502535 0.7311601
-0.012309775 -0.076096743 0.73098838
-0.012300805 -0.077159584 0.73079157
-0.012289819 -0.07820794 0.73055041
-0.012275729 -0.079234242 0.73024124
-0.012253702 -0.080206066 0.72975779
-0.012226862 -0.081141919 0.72916871
-0.012209394 -0.082135916 0.7287854
-0.012193869 -0.083140016 0.72844458
-0.012180861 -0.084158689 0.72815913
-0.012168635 -0.085180402 0.72789073
-0.012158365 -0.086213857 0.72766536
-0.012148061 -0.087245166 0.72743922
-0.01213954 -0.088287562 0.72725224
-0.010175081 -0.077700585 0.68413746
-0.010082443 -0.077909768 0.68210429
-0.010077201 -0.07878536 0.68198925
-0.010072 -0.079660341 0.68187505
-0.010066843 -0.080534697 0.68176186
-0.010061763 -0.081408799 0.6816504
-0.011064108 0.092938513 0.7279321
-0.010995735 0.091264635 0.72628146
-0.010944985 0.089748859 0.72505623
-0.01090377 0.088320583 0.72406119
-0.010865742 0.086925924 0.7231431
-0.01083187 0.085571796 0.72232538
-0.010801146 0.08424896 0.7215836
-0.010770827 0.082935363 0.72085166
-0.010743675 0.081651956 0.72019613
-0.0107179 0.080384284 0.71957392
-0.010692432 0.079124004 0.71895909
-0.010667857 0.077875376 0.71836573
-0.010645523 0.076647758 0.71782655
-0.010623327 0.075425655 0.71729076
-0.010601225 0.074208587 0.71675706
-0.010580601 0.073006153 0.71625918
-0.010560593 0.071812034 0.71577615
-0.010540925 0.070624232 0.71530139
-0.010521419 0.069441408 0.7148304
-0.010502515 0.068266362 0.71437401
-0.010484645 0.067101747 0.71394265
-0.010466793 0.065940797 0.71351165
-0.010449131 0.064784646 0.71308517
-0.01043179 0.063633949 0.71266657
-0.01041494 0.062489659 0.71225989
-0.010398836 0.061353147 0.71187103
-0.010382782 0.060220152 0.71148342
-0.01036682 0.059090912 0.71109807
-0.010350907 0.0579651 0.71071392
-0.010335299 0.056844205 0.71033704
-0.010320547 0.055730969 0.70998096
-0.010305964 0.054621637 0.70962894
-0.010291424 0.053515404 0.70927787
-0.010276923 0.052412301 0.70892781
-0.010262463 0.051312327 0.70857871
-0.010248128 0.05021587 0.70823264
-0.010234629 0.049126238 0.70790672
-0.010221331 0.048040271 0.70758569
-0.010097812 0.0464499 0.70460367
-0.010093616 0.045421273 0.70450234
-0.010089383 0.044393301 0.70440012
-0.010084868 0.043364972 0.70429116
-0.010080357 0.042337507 0.70418227
-0.010075851 0.041310996 0.70407349
-0.010070295 0.040281206 0.70393932
-0.010064461 0.039251387 0.70379853
-0.010058594 0.038222671 0.70365685
-0.010052249 0.037193328 0.70350367
-0.010045065 0.036162257 0.70333022
-0.01003789 0.035132647 0.70315707
-0.010030686 0.034104347 0.70298302
-0.010022488 0.03307423 0.70278519
-0.010014024 0.032044947 0.70258081
-0.010005173 0.031016082 0.70236713
-0.009995739 0.029987216 0.70213944
-0.0099859247 0.028959215 0.70190239
-0.0099756112 0.02793175 0.70165348
-0.0099653192 0.026906401 0.70140499
-0.0099550886 0.025883287 0.70115805
-0.0099448794 0.0248622 0.70091152
-0.0099347299 0.023843378 0.70066649
-0.0099246018 0.022826582 0.70042199
-0.0099144541 0.021811813 0.70017701
-0.0099043669 0.02079919 0.69993347
-0.0098943003 0.019788623 0.69969046
-0.009884214 0.018780053 0.69944698
-0.0098741883 0.017773569 0.69920492
-0.0098641831 0.016769141 0.69896334
-0.0098541584 0.01576665 0.69872129
-0.0098441932 0.014766306 0.69848078
-0.0098342486 0.013767958 0.6982407
-0.0098250955 0.01277265 0.69801968
-0.0098159593 0.011779159 0.69779915
-0.0098068397 0.010787517 0.69757897
-0.0097977761 0.0097978115 0.6973601
-0.0097888438 0.0088099539 0.69714451
-0.0097799283 0.0078239739 0.69692922
-0.0097710276 0.0068397224 0.69671434
-0.0097621828 0.0058573484 0.69650078
-0.0097533148 0.0048766434 0.69628674
-0.0097444635 0.0038978159 0.69607306
-0.009735628 0.0029206872 0.69585979
-0.0097268466 0.0019454062 0.69564772
-0.0097180428 0.00097182393 0.69543517
-0.0097092548 2.9802322e-08 0.69522309
-0.0097005209 -0.00097003579 0.69501221
-0.0096923281 -0.0019384325 0.69481438
-0.0096841874 -0.0029052198 0.69461787
-0.0096760597 -0.0038703978 0.69442159
-0.0096679451 -0.0048339367 0.69422579
-0.0096598445 -0.0057958961 0.69403017
-0.0096517578 -0.0067562163 0.6938349
-0.0096439067 -0.0077150762 0.69364536
-0.0096360696 -0.008672446 0.69345623
-0.0096282447 -0.0096282363 0.69326723
-0.0096204691 -0.010582477 0.69307953
-0.0096126702 -0.011535197 0.6928913
-0.0096048824 -0.012486309 0.69270325
-0.0095971087 -0.01343593 0.69251561
-0.0095893471 -0.014384001 0.69232821
-0.0095815975 -0.015330493 0.69214112
-0.0095739346 -0.016275644 0.6919561
-0.0095663927 -0.017219484 0.69177407
-0.0095589729 -0.018162012 0.69159496
-0.011460925 -0.022921801 0.73751211
-0.011453265 -0.024051845 0.73732722
-0.011445561 -0.025180221 0.73714125
-0.011435883 -0.026302516 0.73690754
-0.011426012 -0.027422398 0.73666924
-0.011416158 -0.028540373 0.7364313
-0.011406321 -0.02965641 0.73619384
-0.011394735 -0.030765742 0.73591411
-0.011382086 -0.031869799 0.73560876
-0.011369517 -0.032971591 0.73530531
-0.011356975 -0.034070849 0.73500246
-0.011340089 -0.035154253 0.73459482
-0.011323203 -0.0362342 0.73418719
-0.011306316 -0.037310839 0.73377955
-0.011290448 -0.038387507 0.73339641
-0.011277774 -0.039472222 0.73309052
-0.011267769 -0.040563941 0.73284888
-0.011258742 -0.041657329 0.73263097
-0.011250894 -0.042753398 0.73244154
-0.011244522 -0.043853581 0.73228765
-0.011238764 -0.044955075 0.73214871
-0.011234979 -0.046063393 0.73205727
-0.011232356 -0.047175884 0.73199397
-0.011231449 -0.04829523 0.73197204
-0.011234575 -0.049432129 0.7320475
-0.011336338 -0.051013499 0.73450434
-0.011333873 -0.052135825 0.73444486
-0.011328946 -0.053246021 0.73432583
-0.011322896 -0.054349899 0.73417979
-0.011316699 -0.055451781 0.73403025
-0.011310456 -0.056552291 0.73387945
-0.011304221 -0.05765152 0.733729
-0.011297841 -0.058748722 0.73357487
-0.011291519 -0.05984506 0.73342228
-0.011285049 -0.060939252 0.73326612
-0.011278587 -0.062032193 0.73311007
-0.011272083 -0.063123643 0.73295307
-0.011265485 -0.064213246 0.73279381
-0.011258895 -0.065301567 0.73263466
-0.01125221 -0.066388011 0.73247325
-0.011245533 -0.067473173 0.73231208
-0.011238814 -0.068556756 0.7321499
-0.011231246 -0.069633663 0.73196715
-0.011222128 -0.070699364 0.73174703
-0.011211013 -0.071750462 0.73147875
-0.011196413 -0.072776675 0.73112625
-0.011172513 -0.073738575 0.73054922
-0.011151795 -0.074717015 0.73004901
-0.011135812 -0.075723499 0.72966325
-0.011123335 -0.076751024 0.72936195
-0.011111429 -0.077779949 0.72907448
-0.011101371 -0.078819722 0.72883171
-0.011091921 -0.07986182 0.72860354
-0.011082978 -0.080905735 0.72838771
-0.011075618 -0.081959575 0.72820997
-0.011068268 -0.083012015 0.72803259
-0.011061808 -0.084069729 0.72787654
-0.0093812207 -0.072235376 0.68730366
-0.0092377774 -0.072054654 0.68384063
-0.0091993259 -0.072674632 0.68291229
-0.0091945585 -0.073556423 0.68279719
-0.0091897966 -0.07443735 0.68268222
-0.00918514 -0.075318128 0.6825698
-0.009180489 -0.076198041 0.68245751
-0.0091758417 -0.077077031 0.68234533
-0.009171268 -0.077955753 0.68223488
-0.0091668321 -0.078834713 0.68212777
-0.0091626346 -0.079714924 0.68202651
-0.0091584753 -0.080594555 0.68192607
-0.0091542862 -0.081473142 0.68182492
-0.0091501018 -0.082350895 0.68172383
-0.0097908201 0.092468858 0.72345567
-0.0097629279 0.09112069 0.72270751
-0.009735195 0.089780152 0.72196358
-0.0097102569 0.088471264 0.72129458
-0.009686863 0.087181777 0.72066706
-0.0096635809 0.085898519 0.72004253
-0.0096411118 0.084627599 0.7194398
-0.0096208444 0.083380699 0.71889615
-0.0096007027 0.082139373 0.71835583
-0.0095806038 0.080902874 0.71781671
-0.0095615629 0.079679757 0.71730596
-0.0095434077 0.078468025 0.71681893
-0.0095256837 0.077263892 0.71634352
-0.009508024 0.076064229 0.71586978
-0.0094905514 0.074869931 0.71540111
-0.009474298 0.073689014 0.71496511
-0.0094581395 0.072512418 0.71453166
-0.0094422745 0.071341664 0.71410614
-0.0094265416 0.070175409 0.71368402
-0.0094109783 0.069013864 0.71326661
-0.0093964078 0.067862958 0.71287572
-0.0093818428 0.06671536 0.71248507
-0.0093673235 0.065571308 0.7120955
-0.0093530826 0.064432383 0.71171355
-0.0093389228 0.063297182 0.71133369
-0.0093253078 0.062168717 0.71096855
-0.0093120793 0.061045885 0.71061367
-0.0092989262 0.05992645 0.71026087
-0.0092857732 0.058809906 0.70990801
-0.0092726564 0.057696521 0.70955616
-0.0092597669 0.056587487 0.7092104
-0.0092474073 0.055484444 0.70887887
-0.0092353076 0.054385751 0.70855427
-0.0092232777 0.053290069 0.70823163
-0.0092112785 0.052197278 0.7079097
-0.0091992738 0.051107109 0.70758772
-0.009187337 0.050020009 0.70726752
-0.0091755437 0.048936248 0.70695114
-0.0091644526 0.047858804 0.70665359
-0.0090986807 0.046504408 0.7048893
-0.0090933898 0.045466959 0.70474738
-0.0090880673 0.044430554 0.70460463
-0.0090823118 0.043393344 0.70445025
-0.0090757953 0.042353719 0.70427549
-0.0090692891 0.041315675 0.70410091
-0.0090627912 0.04027909 0.70392662
-0.0090552466 0.039239407 0.70372427
-0.0090475688 0.038200855 0.70351827
-0.009039578 0.037162721 0.70330393
-0.0090309847 0.036123961 0.70307344
-0.0090219742 0.035085469 0.70283169
-0.0090126572 0.034047812 0.70258182
-0.0090033235 0.033012211 0.70233142
-0.0089940811 0.031978965 0.70208347
-0.0089848209 0.030947745 0.7018351
-0.0089756167 0.02991876 0.70158815
-0.008966431 0.028891832 0.70134175
-0.0089572277 0.02786693 0.70109493
-0.0089480793 0.026844263 0.70084953
-0.0089389505 0.025823653 0.70060462
-0.008929803 0.024805039 0.70035928
-0.0089207115 0.023788601 0.70011532
-0.0089116376 0.02277422 0.69987196
-0.008902546 0.021761835 0.69962806
-0.0088935094 0.020751536 0.6993857
-0.0088844905 0.019743294 0.69914377
-0.0088761896 0.018738627 0.69892108
-0.008867939 0.017735928 0.69869977
-0.0088596689 0.016734928 0.69847798
-0.0088515198 0.015736043 0.69825935
-0.0088434536 0.014739096 0.69804299
-0.0088353688 0.013743937 0.69782609
-0.0088272979 0.012750596 0.6976096
-0.008819242 0.011759013 0.69739354
-0.0088112 0.010769248 0.69717777
-0.0088032084 0.0097813904 0.69696343
-0.0087951953 0.0087952316 0.69674844
-0.0087871989 0.0078108907 0.69653392
-0.0087792147 0.0068283081 0.69631982
-0.0087712472 0.0058475435 0.69610608
-0.0087633273 0.0048685372 0.69589359
-0.0087559316 0.0038915277 0.69569522
-0.0087485155 0.002916187 0.69549632
-0.008741145 0.0019424856 0.69529861
-0.0087337876 0.00097045302 0.69510126
-0.0087264422 2.9802322e-08 0.69490421
-0.0087192785 -0.00096878409 0.69471204
-0.0087121595 -0.0019359887 0.69452107
-0.0087050525 -0.0029016435 0.69433039
-0.0086979577 -0.0038657486 0.69414014
-0.0086908732 -0.0048282444 0.69395012
-0.0086838342 -0.0057891905 0.69376123
-0.0086767739 -0.0067486167 0.69357187
-0.0086697247 -0.0077064037 0.69338274
-0.0086626867 -0.0086627007 0.69319397
-0.0086556599 -0.0096173584 0.69300544
-0.0086487113 -0.010570645 0.69281912
-0.0086418735 -0.011522502 0.69263566
-0.0086351447 -0.012472957 0.69245523
-0.010353488 -0.016105384 0.73854905
-0.010346542 -0.01724422 0.73836273
-0.010339226 -0.018380851 0.73816645
-0.010330308 -0.019512773 0.73792726
-0.010321358 -0.020642728 0.73768711
-0.010312423 -0.021770656 0.7374475
-0.010303505 -0.022896677 0.73720825
-0.010292248 -0.024015218 0.73690629
-0.010280828 -0.025130868 0.73659992
-0.010269387 -0.026243985 0.73629308
