# .PCD v0.7 - Point Cloud Data file format
VERSION 0.7
FIELDS x y z
SIZE 4 4 4
TYPE F F F
COUNT 1 1 1
WIDTH 1339
HEIGHT 1
VIEWPOINT 0 0 0 1 0 0 0
POINTS 1339
DATA ascii
0.00098590902 -0.02070412 0.69884038
0.00099047588 -0.021790445 0.69994289
0.00099601224 -0.0229083 0.70127958
0.0010030485 -0.024073154 0.70297819
0.0010126135 -0.025315344 0.70528746
0.0010321229 -0.026835203 0.70999742
0.0010494014 -0.028333813 0.71416879
0.0010521597 -0.02946043 0.71483469
0.0010571749 -0.030658066 0.7160455
0.0021182883 0.034951806 0.71652091
0.0021097406 0.033755869 0.71548915
0.0021047355 0.03262341 0.71488494
0.0021002386 0.031503618 0.71434212
0.0020910839 0.030320734 0.71323711
0.0020706013 0.028988451 0.71076459
0.0020530066 0.027715623 0.70864069
0.0020383038 0.02649796 0.70686591
0.00202631 0.025328904 0.70541811
0.002023933 0.024287254 0.70513117
0.0020336974 0.023387522 0.70630991
0.0022285611 0.024514198 0.72983205
0.0022888714 0.024033219 0.73711216
0.0022934983 0.022934973 0.73767066
0.0022927416 0.021781057 0.73757929
0.0022874172 0.020586759 0.73693663
0.0019643863 0.016697288 0.69794333
0.0019594093 0.015675277 0.69734257
0.0019548011 0.014661044 0.69678628
0.0019505183 0.013653636 0.69626933
0.0019463757 0.012651443 0.69576931
0.0019427256 0.011656374 0.69532859
0.0019394651 0.010667086 0.69493502
0.0019363577 0.0096818209 0.69455993
0.0019334919 0.0087007284 0.69421405
0.0019309624 0.0077238381 0.69390869
0.0019287294 0.0067505538 0.69363916
0.0019266648 0.0057800412 0.69338989
0.0019245232 0.0048113167 0.69313145
0.0019207922 0.0038416088 0.69268107
0.0019139592 0.0028709471 0.69185627
0.0019037495 0.0019037724 0.69062376
0.0018967206 0.0009483397 0.68977535
0.0018922876 2.9802322e-08 0.68924022
0.0018891512 -0.00094455481 0.68886161
0.001887085 -0.0018870533 0.68861222
0.0018867719 -0.0028301179 0.68857437
0.0018876331 -0.0037752092 0.68867832
0.0018898933 -0.0047247112 0.68895125
0.0018943868 -0.0056831241 0.6894936
0.0019046119 -0.0066661537 0.69072795
0.0019195174 -0.0076780319 0.69252717
0.0019245748 -0.0086605549 0.69313765
0.0019269838 -0.009634912 0.69342846
0.0019292202 -0.0106107 0.69369835
0.0019319763 -0.011591822 0.69403106
0.001934905 -0.012576878 0.69438457
0.0019384958 -0.013569444 0.69481802
0.0019423938 -0.014567941 0.6952886
0.0019467771 -0.015574217 0.69581765
0.0019518958 -0.016591102 0.69643557
0.0019575544 -0.017617971 0.69711864
0.0019639086 -0.018657118 0.69788563
0.0019714918 -0.019714922 0.69880104
0.001980246 -0.020792574 0.69985783
0.001990614 -0.02189672 0.70110923
0.00200331 -0.02303803 0.70264184
0.0020200028 -0.024240047 0.70465684
0.0020467248 -0.025584042 0.7078824
0.0020990139 -0.027287126 0.7141943
0.0021051427 -0.028419405 0.71493411
0.0021125821 -0.029576123 0.71583211
0.0031912941 0.036168039 0.71763641
0.0031741802 0.034916013 0.71625918
0.0031642239 0.033751726 0.71545798
0.0031579533 0.032632202 0.7149533
0.0031481907 0.031481922 0.71416771
0.0031238969 0.03019768 0.71221268
0.0030938415 0.028875858 0.70979404
0.003070527 0.02763477 0.70791781
0.0030512901 0.026444554 0.70636976
0.0030337642 0.02528137 0.70495939
0.003048378 0.024387032 0.70613545
0.0033422462 0.025623888 0.72978413
0.0033607893 0.024645805 0.73127627
0.0034431515 0.024102092 0.73790437
0.0034451431 0.022967637 0.73806465
0.0034400111 0.021786749 0.73765159
0.003431455 0.020588785 0.73696309
0.0029461978 0.016695172 0.69791263
0.0029388492 0.015673906 0.69732124
0.0029323963 0.014661968 0.6968019
0.0029259829 0.01365459 0.69628584
0.0029202907 0.012654603 0.69582778
0.0029151069 0.011660457 0.69541061
0.0029103595 0.010671347 0.69502854
0.0029057283 0.0096857846 0.6946559
0.0029018975 0.0087057054 0.69434762
0.0028983674 0.0077290237 0.69406354
0.0028951364 0.0067553222 0.69380349
0.0028921021 0.0057842135 0.69355929
0.0028877954 0.0048130155 0.69321275
0.0028796957 0.003839612 0.69256091
0.0028652286 0.0028652251 0.69139671
0.0028526722 0.0019017756 0.69038624
0.0028448007 0.0009483099 0.6897527
0.0028388717 5.9604645e-08 0.68927562
0.002835568 -0.00094515085 0.68900979
0.0028341759 -0.0018894076 0.68889779
0.0028342726 -0.0028342307 0.68890548
0.0028368649 -0.003782481 0.68911421
0.002842624 -0.0047376752 0.68957764
0.0028532143 -0.0057063997 0.69042987
0.0028776533 -0.0067145228 0.69239652
0.0028887733 -0.0077033937 0.69329149
0.0028930942 -0.0086792707 0.69363916
0.0028964547 -0.0096548498 0.69390965
0.0029002489 -0.010634243 0.69421494
0.0029045702 -0.011618257 0.69456267
0.0029096373 -0.012608439 0.69497043
0.0029150618 -0.013603598 0.69540697
0.0029216323 -0.014608115 0.69593567
0.0029288377 -0.01562044 0.69651556
0.0029368023 -0.016641855 0.69715649
0.0029462904 -0.017677754 0.69792008
0.0029570048 -0.01872772 0.69878227
0.0029693353 -0.019795537 0.69977456
0.0029838553 -0.020886958 0.70094299
0.0030015761 -0.022011548 0.70236909
0.0030241804 -0.023185372 0.70418811
0.0030566962 -0.024453551 0.70680481
0.0031454596 -0.026212126 0.71394789
0.0031590431 -0.02737835 0.7150411
0.0031674155 -0.028506726 0.71571487
0.0031918369 -0.029790461 0.7176801
0.0042834901 0.037480533 0.71935242
0.0042455452 0.036087126 0.71706223
0.0042294497 0.034892976 0.71609074
0.004219926 0.033759445 0.71551597
0.0042102677 0.032629579 0.71493304
0.0041892058 0.031419069 0.71366185
0.0041468828 0.030064911 0.71110743
0.0041129827 0.028790891 0.70906138
0.0040842774 0.027568877 0.70732886
0.0040602824 0.026391864 0.70588064
0.0040616333 0.025385201 0.70596218
0.004081279 0.024487704 0.70714796
0.0044730403 0.02572 0.73079276
0.0045923013 0.025257677 0.7379908
0.0045996676 0.024148256 0.73843545
0.0045971535 0.022985816 0.73828363
0.0045851264 0.021779358 0.73755777
0.0039377701 0.017719954 0.69848639
0.0039278017 0.016693175 0.69788468
0.0039187418 0.015675008 0.69733787
0.0039101369 0.014663041 0.69681859
0.0039020409 0.013657182 0.69632989
0.0038947209 0.012657881 0.6958881
0.0038882897 0.011664897 0.69549996
0.0038820901 0.010675758 0.69512576
0.0038765257 0.0096913576 0.69478995
0.0038715319 0.0087109804 0.69448853
0.0038670585 0.0077341497 0.69421852
0.003862998 0.0067602694 0.69397342
0.0038584555 0.0057877302 0.69369924
0.0038499199 0.0048124194 0.69318414
0.0038340634 0.0038340688 0.69222713
0.0038145236 0.0028609335 0.69104779
0.0038015975 0.0019008219 0.69026768
0.0037930531 0.0009483099 0.68975186
0.0037876263 2.9802322e-08 0.6894244
0.0037842605 -0.00094604492 0.6892212
0.0037836309 -0.0018917918 0.68918324
0.0037862647 -0.0028396547 0.6893422
0.0037919462 -0.0037919283 0.68968511
0.0038028401 -0.00475353 0.69034255
0.0038277719 -0.005741626 0.69184732
0.0038527956 -0.006742388 0.69335765
0.0038609263 -0.0077218413 0.69384843
0.0038654604 -0.0086972415 0.69412208
0.0038700346 -0.0096750557 0.69439811
0.00387582 -0.010658473 0.69474733
0.0038820447 -0.011646122 0.69512308
0.0038892715 -0.012640148 0.6955592
0.003897497 -0.013641208 0.69605565
0.0039064279 -0.014649093 0.69659472
0.0039170701 -0.015668243 0.69723696
0.0039289733 -0.016698092 0.69795543
0.003942362 -0.017740607 0.69876355
0.00395772 -0.018799156 0.69969046
0.0039761025 -0.019880503 0.70079994
0.0039979601 -0.020989269 0.70211917
0.0040253149 -0.022139221 0.70377016
0.0040629362 -0.023361862 0.7060408
0.0041311844 -0.024787098 0.71015996
0.0042136894 -0.026335537 0.71513957
0.004224861 -0.027461559 0.71581382
0.0042430609 -0.028640658 0.71691233
0.0053289975 0.03730303 0.71812761
0.0053020953 0.036054254 0.7168287
0.0052865217 0.034891039 0.71607673
0.005276198 0.0337677 0.71557832
0.0052583436 0.032601774 0.7147162
0.0052136779 0.031282097 0.71255952
0.0051651318 0.029957771 0.71021557
0.0051261852 0.02870664 0.70833504
0.0050951364 0.027513772 0.70683587
0.0050734379 0.02638191 0.70578814
0.0050979606 0.025489837 0.70697224
0.0055878037 0.026821464 0.73062396
0.0057392176 0.026400447 0.73793483
0.0057551926 0.025322884 0.73870623
0.0057568084 0.024178624 0.73878419
0.0057467325 0.022986948 0.73829764
0.0057336674 0.021787971 0.73766685
0.0049216319 0.017717868 0.69845837
0.0049095782 0.016692579 0.69787633
0.0048987535 0.015676022 0.69735366
0.0048880149 0.014664054 0.69683516
0.0048787682 0.01366052 0.69638872
0.0048702587 0.012662679 0.69597781
0.0048623644 0.011669666 0.69559664
0.0048548533 0.010680705 0.695234
0.0048484555 0.0096969008 0.69492507
0.0048426371 0.0087167919 0.69464409
0.004837356 0.0077398419 0.6943891
0.0048321239 0.006765008 0.6941365
0.0048240176 0.0057888329 0.69374508
0.0048085335 0.0048085451 0.6929974
0.0047829584 0.0038263798 0.69176257
0.004764141 0.0028584898 0.69085401
0.0047519789 0.0019008219 0.69026673
0.0047431323 0.00094863772 0.68983954
0.004737617 -0 0.68957329
0.0047362717 -0.00094723701 0.68950832
0.0047375453 -0.0018949509 0.68956983
0.0047421432 -0.0028452575 0.6897918
0.0047529903 -0.0038023889 0.6903156
0.0047736135 -0.0047735572 0.6913113
0.0048153824 -0.0057784021 0.69332814
0.0048297355 -0.0067616105 0.69402117
0.0048362338 -0.0077379346 0.69433492
0.0048418688 -0.0087153614 0.69460696
0.0048485873 -0.0096971691 0.69493139
0.0048558526 -0.010682851 0.69528216
0.0048647658 -0.011675417 0.69571263
0.0048743389 -0.012673259 0.6961748
0.0048853802 -0.013679028 0.6967079
0.0048980056 -0.014694005 0.69731748
0.0049119499 -0.015718222 0.69799083
0.0049279528 -0.016754985 0.69876349
0.0049467194 -0.017808169 0.69966966
0.0049683712 -0.018879801 0.70071507
0.0049939984 -0.01997599 0.70195252
0.0050253975 -0.02110666 0.7034685
0.0050656307 -0.02228874 0.70541114
0.0051289173 -0.023592979 0.70846689
0.0052664019 -0.025278717 0.71510524
0.0052831508 -0.026415765 0.71591401
0.0053007924 -0.027564079 0.71676576
0.0064321179 0.038592726 0.71962935
0.0063825338 0.037231475 0.71763426
0.0063591721 0.036035329 0.71669424
0.0063456502 0.034901083 0.7161501
0.0063301297 0.033760697 0.71552563
0.0062931608 0.032514662 0.71403813
0.0062288679 0.031144381 0.71145117
0.0061799642 0.029869854 0.70948344
0.0061380905 0.028644443 0.7077986
0.0061019599 0.027458817 0.70634484
0.0061132181 0.026490629 0.70679778
0.0067087207 0.027953029 0.73075902
0.0067348774 0.026939511 0.73181146
0.0069100149 0.026488394 0.73885846
0.0069182953 0.025367111 0.73919165
0.0069122743 0.024192989 0.73894936
0.006893767 0.022979289 0.73820466
0.005920284 0.018747598 0.69903475
0.0059052617 0.017715782 0.6984303
0.0058918875 0.016693681 0.69789213
0.0058789188 0.015677124 0.69737029
0.0058670621 0.01466769 0.69689322
0.0058562355 0.013664573 0.69645762
0.0058466098 0.012667686 0.69607031
0.0058372649 0.011674553 0.69569433
0.0058291727 0.010686845 0.69536871
0.0058218027 0.0097030103 0.69507217
0.0058151945 0.0087227821 0.69480628
0.0058090729 0.0077454448 0.69455993
0.0058014621 0.0067683756 0.69425368
0.0057867905 0.0057867765 0.69366336
0.0057602539 0.0048002303 0.6925956
0.0057323612 0.0038215816 0.69147331
0.00571525 0.0028576553 0.69078481
0.0057023745 0.0019008219 0.69026673
0.0056954725 0.00094926357 0.68998903
0.0056916289 5.9604645e-08 0.68983436
0.0056907446 -0.00094845891 0.68979877
0.0056959703 -0.0018986464 0.69000906
0.0057062549 -0.0028531253 0.69042289
0.0057255174 -0.0038170218 0.69119793
0.0057708616 -0.0048090219 0.69302237
0.0057991087 -0.0057990849 0.69415909
0.0058087585 -0.0067768693 0.6945473
0.0058155544 -0.0077540576 0.69482076
0.0058229091 -0.0087343752 0.6951167
0.0058316183 -0.009719342 0.69546711
0.0058415355 -0.010709465 0.69586611
0.005852445 -0.011704862 0.6963051
0.0058654114 -0.012708366 0.69682682
0.005879587 -0.013718992 0.69739717
0.0058956593 -0.014739126 0.69804388
0.0059144287 -0.015771806 0.69879907
0.005935594 -0.01681751 0.69965076
0.0059599625 -0.017879874 0.70063126
0.0059886621 -0.018964112 0.7017861
0.0060236282 -0.020078748 0.70319301
0.0060682152 -0.021238744 0.70498705
0.0061303196 -0.022477865 0.70748591
0.0063099856 -0.02418825 0.71471512
0.0063425661 -0.02537027 0.71602607
0.0063593336 -0.026497215 0.71670073
0.0064036078 -0.027748972 0.7184822
0.0074748942 0.038442314 0.71862078
0.0074394885 0.037197471 0.71739966
0.0074192854 0.036036551 0.71670294
0.0074046981 0.034907907 0.71619976
0.0073767826 0.03372246 0.71523702
0.0073092324 0.032369494 0.71290731
0.0072435369 0.031043768 0.71064156
0.0071897409 0.02978608 0.70878619
0.0071467562 0.028587013 0.70730376
0.0071270079 0.027489901 0.7066226
0.0071616038 0.026600271 0.70781577
0.0078476742 0.028027445 0.7314775
0.0080615729 0.027639687 0.73885459
0.008080692 0.026550859 0.73951399
0.0080801332 0.025394738 0.73949468
0.0080629094 0.024188727 0.73890066
0.008048309 0.022995204 0.73839712
0.0069061811 0.018745363 0.69900656
0.0068895533 0.01771602 0.6984331
0.0068743536 0.016694874 0.69790888
0.0068595982 0.015679121 0.69739997
0.0068466184 0.014671326 0.69695234
0.0068348879 0.013669819 0.69654775
0.006823862 0.012672931 0.69616753
0.0068136398 0.011680514 0.69581497
0.0068046385 0.010693043 0.69550449
0.0067966366 0.0097095072 0.69522846
0.0067893649 0.0087291896 0.6949777
0.0067817923 0.0077506304 0.69471657
0.0067686602 0.0067686737 0.69426364
0.0067444951 0.0057810247 0.69343019
0.0067083002 0.0047916472 0.69218189
0.0066834409 0.0038191378 0.69132453
0.0066677658 0.0028576255 0.69078398
0.0066568167 0.0019019544 0.69040632
0.0066496888 0.00094997883 0.69016045
0.0066485782 -0 0.69012213
0.0066519617 -0.00095024705 0.69023889
0.0066604121 -0.0019029677 0.6905303
0.0066772234 -0.0028616488 0.69111013
0.0067156828 -0.0038375258 0.69243652
0.0067659663 -0.0048328042 0.69417071
0.0067828428 -0.0058138669 0.69475281
0.0067909965 -0.0067909956 0.69503403
0.0067989328 -0.0077702105 0.69530773
0.0068089245 -0.008754313 0.69565231
0.0068195839 -0.00974226 0.69601989
0.0068323277 -0.010736495 0.69645947
0.0068464843 -0.01173681 0.69694769
0.0068620443 -0.012743771 0.69748437
0.00688062 -0.013761222 0.698125
0.0069011734 -0.01478821 0.69883382
0.0069243121 -0.01582697 0.69963193
0.0069513298 -0.016881794 0.70056367
0.0069832341 -0.017956883 0.70166409
0.0070211142 -0.019057304 0.70297045
0.0070676701 -0.020193309 0.70457613
0.0071321162 -0.021396339 0.70679879
0.0072418004 -0.022759914 0.71058166
0.0074022883 -0.024321765 0.71611667
0.0074221152 -0.02544722 0.71680045
0.0074526588 -0.026616603 0.7178539
0.0085853543 0.039707333 0.71990681
0.0085291201 0.03838107 0.71820992
0.0084992396 0.037184209 0.71730816
0.0084817708 0.036047518 0.71678096
0.0084590074 0.034893423 0.71609402
0.0084022591 0.033609062 0.71438152
0.0083175134 0.032230377 0.71182406
0.0082539525 0.030952334 0.70990592
0.0081997449 0.029724091 0.70827013
0.0081513887 0.028529882 0.70681077
0.0081788357 0.027603567 0.7076391
0.0089711025 0.029156119 0.73154783
0.0090134842 0.028167158 0.73282683
0.0092422841 0.027726889 0.73973143
0.0092495885 0.026592582 0.73995191
0.0092381462 0.02540493 0.73960668
0.0092143714 0.024187773 0.73888916
0.0079119354 0.019779861 0.69958466
0.007891844 0.018743157 0.69897836
0.0078743016 0.017717212 0.69844896
0.0078569595 0.016696066 0.69792563
0.007841507 0.015683025 0.69745928
0.0078272773 0.014676183 0.69702983
0.0078144725 0.013675332 0.69664347
0.0078019523 0.012678206 0.69626564
0.0077915345 0.011687338 0.69595128
0.0077818404 0.010700047 0.69565868
0.0077731661 0.0097164512 0.6953969
0.0077649634 0.0087355971 0.69514936
0.0077534416 0.0077534616 0.69480169
0.0077316072 0.0067651868 0.69414276
0.0076925596 0.0057694316 0.69296443
0.0076587074 0.0047867298 0.69194281
0.0076375189 0.0038187802 0.69130343
0.0076216683 0.0028581321 0.6908251
0.0076127681 0.0019032359 0.69055647
0.007609237 0.00095117092 0.69044995
0.0076098442 -0 0.69046831
0.0076168817 -0.00095209479 0.69068062
0.007632975 -0.0019082427 0.69116628
0.007662578 -0.0028734207 0.69205964
0.0077292481 -0.0038645864 0.69407159
0.0077570179 -0.0048481226 0.69490957
0.0077682179 -0.0058261454 0.69524765
0.0077773342 -0.0068051517 0.69552279
0.0077878051 -0.0077877939 0.69583881
0.0077995202 -0.0087744296 0.6961922
0.0078134956 -0.0097668469 0.69661403
0.0078285318 -0.010764211 0.69706774
0.0078463331 -0.011769474 0.69760495
0.0078662243 -0.012782574 0.69820517
0.0078882361 -0.013804376 0.69886947
0.0079140319 -0.014838815 0.6996479
0.0079437466 -0.015887469 0.7005446
0.0079780081 -0.01695323 0.70157856
0.0080185691 -0.01804176 0.7028026
0.0080681872 -0.01916191 0.70429999
0.008131749 -0.020329326 0.70621812
0.0082291104 -0.021601409 0.70915627
0.0084561119 -0.023254275 0.71600664
0.0084857624 -0.024396539 0.71690142
0.0085124699 -0.025537372 0.7177074
0.0096290326 0.039586037 0.71911585
0.0095866006 0.03834641 0.71797764
0.0095629441 0.037189245 0.71734303
0.0095429625 0.036051214 0.71680701
0.0095028076 0.034843653 0.71572983
0.0094105853 0.033459872 0.71325606
0.0093290564 0.03213343 0.71106905
0.0092610624 0.030870259 0.70924515
0.0092061944 0.029664397 0.70777333
0.0091946535 0.02860561 0.70746374
0.0092394007 0.027718216 0.70866406
0.010125212 0.029250622 0.73242563
0.010399442 0.028887361 0.73978174
0.010419752 0.027786016 0.74032652
0.010415365 0.02661708 0.74020886
0.010389989 0.025397778 0.73952818
0.0089226197 0.020819455 0.70016658
0.0088998713 0.019777477 0.69955635
0.0088788494 0.01874423 0.69899249
0.0088592162 0.017718434 0.69846576
0.0088406755 0.016699076 0.69796842
0.008823907 0.015686989 0.69751865
0.0088090636 0.014681756 0.69712049
0.0087949205 0.013681024 0.6967411
0.0087821605 0.012685359 0.69639879
0.0087706316 0.011694223 0.69608957
0.008760497 0.010707289 0.69581771
0.0087512359 0.0097236037 0.69556928
0.0087409755 0.0087409914 0.69529402
0.0087216431 0.0077525973 0.69477546
0.0086855097 0.0067554414 0.69380617
0.0086409776 0.0057606995 0.69261158
0.0086116968 0.004784286 0.69182611
0.0085922088 0.0038187802 0.69130343
0.0085799964 0.0028599799 0.69097584
0.0085726129 0.0019050539 0.69077778
0.0085711777 0.00095236301 0.69073927
0.0085775778 -0 0.690911
0.0085911276 -0.00095453858 0.6912744
0.0086171012 -0.0019149184 0.69197112
0.0086768074 -0.0028922558 0.6935727
0.0087304348 -0.003880173 0.69501126
0.0087472238 -0.0048595369 0.69546163
0.008757499 -0.0058383048 0.69573724
0.0087682065 -0.0068196654 0.69602454
0.0087814061 -0.0078056753 0.69637859
0.0087959524 -0.008795917 0.6967687
0.0088124415 -0.0097916126 0.69721115
0.0088316258 -0.010794193 0.69772565
0.0088525284 -0.011803359 0.69828641
0.0088768192 -0.012822062 0.69893801
0.0089046229 -0.013851613 0.69968385
0.0089360047 -0.014893323 0.70052564
0.0089721112 -0.015950412 0.70149416
0.0090146055 -0.017027557 0.70263404
0.0090663675 -0.018132716 0.70402253
0.0091323378 -0.019279361 0.70579219
0.0092223333 -0.020494014 0.70820624
0.0094835563 -0.022128254 0.71521342
0.0095508965 -0.023346603 0.7170198
0.0095760403 -0.024472088 0.71769428
0.0096355425 -0.025694788 0.71929049
0.010746075 0.040835083 0.72025406
0.010685307 0.039535671 0.71878701
0.010650055 0.038340271 0.71793592
0.010628518 0.037199825 0.71741605
0.010596824 0.03602919 0.71665084
0.010517394 0.034707427 0.71473324
0.010414204 0.033325464 0.71224201
0.010335043 0.032038689 0.7103309
0.01026933 0.030808002 0.70874447
0.010209069 0.029606313 0.70728958
0.010258634 0.028724223 0.7084862
0.011247758 0.030368924 0.73236585
0.011312298 0.029412031 0.73392397
0.011587368 0.028968453 0.74056476
0.01159365 0.027824759 0.7407164
0.011574984 0.026622504 0.74026579
0.011546457 0.025402218 0.739577
0.0099128438 0.020816982 0.70013815
0.0098880045 0.019776016 0.69953847
0.0098660896 0.018745601 0.69900936
0.0098442705 0.017719746 0.69848263
0.009825442 0.016703278 0.69802809
0.0098079164 0.015692681 0.69760501
0.009791947 0.014687985 0.69721937
0.0097766025 0.013687253 0.69684899
0.0097636301 0.01269272 0.69653577
0.0097516803 0.011702061 0.69624728
0.0097410483 0.010715187 0.69599068
0.0097304406 0.0097304583 0.6957345
0.0097141564 0.0087427497 0.69534135
0.0096828751 0.0077463388 0.69458616
0.0096310619 0.0067417622 0.69333524
0.0095930239 0.0057558417 0.69241697
0.0095685152 0.004784286 0.69182527
0.0095507978 0.0038203597 0.69139755
0.0095396182 0.0028618872 0.69112766
0.0095371809 0.0019074678 0.69106889
0.0095402002 0.00095403194 0.69114172
0.0095501784 -0 0.69138265
0.0095721763 -0.00095719099 0.69191372
0.0096183978 -0.0019236505 0.69302952
0.0096993921 -0.0029098094 0.69498497
0.0097268838 -0.0038907528 0.69564867
0.009739494 -0.0048697591 0.69595313
0.0097509194 -0.0058505237 0.69622892
0.0097648492 -0.0068353713 0.69656521
0.0097796982 -0.0078237057 0.69692373
0.0097980443 -0.0088182092 0.69736665
0.0098179234 -0.0098178983 0.69784659
0.0098403217 -0.010824293 0.69838727
0.0098664779 -0.011839747 0.69901878
0.0098955128 -0.012864143 0.69971967
0.0099281063 -0.013899326 0.70050663
0.0099669872 -0.014950424 0.70144522
0.0100121 -0.016019315 0.70253444
0.010065636 -0.01711154 0.70382684
0.010131467 -0.018236607 0.7054162
0.01022033 -0.019418597 0.70756149
0.010368066 -0.020736128 0.71112818
0.010614448 -0.022290289 0.71707636
0.010644254 -0.023417324 0.71779591
0.010685991 -0.024577767 0.71880358
0.011791458 0.040734142 0.71961272
0.011744908 0.039505601 0.71859109
0.011717355 0.038347721 0.71798635
0.011691022 0.037198722 0.71740842
0.011635315 0.035963714 0.71618575
0.011517712 0.03455317 0.71360463
0.011421677 0.033226728 0.71149695
0.011340814 0.031960487 0.70972216
0.011273542 0.030746043 0.70824581
0.011276453 0.02972886 0.70830965
0.011331519 0.02884391 0.70951831
0.012420389 0.030486405 0.73341608
0.01275077 0.030138224 0.7406671
0.012770236 0.02902329 0.74109435
0.01276236 0.027845144 0.7409215
0.012727712 0.02661249 0.74016106
0.010930764 0.021861553 0.70072269
0.010902832 0.020814508 0.70010972
0.010877535 0.019777358 0.69955444
0.010853468 0.018746942 0.69902623
0.010831255 0.017723918 0.69853878
0.010810873 0.016707748 0.69809139
0.010792982 0.01569888 0.69769877
0.010775612 0.014694005 0.69731754
0.010760528 0.01369524 0.6969865
0.01074662 0.012700588 0.69668126
0.010734421 0.011710286 0.69641352
0.010723044 0.010723054 0.69616383
0.010709024 0.0097354949 0.69585609
0.010681881 0.0087397099 0.69526041
0.010632643 0.0077328384 0.69417977
0.010580889 0.0067333281 0.69304383
0.010549252 0.0057541728 0.69234955
0.010525366 0.004784286 0.69182527
0.010512781 0.0038228631 0.69154906
0.010505958 0.0028652549 0.69139934
0.010504795 0.0019099712 0.69137383
0.010514509 0.00095587969 0.69158691
0.010534351 -0 0.6920225
0.01057154 -0.00096103549 0.69283867
0.010659084 -0.0019380152 0.69476002
0.010706482 -0.0029199421 0.6958003
0.010723254 -0.0038993359 0.69616836
0.010735887 -0.0048799217 0.6964457
0.010749894 -0.0058635175 0.69675308
0.010766085 -0.0068511367 0.69710845
0.010784945 -0.0078435838 0.6975224
0.010805229 -0.0088406205 0.69796753
0.010829848 -0.0098452866 0.69850785
0.010856851 -0.010856837 0.69910049
0.010886744 -0.011876434 0.69975656
0.010922435 -0.01290831 0.70053989
0.010962812 -0.013952643 0.70142609
0.011009389 -0.015012741 0.70244831
0.011064498 -0.01609382 0.70365781
0.0111319 -0.017203808 0.70513713
0.011218165 -0.018356979 0.70703042
0.011346611 -0.019598663 0.70984948
0.01166827 -0.021215022 0.71690905
0.011713265 -0.022361666 0.71789652
0.011747818 -0.023495585 0.71865487
0.012920208 0.041990697 0.72075546
0.01285124 0.040695608 0.71936792
0.012811424 0.039501876 0.71856689
0.01278589 0.038357675 0.7180531
0.012743988 0.037169993 0.71721017
0.012638459 0.03580898 0.71508712
0.012518566 0.034426093 0.71267503
0.012423248 0.033128679 0.71075737
0.012346813 0.031895936 0.70921957
0.012292768 0.030731946 0.70813227
0.012352808 0.029852659 0.70934016
0.013539921 0.031593174 0.73322308
0.013907611 0.03129214 0.74062049
0.013945534 0.030215353 0.74138343
0.01394819 0.029058725 0.74143684
0.013922059 0.027844131 0.74091107
0.013892294 0.026626915 0.74031222
0.011923049 0.02185896 0.70069408
0.011893669 0.020813912 0.70010304
0.011867247 0.019778758 0.69957143
0.011841455 0.018748969 0.69905257
0.011818891 0.017728359 0.69859868
0.011798177 0.016714096 0.69818187
0.011779105 0.015705496 0.69779819
0.0117612 0.014701486 0.697438
0.011745554 0.013703138 0.69712329
0.011731465 0.012709111 0.69683975
0.011718918 0.011718929 0.69658732
0.011705757 0.010730296 0.69632256
0.011683208 0.0097360015 0.69586891
0.011641257 0.008730948 0.69502491
0.011578446 0.0077190101 0.69376123
0.011535336 0.006728977 0.69289398
0.011508275 0.0057541728 0.69234955
0.011489512 0.0047873259 0.69197208
0.011477477 0.0038258731 0.6917299
0.011475546 0.0028688908 0.69169104
0.011481954 0.0019136965 0.69181997
0.011497477 0.00095814466 0.69213229
0.01152816 -0 0.69274962
0.011598844 -0.00096654892 0.69417167
0.011681526 -0.0019468963 0.69583511
0.011708634 -0.0029271543 0.69638044
0.011722623 -0.0039075315 0.69666189
0.011736464 -0.0048901737 0.6969403
0.011754201 -0.0058770776 0.69729722
0.011773145 -0.0068676472 0.69767833
0.011795303 -0.0078634918 0.69812411
0.011820474 -0.0088653266 0.69863045
0.011847904 -0.0098732412 0.69918233
0.011880537 -0.010890484 0.69983882
0.011917133 -0.011917114 0.70057511
0.011958479 -0.01295501 0.70140696
0.012006016 -0.014006972 0.70236325
0.012062408 -0.015077978 0.70349777
0.012130152 -0.016173512 0.70486069
0.012216733 -0.017307013 0.70660257
0.012334841 -0.018502235 0.70897877
0.012580995 -0.019919872 0.7139309
0.012783984 -0.021306634 0.71801484
0.012817824 -0.022431165 0.71869564
0.012887761 -0.023627579 0.72010267
0.014088933 0.043350607 0.72246474
0.013966419 0.041899294 0.72018951
0.01391354 0.040670365 0.71920753
0.013882598 0.039512008 0.71863288
0.013849257 0.038351834 0.71801376
0.01377278 0.037080586 0.71659344
0.013630724 0.035649598 0.71395534
0.013521521 0.034323871 0.71192741
0.013428567 0.033054948 0.71020114
0.013348759 0.031831652 0.70871902
0.01337258 0.030859828 0.7091614
0.014675396 0.032737434 0.73335582
0.014734503 0.031735837 0.7344535
0.01511672 0.03139627 0.74155164
0.015133602 0.030267209 0.74186516
0.015118687 0.02907443 0.74158818
0.015078454 0.027837187 0.74084097
0.01294821 0.02290839 0.70128047
0.012915098 0.021856338 0.70066559
0.012885676 0.020815343 0.70011914
0.012857098 0.019780189 0.69958842
0.012831482 0.018753737 0.69911265
0.012807683 0.017733723 0.69867074
0.012786634 0.01672098 0.69827992
0.012766006 0.015712053 0.69789684
0.012748742 0.014710128 0.69757617
0.012732571 0.013712019 0.69727588
0.012718379 0.012718409 0.69701231
0.012704867 0.011727571 0.69676137
0.012686035 0.010734349 0.69641167
0.012650261 0.0097309947 0.69574732
0.012585984 0.0087133944 0.69455361
0.012530365 0.0077109933 0.69352072
0.012495655 0.0067284405 0.6928761
0.012469832 0.0057553053 0.69239652
0.012455171 0.0047904551 0.69212431
0.012449735 0.0038307309 0.6920234
0.012451308 0.0028734207 0.69205254
0.012462902 0.001917392 0.69226789
0.012490279 0.00096082687 0.69277632
0.012540705 -0 0.69371277
0.01265159 -0.00097316504 0.69577199
0.012693562 -0.001952827 0.69655144
0.012711222 -0.0029333234 0.69687939
0.012726194 -0.0039157271 0.6971575
0.012743847 -0.004901439 0.69748527
0.01276315 -0.0058906674 0.69784373
0.012786685 -0.0068851113 0.69828081
0.012812072 -0.0078843534 0.69875228
0.012841412 -0.0088902116 0.69929713
0.012874963 -0.0099037886 0.6999203
0.012912175 -0.010925651 0.70061129
0.012954709 -0.011958182 0.70140117
0.013004905 -0.013004869 0.70233333
0.013062936 -0.014067739 0.7034111
0.01313182 -0.015152067 0.70469028
0.013216401 -0.016266316 0.70626098
0.013327753 -0.017428577 0.70832896
0.013508043 -0.018703431 0.71167707
0.013850849 -0.020243526 0.71804327
0.013891492 -0.021371484 0.71879804
0.013943306 -0.022523761 0.71976024
0.015102759 0.043150783 0.72125864
0.015026883 0.04186064 0.7199502
0.014983428 0.040669352 0.71920085
0.014954001 0.039521307 0.71869349
0.014899991 0.038314283 0.71776205
0.014765444 0.036913633 0.71544188
0.014630127 0.035530359 0.71310842
0.014519565 0.034224719 0.71120185
0.014432276 0.032988071 0.70969653
0.014390885 0.031865567 0.70898283
0.014461413 0.030988753 0.71019906
0.015847679 0.032827318 0.73410439
0.016279923 0.032559872 0.74155807
0.016317466 0.031469434 0.7422055
0.016314881 0.030299097 0.74216092
0.016278183 0.029068232 0.74152815
0.013978563 0.023963273 0.70187259
0.013942561 0.022905648 0.7012518
0.013908844 0.021856755 0.70067036
0.013877871 0.020816803 0.70013624
0.01384846 0.019783527 0.69962907
0.01382201 0.018758476 0.69917297
0.013798269 0.017740637 0.69876349
0.013775962 0.016727984 0.69837886
0.013755782 0.015720934 0.69803089
0.013737438 0.014718711 0.69771457
0.013721454 0.013721496 0.6974389
0.013706848 0.012727827 0.69718701
0.013690774 0.011734992 0.6969099
0.013660499 0.010733247 0.69638777
0.013603621 0.0097168982 0.69540697
0.013533502 0.0087001324 0.69419777
0.013487536 0.0077071488 0.69340515
0.013456859 0.0067284405 0.6928761
0.013437911 0.00575912 0.69254941
0.013426682 0.0047952235 0.69235575
0.013424416 0.0038355589 0.69231665
0.013435128 0.0028789937 0.69250137
0.013457428 0.001922518 0.69288594
0.013500169 0.00096431375 0.69362301
0.013599765 -0 0.69534051
0.013677089 -0.00097689033 0.69667387
0.013701594 -0.0019573867 0.69709641
0.013717799 -0.0029395223 0.69737589
0.013735121 -0.0039242804 0.69767457
0.01375589 -0.0049127936 0.69803274
0.013779378 -0.0059054494 0.69843781
0.013805392 -0.0069026649 0.69888639
0.013836315 -0.0079064369 0.69941962
0.013870122 -0.0089164972 0.70000261
0.013908401 -0.0099345744 0.70066273
0.013953337 -0.010963321 0.70143759
0.014004163 -0.012003541 0.70231402
0.014062751 -0.013058215 0.70332438
0.014132031 -0.014132023 0.70451915
0.014216756 -0.015232235 0.70598
0.01432508 -0.016371518 0.70784813
0.014481624 -0.017584801 0.71054757
0.014903034 -0.019161046 0.71781451
0.01496627 -0.020311326 0.71890497
0.015007181 -0.021438837 0.71961051
0.016274087 0.044482529 0.7227484
0.016151581 0.043070883 0.72077668
0.016092569 0.041840702 0.71982694
0.016058551 0.04068169 0.71927929
0.016017221 0.039509147 0.71861422
0.015913503 0.038192421 0.71694493
0.015749872 0.03674975 0.71431124
0.015628526 0.03542468 0.71235824
0.015524371 0.03415364 0.71068186
0.015431929 0.032921463 0.70919406
0.015483185 0.031998634 0.71001899
0.016983038 0.033966094 0.73415875
0.017065598 0.032993525 0.73548752
0.017497592 0.032662213 0.74244034
0.017510002 0.031518012 0.74264014
0.017486259 0.030309558 0.74225795
0.017441558 0.029069304 0.74153852
0.014975121 0.023960233 0.70184183
0.014936734 0.022902966 0.70122403
0.014903397 0.021858305 0.70068747
0.014870266 0.020818412 0.70015424
0.014841392 0.019788563 0.69968951
0.014814324 0.018764853 0.6992538
0.014790093 0.017748147 0.69886386
0.014766639 0.016735554 0.69848633
0.014746909 0.015730053 0.69816881
0.014728504 0.014728516 0.69787258
0.014712451 0.013731629 0.69761425
0.014696376 0.012736857 0.69735551
0.014671841 0.011737496 0.69696063
0.014624442 0.010724604 0.69619775
0.014545649 0.0096971095 0.6949296
0.014488033 0.0086928308 0.69400227
0.014450931 0.0077071488 0.69340515
0.014424325 0.0067313612 0.69297695
0.014407324 0.0057629347 0.69270325
0.014404061 0.0048013628 0.69265079
0.014409316 0.0038425326 0.69273531
0.014425489 0.0028851032 0.69299567
0.014459005 0.0019278824 0.69353509
0.014535959 0.00096908212 0.69477361
0.014653452 -0 0.69666463
0.014692866 -0.00097948313 0.697299
0.014711183 -0.0019614995 0.69759387
0.014728561 -0.0029456615 0.69787347
0.014750271 -0.0039333701 0.69822294
0.014773383 -0.0049244463 0.69859493
0.014801294 -0.0059204698 0.69904411
0.01483224 -0.0069216788 0.69954222
0.014866319 -0.0079286993 0.70009071
0.014907009 -0.0089441836 0.70074564
0.014952268 -0.0099681616 0.70147407
0.01500326 -0.011002362 0.70229471
0.015062456 -0.012049913 0.70324749
0.015132914 -0.013115168 0.70438147
0.015216735 -0.014202267 0.70573056
0.015321544 -0.015321553 0.70741749
0.015466784 -0.01649788 0.709755
0.015736664 -0.017834872 0.71409869
0.016042212 -0.019250631 0.71901643
0.016084982 -0.020374298 0.71970475
0.016160484 -0.021547258 0.72091997
0.017293779 0.044315338 0.72176385
0.017212424 0.043031096 0.72053635
0.017166881 0.041844308 0.71984911
0.017131833 0.040688127 0.7193203
0.017061876 0.039455593 0.71826482
0.016898302 0.038021207 0.71579659
0.016749039 0.036638528 0.71354437
0.016625145 0.035328478 0.71167499
0.01652576 0.034084439 0.7101754
0.01650355 0.033007115 0.70984018
0.016584644 0.032132804 0.71106386
0.018175697 0.034079462 0.73507094
0.018668015 0.033835769 0.74249947
0.018702729 0.032729805 0.74302328
0.018693732 0.031545699 0.74288756
0.018646101 0.030299932 0.74216884
0.01601276 0.025019974 0.70243478
0.015971549 0.023957312 0.70181298
0.015933596 0.022904575 0.7012403
0.015898094 0.021859884 0.70070463
0.015865201 0.020823091 0.70020837
0.015834825 0.01979357 0.69974995
0.01580831 0.018772393 0.69934988
0.015782692 0.017755508 0.69896334
0.015760321 0.016745359 0.6986258
0.015739562 0.01573959 0.69831252
0.015721695 0.014739096 0.69804299
0.015704919 0.013741791 0.69778979
0.015684366 0.012743562 0.69747972
0.015644582 0.011733472 0.69687939
0.015572096 0.010705829 0.6957857
0.015495839 0.0096849203 0.69463503
0.015449547 0.008690387 0.69393659
0.015414327 0.0077071488 0.69340515
0.015396126 0.0067358315 0.69313049
0.015386539 0.005769968 0.69298583
0.015385534 0.0048080385 0.69297069
0.015399856 0.0038499534 0.69318682
0.015430251 0.0028932095 0.69364542
0.015487085 0.0019358993 0.69450295
0.015620284 0.00097629428 0.69651282
0.015682828 -0 0.69745648
0.015706459 -0.00098162889 0.69781303
0.015725031 -0.0019655824 0.6980933
0.015746186 -0.0029524267 0.69841248
0.015770134 -0.0039425492 0.69877386
0.015798515 -0.0049370229 0.69920206
0.015829191 -0.0059359372 0.69966489
0.015865577 -0.0069411397 0.70021397
0.015906306 -0.0079531074 0.70082849
0.015951438 -0.0089726746 0.70150954
0.016004244 -0.010002643 0.70230639
0.016065331 -0.01104489 0.703228
0.016135983 -0.012102008 0.70429415
0.016219806 -0.013178587 0.7055589
0.016322788 -0.014282405 0.70711273
0.016455041 -0.015426576 0.70910835
0.016663903 -0.016663909 0.71225977
0.017111253 -0.018180698 0.71900976
0.017164156 -0.01930964 0.71980804
0.017224794 -0.020454437 0.72072291
0.018463982 0.045616895 0.72303265
0.018346582 0.044247687 0.72136545
0.018282933 0.043018669 0.72046155
0.018245287 0.041856885 0.71992683
0.018192917 0.040666521 0.71918321
0.018060654 0.039308488 0.71730494
0.017880097 0.037863761 0.71474075
0.017742846 0.036529392 0.71279162
0.017628269 0.035256535 0.71116447
0.017523533 0.034016311 0.7096771
0.017608417 0.033145279 0.71088254
0.019306593 0.035206139 0.73499882
0.019426793 0.034282595 0.73670578
0.019889493 0.033929199 0.74327666
0.019898612 0.03277421 0.74340618
0.019865058 0.031550407 0.7429297
0.019817483 0.030309111 0.74225402
0.017011516 0.025016934 0.70240581
0.016968621 0.023955733 0.70179665
0.016930658 0.022906184 0.70125753
0.016893402 0.02186209 0.70072842
0.016861053 0.020828366 0.7002691
0.016830828 0.019800991 0.69983983
0.01680343 0.018780291 0.69945073
0.016777644 0.017764598 0.69908452
0.016755171 0.016755193 0.6987654
0.016734602 0.015750259 0.69847327
0.016716711 0.014750093 0.69821918
0.016697809 0.013751119 0.69795078
0.016665747 0.012744427 0.69749546
0.016605623 0.011721671 0.69664162
0.016515605 0.010686606 0.69536322
0.016453756 0.0096786916 0.69448495
0.016415143 0.008690387 0.69393659
0.016388578 0.0077122748 0.69355929
0.016371796 0.0067413449 0.69332099
0.016369024 0.0057772994 0.69328159
0.016378984 0.0048173368 0.69342303
0.01640242 0.0038594007 0.69375587
0.016448665 0.0029027164 0.69441259
0.016555658 0.0019477308 0.69593203
0.016667707 0.0009804666 0.6975233
0.016703317 2.9802322e-08 0.69802898
0.01672335 -0.00098368526 0.69831347
0.016743761 -0.0019698143 0.69860327
0.016769176 -0.0029592514 0.69896424
0.01679706 -0.0039522052 0.69936025
0.016828896 -0.0049496293 0.69981235
0.016865868 -0.0059526265 0.70033735
0.016906295 -0.0069614053 0.70091152
0.016953131 -0.0079779327 0.70157665
0.017007025 -0.009003669 0.70234203
0.017068043 -0.010040015 0.70320857
0.017138334 -0.011089474 0.70420671
0.017221471 -0.012156308 0.70538741
0.017322971 -0.013246953 0.70682883
0.017452775 -0.014372855 0.70867223
0.017634189 -0.015559584 0.71124858
0.018155562 -0.017087549 0.71865267
0.018244894 -0.018244863 0.71992135
0.018293945 -0.019370079 0.72061789
0.018434772 -0.020603538 0.72261781
0.019493315 0.045484394 0.72227103
0.019409131 0.044209689 0.72114193
0.019361647 0.043025941 0.72050506
0.019319037 0.041857928 0.71993357
0.019231582 0.040600032 0.71876055
0.019037191 0.039132029 0.71615338
0.01887521 0.037750453 0.71398079
0.018739561 0.036438048 0.71216148
0.018627318 0.03518495 0.71065605
0.018630786 0.034156471 0.71070254
0.018722653 0.033284724 0.71193469
0.020523703 0.035346419 0.7360909
0.021068331 0.035113901 0.74339557
0.021098832 0.033992589 0.74380469
0.021083422 0.032796472 0.74359804
0.02102554 0.031538337 0.74282169
0.018056538 0.026081681 0.70300055
0.018010033 0.025013953 0.70237684
0.017967993 0.023957312 0.70181298
0.017927865 0.022907853 0.70127475
0.017891681 0.021867663 0.70078945
0.017857837 0.020834148 0.70033556
0.017828284 0.019809216 0.69993913
0.017799322 0.018788189 0.69955069
0.017774941 0.017774999 0.6992237
0.017751889 0.016765714 0.69891453
0.017732177 0.015761942 0.69865012
0.017713135 0.014761001 0.69839478
0.017687047 0.013756633 0.69804484
0.017636964 0.01273784 0.69737303
0.017546868 0.011697948 0.69616473
0.017468998 0.01067555 0.69512028
0.017420545 0.0096780956 0.69447047
0.017384699 0.0086923838 0.69398963
0.01736412 0.007717371 0.69371367
0.017357025 0.0067499578 0.69361848
0.017360037 0.0057866871 0.69365889
0.017376315 0.0048267543 0.69387722
0.017415963 0.003870219 0.69440901
0.017489081 0.0029148757 0.69538963
0.017646085 0.0019606948 0.69749546
0.0176997 0.00098332763 0.69821453
0.017723452 5.9604645e-08 0.69853318
0.017744474 -0.00098580122 0.69881511
0.017769821 -0.0019744039 0.69915509
0.01779693 -0.0029661357 0.69951862
0.017830685 -0.003962338 0.69997132
0.017867189 -0.0049630702 0.70046097
0.0179084 -0.0059694648 0.70101368
0.017956601 -0.0069831312 0.70166022
0.018010177 -0.0080045164 0.70237875
0.018070595 -0.0090352595 0.70318907
0.018142086 -0.010078937 0.70414799
0.018225791 -0.011137962 0.70527065
0.018325474 -0.012216985 0.70660764
0.018448293 -0.013323724 0.70825493
0.018618384 -0.014480948 0.71053624
0.018911038 -0.0157592 0.71446139
0.019325834 -0.017178476 0.7200247
0.019377811 -0.018301249 0.72072184
0.019461555 -0.019461513 0.72184503
0.020668069 0.046775132 0.72343743
0.020551635 0.045429975 0.72195792
0.020484501 0.04420343 0.72110486
0.02044292 0.043037742 0.72057652
0.020378066 0.041828692 0.71975255
0.020213764 0.040427536 0.71766484
0.020018395 0.038983226 0.71518236
0.019864466 0.037637949 0.71322656
0.019740311 0.036363751 0.71164894
0.019651601 0.035166025 0.71052182
0.019748513 0.034300089 0.71175313
0.021646645 0.036457509 0.73587155
0.022235775 0.03627944 0.7433573
0.022295119 0.035202831 0.7441113
0.02229742 0.034032941 0.74414057
0.022252327 0.032792956 0.74356759
0.02220835 0.031559229 0.74300879
0.019057387 0.026078552 0.70297146
0.019010209 0.025013447 0.70237195
0.018967653 0.02395916 0.70183122
0.01892687 0.022911489 0.70131302
0.018890465 0.021873176 0.70085049
0.018857416 0.020842463 0.70043051
0.018826719 0.019817621 0.70004046
0.018798724 0.018798739 0.69968474
0.018773481 0.0177854 0.69936407
0.018751338 0.016777545 0.69908267
0.018731164 0.015773654 0.69882631
0.018709268 0.014770448 0.69854814
0.018667828 0.013755232 0.69802159
0.018589783 0.012719333 0.69702989
0.018493375 0.011680067 0.69580489
0.018430561 0.010670334 0.69500679
0.018388283 0.009678036 0.69446957
0.01836271 0.0086981654 0.69414455
0.018347895 0.0077254474 0.69395638
0.01834471 0.0067586005 0.69391584
0.018360298 0.005798012 0.69411391
0.018392267 0.004840076 0.69452018
0.018453529 0.0038849413 0.69529855
0.018598584 0.0029366314 0.69714177
0.018693743 0.0019678175 0.69835079
0.01872541 0.0009855628 0.69875324
0.018747713 -2.9802322e-08 0.6990366
0.018772146 -0.00098797679 0.69934702
0.018800732 -0.0019789934 0.69971025
0.018833879 -0.0029737353 0.70013148
0.018869618 -0.0039725602 0.7005856
0.018913014 -0.004977107 0.70113695
0.018960768 -0.0059876144 0.70174384
0.01901363 -0.0070049763 0.70241547
0.019076737 -0.0080322623 0.70321733
0.019148435 -0.009070307 0.70412838
0.019231485 -0.010121793 0.70518363
0.019329868 -0.011190921 0.70643365
0.019450728 -0.012284636 0.70796937
0.019605804 -0.013414472 0.7099399
0.019844314 -0.014622092 0.71297044
0.020392753 -0.016099542 0.71993917
0.020462545 -0.017231613 0.72082591
0.020530863 -0.018369704 0.72169399
0.021617783 0.045397341 0.72177064
0.021567559 0.044213504 0.72116435
0.021516735 0.043033481 0.72055084
0.021404989 0.041739762 0.71920204
0.021182075 0.04024598 0.71651119
0.021008823 0.038866371 0.71441984
0.020862276 0.037552118 0.71265084
0.020736992 0.036289752 0.71113849
0.020772805 0.035313815 0.71157086
0.022796739 0.037614644 0.73600191
0.022891544 0.036626518 0.73714626
0.023483858 0.03639999 0.74429607
0.023508241 0.035262376 0.74459046
0.023482315 0.034049362 0.74427748
0.023420323 0.032788485 0.7435292
0.020109992 0.027148485 0.70357001
0.020058075 0.026075542 0.70294333
0.020012187 0.025015235 0.70238942
0.019967385 0.023960859 0.70184851
0.0199281 0.02291733 0.70137441
0.019891024 0.02188015 0.70092678
0.019858262 0.020851195 0.70053136
0.019826474 0.019826442 0.70014763
0.019799799 0.018809795 0.69982564
0.019774523 0.017797083 0.69952047
0.019752899 0.016789943 0.69925952
0.019731244 0.015785009 0.69899809
0.019698387 0.014773816 0.69860148
0.019634537 0.013744175 0.69783074
0.019528098 0.012693256 0.6965459
0.019450441 0.011670262 0.6956085
0.019400515 0.010670304 0.69500583
0.019365 0.0096825063 0.69457722
0.019342018 0.0087039173 0.69429976
0.019338282 0.0077353418 0.69425464
0.019346282 0.0067712367 0.6943512
0.019369572 0.0058109164 0.69463241
0.01941723 0.0048543513 0.6952076
0.019527869 0.0039055943 0.69654316
0.019678863 0.0029518604 0.69836581
0.019728754 0.0019729435 0.69896805
0.019752743 0.00098767877 0.69925761
0.01977632 2.9802322e-08 0.69954222
0.019806225 -0.00099030137 0.69990319
0.019838264 -0.0019837916 0.70028996
0.019876089 -0.0029813945 0.70074654
0.019918818 -0.0039837658 0.70126235
0.019965552 -0.0049913526 0.70182645
0.020021155 -0.0060063004 0.7024976
0.020083839 -0.007029295 0.70325428
0.020154705 -0.008061856 0.70410967
0.020236382 -0.0091063678 0.70509565
0.020332925 -0.010166436 0.70626104
0.020450767 -0.011247873 0.7076835
0.020601407 -0.012360841 0.70950186
0.020807272 -0.013524681 0.71198684
0.021411309 -0.014987946 0.71927834
0.021549353 -0.016161978 0.72094464
0.021607235 -0.017285764 0.72164333
0.021756997 -0.018493444 0.72345114
0.0226516 0.04422456 0.72122943
0.022572963 0.042996168 0.72032547
0.022373021 0.041549951 0.71802688
0.022164052 0.040106416 0.71562451
0.021993607 0.038750678 0.71366501
0.021860637 0.037475377 0.71213639
0.021795701 0.03632617 0.7113899
0.02190347 0.035462737 0.71262878
0.024004383 0.037721217 0.73678142
0.024659555 0.037576467 0.74431342
0.024715004 0.036484092 0.74495089
0.024708612 0.035298049 0.7448774
0.024650298 0.034040898 0.74420702
0.021167813 0.028223753 0.70417148
0.021112947 0.027145237 0.70354068
0.021061569 0.026076287 0.70295006
0.021014309 0.025017023 0.70240676
0.020970272 0.023966044 0.70190054
0.020929839 0.022923172 0.70143569
0.020894131 0.021889091 0.70102519
0.020860033 0.020860076 0.70063317
0.020830011 0.019838154 0.70028806
0.020802053 0.018820941 0.69996661
0.020778358 0.017810047 0.69969422
0.02075603 0.01680252 0.6994375
0.020728923 0.015793473 0.69912589
0.020676306 0.014768779 0.69852102
0.020579925 0.013719916 0.69741297
0.020478766 0.012677342 0.69625008
0.020417487 0.011667132 0.69554555
0.020371094 0.010670602 0.69501221
0.020346874 0.0096889734 0.6947338
0.020334747 0.0087148845 0.69459432
0.020334352 0.0077464581 0.69458985
0.020353416 0.0067844987 0.69480896
0.020395292 0.0058272183 0.69529039
0.020473661 0.0048746467 0.69619131
0.020652652 0.0039338768 0.69824904
0.020729659 0.0029613972 0.69913435
0.02075972 0.0019771159 0.69947994
0.020784441 0.00098973513 0.69976413
0.02081326 2.9802322e-08 0.70009553
0.020845136 -0.00099259615 0.70046192
0.020883832 -0.0019888878 0.70090669
0.020925589 -0.0029893517 0.70138681
0.020974042 -0.0039950907 0.70194381
0.021029534 -0.0050069988 0.70258176
0.021091163 -0.0060260296 0.70329034
0.021161504 -0.0070538223 0.70409894
0.021244764 -0.0080932379 0.70505613
0.021341419 -0.0091463327 0.70616728
0.021456469 -0.010217339 0.70748997
0.021598218 -0.011313349 0.70911956
0.021789826 -0.012451321 0.71132231
0.022111906 -0.013688296 0.71502501
0.022632863 -0.015088558 0.72101402
0.022696614 -0.016211838 0.72174698
0.022790344 -0.017364055 0.72282451
0.023578271 0.042869568 0.71956176
0.023332978 0.041363031 0.71686995
0.02314985 0.039986104 0.71486044
0.022993179 0.038670361 0.71314108
0.022854924 0.037398994 0.71162391
0.022929763 0.036479175 0.71244526
0.025151011 0.038869739 0.73682052
0.02527668 0.037915081 0.73819959
0.025914216 0.037693411 0.74519575
0.025931066 0.036539227 0.74538058
0.02589264 0.035308123 0.74495894
0.025827151 0.034044921 0.74424028
0.022173123 0.028220356 0.70414209
0.022115925 0.027142316 0.70351434
0.022066094 0.026078165 0.70296752
0.022017015 0.025019348 0.702429
0.021974472 0.023972183 0.70196211
0.021934275 0.022931308 0.70152104
0.021898322 0.021898359 0.70112646
0.021864306 0.020870507 0.70075321
0.021834815 0.019849867 0.70042956
0.021807564 0.018833816 0.70013058
0.021784088 0.017823368 0.69987291
0.021759456 0.016814113 0.69960266
0.021717729 0.015794724 0.69914472
0.02163909 0.014753968 0.69828176
0.021521056 0.01369524 0.6969865
0.021440074 0.012669146 0.69609785
0.021389665 0.011667132 0.6955446
0.021355389 0.010677725 0.6951685
0.021334032 0.0096973181 0.69493413
0.021330394 0.00872612 0.69489419
0.021344457 0.0077616274 0.69504857
0.021376705 0.0068016648 0.69540238
0.021440241 0.0058473349 0.69609964
0.02158791 0.0049063563 0.69772017
0.02172613 0.0039502084 0.69923687
0.021768494 0.0029684603 0.69970179
0.021794524 0.0019813478 0.69998753
0.021822004 0.0009919107 0.70028901
0.021855364 -0 0.7006551
0.02189292 -0.00099506974 0.70106721
0.021934625 -0.0019940734 0.70152485
0.021984214 -0.0029978156 0.70206898
0.022038527 -0.0040070117 0.70266503
0.022100117 -0.0050227344 0.70334095
0.022172499 -0.0060470104 0.70413518
0.02225462 -0.007081002 0.70503634
0.022349687 -0.0081271231 0.7060796
0.022462334 -0.0091891289 0.7073158
0.022600504 -0.01027292 0.70883203
0.022777746 -0.011388838 0.71077698
0.023042753 -0.012568772 0.71368515
0.02369735 -0.014002919 0.72086847
0.023786962 -0.015137166 0.72185189
0.023861624 -0.016269267 0.72267121
0.024976563 0.044523478 0.72298938
0.024538372 0.042675436 0.71838987
0.024317281 0.041233659 0.71606922
0.024134813 0.039874941 0.71415389
0.023989115 0.038591206 0.71262461
0.023954662 0.037494272 0.71226293
0.024073521 0.036633641 0.71351057
0.026384423 0.039003104 0.7377671
0.027098643 0.038880676 0.74526399
0.027146971 0.037769705 0.74577129
0.027132506 0.036569893 0.74561942
0.027060159 0.035295874 0.74486005
0.023238475 0.02930069 0.70474541
0.023178192 0.028216928 0.70411265
0.023122866 0.027144283 0.70353192
0.023070764 0.026080042 0.70298505
0.023023684 0.025025785 0.70249081
0.022979183 0.023978293 0.70202374
0.022940978 0.022940993 0.70162272
0.022903448 0.021907657 0.70122886
0.022871677 0.020882845 0.70089531
0.022841353 0.019862056 0.70057702
0.022815904 0.018847942 0.70030987
0.02279132 0.01783672 0.7000519
0.022757791 0.016820997 0.69969988
0.022693168 0.015786588 0.69902158
0.022576619 0.014723927 0.69779819
0.022476085 0.013681114 0.69674295
0.022413488 0.01266852 0.69608587
0.02236766 0.011670113 0.6956048
0.022340998 0.010684848 0.69532502
0.022332499 0.0097098053 0.69523585
0.022337442 0.0087407529 0.69528764
0.022359055 0.0077770948 0.69551456
0.022411566 0.0068209469 0.69606572
0.022515574 0.0058736205 0.69715744
0.02271126 0.0049372911 0.69921148
0.022776976 0.0039612651 0.69990128
0.022806408 0.0029747486 0.70021021
0.02283374 0.0019855499 0.70049709
0.022867313 0.00099426508 0.70084953
0.022903265 2.9802322e-08 0.70122689
