# .PCD v0.7 - Point Cloud Data file format
VERSION 0.7
FIELDS x y z
SIZE 4 4 4
TYPE F F F
COUNT 1 1 1
WIDTH 1332
HEIGHT 1
VIEWPOINT 0 0 0 1 0 0 0
POINTS 1332
DATA ascii
0.0041156891 -0.024694115 0.7092247
0.004153044 -0.025956482 0.71147931
0.0041910652 -0.027241886 0.71377409
0.0042293784 -0.02854827 0.71608651
0.0042683259 -0.029878289 0.71843714
0.0043079965 -0.031232953 0.72083151
0.0043484122 -0.032613039 0.72327077
0.0043895547 -0.034019023 0.72575396
0.004430796 -0.035446346 0.72824311
0.0044728005 -0.03690058 0.73077828
0.0045156083 -0.03838262 0.73336196
0.0045587867 -0.039889336 0.73596799
0.0046023969 -0.041421562 0.73860013
0.0046468494 -0.042983294 0.74128306
0.0046921908 -0.04457581 0.74401969
0.004738403 -0.046199411 0.74680883
0.0047855577 -0.047855586 0.74965489
0.0048336373 -0.049544752 0.75255668
0.0048827161 -0.051268548 0.75551891
0.004932778 -0.053027332 0.75854039
0.004983902 -0.054822892 0.76162601
0.0050360453 -0.056655467 0.76477313
0.0050891368 -0.058525085 0.76797748
0.0051425132 -0.060424536 0.77119905
0.0051967516 -0.062361002 0.77447259
0.0052521462 -0.064338773 0.777816
0.0039537163 0.067213178 0.65172321
0.0039491355 0.066345513 0.65150201
0.0039675483 0.065861344 0.65239108
0.003985892 0.065368652 0.6532768
0.0040042531 0.064868897 0.65416336
0.0040227962 0.064364761 0.65505874
0.0040414995 0.063855708 0.65596175
0.0040601003 0.063337564 0.65685987
0.004078873 0.062814683 0.65776634
0.0040978338 0.062287092 0.65868181
0.0041169585 0.061754405 0.65960521
0.004136262 0.061216712 0.6605373
0.0041557611 0.060674131 0.66147876
0.0041753058 0.060124397 0.66242254
0.0041949367 0.059568167 0.66337037
0.004214739 0.059006363 0.66432649
0.0042347289 0.058439285 0.66529167
0.0042549241 0.057866991 0.6662668
0.0042752977 0.057289004 0.66725051
0.0042958828 0.056705654 0.66824448
0.0043166368 0.056116313 0.66924661
0.0043374123 0.055518895 0.6702497
0.0043584034 0.054915905 0.67126322
0.0043795835 0.054306865 0.67228591
0.0044009858 0.053692043 0.67331934
0.0044225832 0.053070992 0.67436212
0.0044444087 0.052444041 0.67541599
0.0044664349 0.051810652 0.67647946
0.0044886004 0.051170081 0.67754972
0.004510873 0.050521821 0.67862511
0.004533384 0.049867243 0.67971206
0.0045561045 0.049205929 0.68080908
0.00457907 0.048538148 0.68191803
0.004602252 0.047863454 0.68303728
0.0046256864 0.047182024 0.68416882
0.0046493094 0.046493113 0.68530941
0.0046731047 0.045796454 0.68645835
0.0046971277 0.045092434 0.68761826
0.004721398 0.044381171 0.6887902
0.0047459211 0.043662518 0.68997425
0.0047707004 0.042936295 0.69117069
0.0047957213 0.042202353 0.69237882
0.0048210244 0.041460812 0.69360059
0.0048465962 0.040711403 0.69483525
0.0034702395 0.028455973 0.62837887
0.0034606198 0.027684987 0.62791443
0.0034583523 0.026975155 0.62780493
0.003465567 0.026338339 0.62815326
0.003472812 0.025698811 0.62850308
0.0034831979 0.025079012 0.6290046
0.0035026653 0.024518698 0.62994456
0.0035223521 0.023952037 0.63089508
0.0035422612 0.023378938 0.63185638
0.0035623969 0.022799343 0.63282865
0.0035827626 0.022213161 0.63381195
0.0036033625 0.021620184 0.63480663
0.0036242006 0.021020412 0.63581276
0.0036452811 0.020413607 0.63683069
0.0036666084 0.019799709 0.63786042
0.0036881866 0.019178599 0.63890231
0.0037100206 0.018550098 0.63995659
0.0037321143 0.017914176 0.64102334
0.0037544728 0.017270595 0.64210284
0.0037771009 0.016619265 0.64319551
0.0038000033 0.015960068 0.6443013
0.0038231853 0.015292734 0.64542067
0.0038466516 0.014617294 0.6465537
0.0038704081 0.01393351 0.64770073
0.0038944597 0.013241172 0.64886206
0.0039188117 0.012540221 0.65003788
0.0039434708 0.011830419 0.65122855
0.0039684419 0.011111677 0.65243423
0.0039937315 0.010383725 0.65365529
0.0040193452 0.0096464157 0.65489209
0.0040452895 0.0088996291 0.6561448
0.0040715709 0.0081431568 0.65741372
0.004098196 0.00737679 0.65869927
0.0041251723 0.0066002905 0.66000181
0.0041525052 0.0058135092 0.66132164
0.0041802037 0.0050162077 0.66265899
0.0042082733 0.0042083263 0.66401428
0.0042367228 0.0033894181 0.66538799
0.0042655594 0.0025593638 0.66678035
0.0042947913 0.0017179549 0.66819179
0.0043237838 0.00086477399 0.66959167
0.0043226038 -0 0.66953468
0.0043320796 -0.00086641312 0.66999221
0.0043651257 -0.0017460585 0.67158788
0.0043986337 -0.0026391745 0.67320573
0.0044318908 -0.0035454631 0.67481148
0.0044654468 -0.004465431 0.67643178
0.0044995151 -0.005399406 0.67807674
0.0045341235 -0.0063477457 0.67974776
0.004569252 -0.0073108077 0.68144393
0.0046049291 -0.0082888603 0.6831665
0.0046411674 -0.0092823505 0.68491632
0.0046779979 -0.010291576 0.68669462
0.0047152406 -0.011316568 0.68849289
0.0047525028 -0.01235649 0.69029206
0.0047903582 -0.013412982 0.6921199
0.004828841 -0.014486492 0.69397795
0.0048679085 -0.015577286 0.69586432
0.0049075754 -0.016685754 0.6977796
0.0049479129 -0.01781249 0.6997273
0.0049889195 -0.018957883 0.70170724
0.0050306115 -0.020122439 0.70372033
0.0050730063 -0.021306634 0.70576727
0.0051161214 -0.022510946 0.70784909
0.005159976 -0.023735851 0.70996654
0.0052039823 -0.024979085 0.71209145
0.005248724 -0.026243597 0.71425176
0.0052942638 -0.027530164 0.71645057
0.0053406004 -0.028839231 0.71868789
0.0053875474 -0.030170262 0.72095472
0.00543509 -0.031523526 0.72325027
0.0054834797 -0.03290087 0.72558677
0.0055327388 -0.03430298 0.72796518
0.0055828905 -0.035730481 0.73038667
0.00563396 -0.037184119 0.73285258
0.005685973 -0.038664609 0.73536396
0.0057389545 -0.040172666 0.73792213
0.0057929326 -0.041709125 0.74052846
0.005847909 -0.043274492 0.7431829
0.0059039104 -0.044869661 0.74588692
0.0059606829 -0.046493262 0.74862808
0.0060185287 -0.048148215 0.75142115
0.0060775378 -0.049835801 0.75427037
0.0061376849 -0.051556528 0.75717449
0.0061990656 -0.053311944 0.76013827
0.0062616863 -0.055102795 0.7631619
0.0063255532 -0.056929976 0.7662456
0.0063907681 -0.058795065 0.76939452
0.0064573428 -0.060699016 0.77260906
0.0065252851 -0.062642723 0.77588952
0.0065947068 -0.064628154 0.7792415
0.0047444594 0.067213178 0.65172321
0.0047505856 0.066508234 0.65196967
0.0047712578 0.066002399 0.65280145
0.0047921101 0.065492183 0.65364051
0.0048131463 0.064977467 0.65448695
0.004834367 0.064458191 0.65534079
0.0048557767 0.063934416 0.65620226
0.0048773759 0.063405931 0.65707135
0.0048991684 0.062872708 0.6579482
0.0049211569 0.062334687 0.65883291
0.0049433433 0.061791837 0.65972567
0.0049657309 0.061244071 0.66062647
0.004988322 0.060691267 0.6615355
0.0050111199 0.060133457 0.66245276
0.0050341268 0.059570551 0.66337848
0.0050573461 0.05900237 0.66431278
0.0050807805 0.058429003 0.66525573
0.0051044333 0.057850242 0.66620749
0.0051283068 0.057266116 0.66716802
0.0051524052 0.056676477 0.66813767
0.0051767309 0.056081265 0.66911644
0.0052012871 0.055480391 0.6701045
0.005226078 0.054873854 0.67110205
0.0052511063 0.054261446 0.67210913
0.005276375 0.053643137 0.67312586
0.0053018886 0.053018898 0.67415243
0.0053276499 0.052388579 0.67518902
0.0053536627 0.05175209 0.67623568
0.0053799306 0.051109344 0.67729259
0.0054064579 0.050460279 0.67835999
0.0054332479 0.049804807 0.67943788
0.0054603047 0.049142778 0.68052661
0.0054876325 0.048474103 0.6816262
0.0055152145 0.047798544 0.68273604
0.0055430965 0.047116369 0.68385786
0.005571261 0.04642719 0.68499112
0.0055997139 0.045731008 0.68613595
0.0056284582 0.045027673 0.68729258
0.0056574992 0.044317126 0.68846107
0.0056868419 0.043599129 0.68964177
0.0057164906 0.042873681 0.6908347
0.0057464493 0.042140663 0.69204015
0.0057767248 0.041399926 0.69325835
0.0058073201 0.040651262 0.69448942
0.0041642874 0.028455973 0.62837887
0.0041527436 0.027684987 0.62791443
0.0041526635 0.026992351 0.62791121
0.0041613434 0.026355207 0.62826043
0.0041700485 0.025715321 0.62861073
0.0041844514 0.025106758 0.62919021
0.0042078644 0.024545878 0.63013232
0.0042315293 0.02397868 0.6310845
0.0042554736 0.023405105 0.63204789
0.0042796903 0.022825032 0.63302231
0.0043041846 0.022238314 0.63400787
0.004328948 0.021644741 0.63500428
0.0043540108 0.021044403 0.63601279
0.0043793656 0.020437092 0.63703299
0.0044050044 0.019822508 0.63806462
0.0044309585 0.019200832 0.6391089
0.00445722 0.018571764 0.64016557
0.0044837813 0.017935157 0.64123434
0.0045106746 0.01729095 0.64231646
0.0045378925 0.016638935 0.64341164
0.0045654406 0.015979022 0.64452004
0.0045933113 0.015311062 0.64564145
0.0046215388 0.014634877 0.64677727
0.0046501155 0.013950348 0.64792711
0.0046790326 0.013257265 0.64909065
0.0047083269 0.012555569 0.65026933
0.0047379904 0.011845022 0.65146285
0.0047680298 0.011125475 0.65267158
0.0047985441 0.010396868 0.65389937
0.0048294524 0.0096589327 0.65514308
0.0048607765 0.0089114904 0.65640342
0.0048924941 0.0081541538 0.65767968
0.004924628 0.0073869824 0.65897262
0.0049572033 0.0066096187 0.66028339
0.0049901963 0.0058219135 0.66161084
0.0050236303 0.0050236285 0.66295618
0.005057516 0.0042146444 0.66431963
0.0050918795 0.0033946037 0.66570234
0.0051266956 0.0025633872 0.66710317
0.0051619904 0.0017206669 0.66852343
0.0051932796 0.00086557865 0.66978234
0.0052081994 2.9802322e-08 0.67038268
0.0052456195 -0.00087425113 0.67188829
0.0052834512 -0.0017611384 0.67341053
0.005321851 -0.0026609302 0.67495567
0.0053608133 -0.0035738349 0.67652339
0.0054003503 -0.0045002401 0.67811418
0.0054404554 -0.0054404438 0.67972791
0.0054811803 -0.0063946843 0.68136656
0.0055225194 -0.0073633194 0.68302989
0.0055643218 -0.008346498 0.68471193
0.0056065321 -0.0093441904 0.68641031
0.0056493869 -0.010357171 0.68813473
0.0056929025 -0.011385769 0.68988562
0.0057370719 -0.01243034 0.69166291
0.0057819309 -0.013491184 0.69346786
0.0058274982 -0.014568746 0.69530135
0.0058737886 -0.015663415 0.69716394
0.0059206341 -0.016775101 0.69904882
0.0059681139 -0.017904311 0.70095921
0.0060163853 -0.01905185 0.70290154
0.0060654446 -0.020218134 0.70487553
0.0061152847 -0.021403491 0.70688099
0.0061659762 -0.022608548 0.7089206
0.00621749 -0.023833692 0.71099341
0.0062698978 -0.025079548 0.7131021
0.006323196 -0.026346624 0.71524668
0.0063773813 -0.027635306 0.7174269
0.0064325314 -0.02894637 0.71964598
0.0064886436 -0.030280322 0.72190374
0.0065457141 -0.031637609 0.72420007
0.0066038268 -0.033019096 0.72653842
0.0066629513 -0.034425229 0.72891736
0.0067231739 -0.035856873 0.73134053
0.006784495 -0.037314683 0.73380792
0.0068469141 -0.038799167 0.73631948
0.0069105239 -0.040311396 0.73887891
0.0069753267 -0.041851908 0.74148631
0.0070413235 -0.043421477 0.74414188
0.0071086148 -0.045021206 0.74684942
0.0071771699 -0.046651602 0.74960792
0.0072470955 -0.048313946 0.75242144
0.0073183971 -0.050009012 0.75529045
0.0073910793 -0.051737577 0.75821501
0.0074652564 -0.05350098 0.76119965
0.0075409375 -0.055300146 0.76424479
0.0076181311 -0.057135969 0.76735079
0.0076969597 -0.059009969 0.77052265
0.0077773971 -0.060922921 0.77375919
0.0078595746 -0.062876582 0.77706581
0.0079435073 -0.064871967 0.78044289
0.005535203 0.067213178 0.65172321
0.005535658 0.066427916 0.65173894
0.0055597164 0.065922379 0.65256864
0.0055839857 0.065412402 0.65340567
0.0056084674 0.064897984 0.65425003
0.0056331647 0.064379066 0.65510184
0.0056580808 0.063855529 0.6559611
0.0056832177 0.063327312 0.65682805
0.005708579 0.062794387 0.65770274
0.005734168 0.062256664 0.65858531
0.005759988 0.061714202 0.65947574
0.0057860408 0.061166704 0.66037434
0.0058123302 0.060614318 0.66128105
0.0058388603 0.060056865 0.66219598
0.0058656335 0.059494287 0.66311932
0.005892653 0.058926553 0.66405123
0.0059199226 0.058353573 0.66499174
0.005947426 0.05777505 0.66594028
0.0059752064 0.057191283 0.66689837
0.0060032266 0.056601852 0.6678648
0.006031449 0.056006312 0.66883814
0.0060599586 0.055405349 0.66982138
0.0060887178 0.054798454 0.67081326
0.0061177728 0.054186016 0.67181534
0.0061470848 0.053567469 0.67282629
0.0061767013 0.05294314 0.67384768
0.0062065818 0.052312613 0.67487824
0.0062367753 0.051676184 0.67591959
0.0062672417 0.051033288 0.6769703
0.0062980293 0.050384253 0.67803216
0.0063290987 0.049728662 0.67910367
0.0063604997 0.049066722 0.68018663
0.0063921893 0.048398048 0.6812796
0.0064242207 0.047722816 0.68238431
0.0064565502 0.047040612 0.68349934
0.0064892313 0.046351671 0.68462646
0.0065222206 0.045655578 0.68576419
0.0065555712 0.044952512 0.68691444
0.0065892404 0.044242024 0.68807566
0.0066232821 0.043524414 0.68924975
0.0066576521 0.042799234 0.69043505
0.0066924063 0.042066604 0.69163376
0.006727499 0.041326046 0.69284403
0.0067629879 0.040577948 0.69406801
0.004858322 0.028455913 0.62837845
0.0048448681 0.027684987 0.62791443
0.0048478721 0.027009606 0.62801802
0.0048579983 0.026372015 0.62836725
0.0048681805 0.025731832 0.6287185
0.0048872549 0.025134504 0.62937629
0.0049146172 0.024573117 0.63031995
0.0049423012 0.024005532 0.63127476
0.0049702986 0.02343145 0.63224036
0.0049986159 0.022850841 0.63321698
0.0050272862 0.022263706 0.63420576
0.0050563598 0.021670163 0.63520849
0.005085757 0.021069586 0.63622236
0.0051154983 0.020462006 0.63724816
0.0051455894 0.019847304 0.63828593
0.005176052 0.019225329 0.63933659
0.005206862 0.018595964 0.64039916
0.0052380408 0.017959028 0.64147443
0.005269595 0.017314404 0.64256275
0.0053015482 0.016662031 0.64366472
0.0053338748 0.016001642 0.64477968
0.0053665983 0.015333176 0.64590824
0.0053997422 0.014656484 0.64705133
0.005433281 0.013971329 0.64820802
0.0054672388 0.01327759 0.64937919
0.0055016247 0.01257515 0.65056515
0.0055364626 0.011863858 0.65176666
0.0055717272 0.011143476 0.65298289
0.0056074439 0.010413855 0.65421468
0.0056436216 0.0096747875 0.65546244
0.0056802868 0.008926183 0.65672696
0.0057174135 0.0081677437 0.65800744
0.0057550282 0.0073993206 0.65930474
0.0057931417 0.0066207647 0.66061926
0.0058317832 0.0058318079 0.6619519
0.0058709234 0.0050322413 0.66330177
0.0059105917 0.0042218566 0.66466993
0.0059508006 0.003400445 0.66605669
0.0059915809 0.0025678575 0.66746312
0.0060329032 0.0017237365 0.66888827
0.0060631479 0.0008661747 0.66993141
0.0060993843 -0 0.6711812
0.0061425571 -0.00087749958 0.67267013
0.0061863228 -0.0017674565 0.67417949
0.0062307394 -0.0026703179 0.67571139
0.0062757987 -0.0035861433 0.67726541
0.0063214907 -0.0045153201 0.67884135
0.0063678771 -0.0054581463 0.68044114
0.006414949 -0.0064149499 0.68206459
0.0064627221 -0.0073859394 0.68371212
0.0065112114 -0.008371532 0.68538451
0.0065604341 -0.0093720257 0.68708223
0.006610407 -0.010387778 0.6888057
0.0066611464 -0.011419058 0.69055557
0.0067126714 -0.012466371 0.69233268
0.0067649996 -0.013529956 0.69413733
0.0068181502 -0.014610291 0.69597048
0.0068721422 -0.015707731 0.69783264
0.0069269962 -0.016822696 0.69972444
0.006982733 -0.017955571 0.70164675
0.0070393742 -0.019106895 0.70360023
0.0070969416 -0.020276964 0.70558572
0.0071554589 -0.021466345 0.70760381
0.0072149187 -0.022675425 0.70965451
0.0072754049 -0.02390486 0.71174067
0.007336915 -0.025155097 0.71386206
0.0073994733 -0.026426613 0.71601957
0.0074631083 -0.027720064 0.71821427
0.0075278464 -0.029035985 0.72044706
0.0075937174 -0.030374885 0.72271889
0.0076607522 -0.031737357 0.72503078
0.0077289809 -0.033124179 0.72738391
0.0077984352 -0.034535915 0.72977936
0.0078691496 -0.035973221 0.73221821
0.0079411585 -0.037436873 0.73470169
0.0080144964 -0.038927525 0.73723102
0.0080892025 -0.040445983 0.73980755
0.0081653148 -0.041993022 0.74243253
0.0082428716 -0.043569416 0.74510735
0.0083219167 -0.045176089 0.74783355
0.008402613 -0.046814531 0.75061667
0.0084855892 -0.048489034 0.75347835
0.0085701775 -0.050196737 0.75639576
0.0086564701 -0.051938832 0.75937188
0.0087445183 -0.053716302 0.76240855
0.0088343751 -0.05553031 0.76550758
0.0089260992 -0.057382047 0.76867104
0.009019793 -0.059272915 0.77190244
0.0091154277 -0.061203539 0.77520072
0.0092131123 -0.063175619 0.77856982
0.0063259457 0.067213178 0.65172321
0.0063180979 0.066340029 0.6514864
0.0063454611 0.065834165 0.65231216
0.0063730408 0.06532371 0.65314448
0.0064008827 0.064808965 0.65398461
0.0064289481 0.06428948 0.65483153
0.0064572818 0.063765675 0.65568662
0.006485845 0.063236982 0.65654856
0.0065146838 0.062703818 0.65741885
0.0065437583 0.062165707 0.65829623
0.006573115 0.061622947 0.65918219
0.0066027143 0.061075121 0.66007543
0.0066326037 0.060522527 0.66097742
0.0066627422 0.059964687 0.66188693
0.0066931793 0.059401989 0.66280544
0.0067238724 0.058833897 0.66373169
0.0067548715 0.058260798 0.66466713
0.0067861341 0.057682157 0.66561067
0.0068176882 0.05709818 0.6665628
0.00684956 0.056508899 0.6675247
0.0068817078 0.055913866 0.66849476
0.0069141826 0.055313498 0.66947484
0.0069469409 0.05470717 0.67046344
0.0069800364 0.054095298 0.67146218
0.0070134229 0.053477377 0.67246974
0.0070471559 0.052853674 0.67348766
0.0070811901 0.052223802 0.67451465
0.0071155797 0.051587969 0.67555255
0.0071502794 0.050945818 0.67659962
0.0071853446 0.050297469 0.67765784
0.0072207297 0.049642563 0.67872572
0.0072564655 0.04898116 0.67980409
0.0072924499 0.048312485 0.68089002
0.0073287929 0.047637165 0.68198681
0.0073654996 0.046955079 0.6830945
0.0074025765 0.046266139 0.6842134
0.0074400292 0.045570225 0.68534362
0.0074778614 0.044867218 0.68648535
0.0075161094 0.044157177 0.68763953
0.0075547225 0.043439656 0.68880481
0.0075937337 0.042714775 0.68998206
0.0076331496 0.041982383 0.69117159
0.0076729776 0.041242301 0.69237351
0.0077132229 0.040494442 0.69358802
0.0077538923 0.039738685 0.69481534
0.0055369921 0.027684987 0.62791443
0.0055452604 0.02703318 0.62816393
0.0055567301 0.026394486 0.62851006
0.0055682478 0.02575317 0.62885767
0.0055934419 0.025170505 0.62961793
0.0056249136 0.024609029 0.63056767
0.0056567574 0.024041235 0.63152862
0.0056889476 0.023466885 0.63250011
0.005721522 0.022886097 0.63348311
0.0057544559 0.022298545 0.63447702
0.0057877875 0.021704227 0.63548285
0.0058214907 0.021102935 0.63649994
0.0058556059 0.02049461 0.63752943
0.0058901059 0.019879103 0.63857055
0.0059250323 0.019256383 0.63962454
0.0059603751 0.018626213 0.6406911
0.0059961239 0.017988414 0.64176995
0.006032323 0.017342955 0.64286238
0.0060689435 0.016689628 0.64396745
0.0061060297 0.016028345 0.64508665
0.0061435532 0.015358925 0.64621902
0.0061815591 0.01468122 0.64736593
0.0062200194 0.013995051 0.64852661
0.0062589813 0.013300359 0.64970237
0.006298434 0.012596935 0.65089297
0.0063383672 0.011884451 0.65209806
0.0063789315 0.011163175 0.65332222
0.0064200806 0.010432631 0.65456396
0.0064617642 0.0096926689 0.65582186
0.0065039922 0.0089430213 0.65709621
0.0065467758 0.0081834793 0.65838736
0.0065901261 0.0074138939 0.65969557
0.0066340324 0.0066340566 0.66102052
0.00667855 0.0058437884 0.66236395
0.0067236694 0.0050427318 0.66372555
0.0067694015 0.0042308867 0.6651057
0.0068157609 0.0034079254 0.66650468
0.0068627591 0.0025735497 0.66792297
0.0069104107 0.0017276108 0.669361
0.0069395946 0.000867486 0.67024171
0.0069884933 -0 0.67171735
0.0070380857 -0.00087976456 0.67321396
0.0070883879 -0.0017720759 0.67473191
0.0071394136 -0.002677232 0.67627174
0.0071911537 -0.0035955608 0.6778332
0.0072436752 -0.0045272708 0.67941815
0.0072969692 -0.0054726899 0.6810264
0.0073510539 -0.0064321458 0.68265855
0.007405946 -0.0074059069 0.68431509
0.0074616643 -0.0083943605 0.68599653
0.0075182267 -0.0093977749 0.68770355
0.0075756544 -0.010416508 0.6894365
0.007633965 -0.011450887 0.6911962
0.0076931808 -0.012501419 0.69298321
0.0077533219 -0.013568312 0.69479811
0.0078144111 -0.014652014 0.69664168
0.0078764707 -0.015752912 0.69851446
0.0079395231 -0.016871482 0.70041728
0.0080035944 -0.018008053 0.70235074
0.0080687078 -0.019163191 0.70431566
0.0081348885 -0.020337194 0.70631289
0.0082021644 -0.021530658 0.70834315
0.0082705626 -0.02274403 0.71040726
0.008340111 -0.023977816 0.71250606
0.0084108394 -0.025232434 0.71464038
0.0084827775 -0.026508689 0.71681136
0.0085559925 -0.027806967 0.71902084
0.008631153 -0.029130131 0.72128898
0.0087076453 -0.030476749 0.72359735
0.0087855058 -0.031847447 0.72594702
0.0088647725 -0.033242881 0.72833914
0.0089454809 -0.034663737 0.7307747
0.0090277139 -0.036110878 0.73325628
0.0091114305 -0.037584603 0.73578262
0.0091967154 -0.039086014 0.73835635
0.0092836116 -0.040615767 0.74097866
0.0093721645 -0.042174697 0.74365097
0.0094624236 -0.043763697 0.74637485
0.0095544839 -0.045383781 0.74915302
0.0096483072 -0.047035456 0.7519843
0.0097439913 -0.048719943 0.7548719
0.0098415911 -0.050438136 0.75781721
0.0099411672 -0.052191079 0.76082212
0.010042829 -0.053980231 0.76389003
0.01014654 -0.055805951 0.76701987
0.010252414 -0.057669848 0.77021492
0.010360576 -0.059573293 0.77347898
0.010471154 -0.061517954 0.77681589
0.010585125 -0.063510716 0.78025526
0.0070971064 0.066239655 0.65119791
0.0071277963 0.065734148 0.65202117
0.0071587297 0.065223992 0.65285093
0.007189956 0.064709604 0.65368855
0.0072214324 0.064190507 0.65453291
0.0072532091 0.063667089 0.65538532
0.0072852434 0.063138813 0.65624464
0.0073175379 0.062605619 0.65711093
0.0073500481 0.062067121 0.65798295
0.0073828492 0.061523795 0.65886283
0.0074159433 0.060975552 0.65975058
0.0074493354 0.06042245 0.66064632
0.0074830302 0.059864253 0.66155016
0.0075170314 0.059301049 0.66246223
0.0075513422 0.058732659 0.66338265
0.0075859679 0.058159113 0.66431141
0.0076209125 0.057580262 0.66524881
0.0076561808 0.056996077 0.66619486
0.0076918034 0.056406587 0.66715038
0.007727732 0.055811435 0.66811419
0.0077639981 0.05521068 0.66908705
0.0078006065 0.054604292 0.67006898
0.0078375619 0.053992122 0.67106032
0.0078748688 0.053374082 0.67206109
0.0079125324 0.05275026 0.67307138
0.0079505583 0.052120328 0.6740914
0.0079889512 0.051484376 0.67512125
0.0080277165 0.050842226 0.67616117
0.008066861 0.050193816 0.67721117
0.0081063872 0.049539059 0.67827147
0.0081463335 0.048878044 0.67934299
0.0081866458 0.048210293 0.68042433
0.0082273576 0.047535896 0.68151647
0.0082684774 0.046854734 0.68261951
0.0083100107 0.046166748 0.68373358
0.008351963 0.045471817 0.68485892
0.008394341 0.044769824 0.6859957
0.0084371511 0.044060707 0.68714404
0.0084804315 0.043344438 0.68830502
0.0085237399 0.042618752 0.68946677
0.0085673947 0.041885108 0.69063777
0.008611531 0.041144013 0.69182175
0.008656092 0.040395141 0.69301707
0.0062464313 0.028455973 0.62837887
0.0062311324 0.027693957 0.62796849
0.0062439889 0.02705729 0.62831336
0.0062569152 0.02641809 0.62866008
0.0062698959 0.025776237 0.62900829
0.0063023982 0.025209606 0.62988019
0.0063379314 0.024647534 0.63083333
0.0063738683 0.024079055 0.63179731
0.0064101969 0.023504078 0.63277179
0.0064469599 0.022922516 0.63375801
0.0064841285 0.022334218 0.63475502
0.0065217474 0.021739185 0.63576412
0.0065597855 0.021137089 0.63678455
0.0065984256 0.020528466 0.63782096
0.006637542 0.01991266 0.63887024
0.0066771256 0.019289523 0.6399321
0.0067171846 0.018658876 0.64100665
0.0067577264 0.0180206 0.64209419
0.006798761 0.017374635 0.64319491
0.006840297 0.016720742 0.6443091
0.0068823434 0.016058803 0.645437
0.00692491 0.015388697 0.64657879
0.0069680065 0.014710248 0.64773488
0.0070116203 0.014023274 0.6489048
0.0070558065 0.013327658 0.65009004
0.0071005533 0.01262325 0.65129036
0.0071458705 0.011909753 0.65250599
0.0071917702 0.011187255 0.65373719
0.0072382633 0.01045531 0.65498435
0.0072853616 0.0097137988 0.65624779
0.0073330766 0.008962661 0.65752774
0.0073814206 0.0082015991 0.65882456
0.0074304068 0.0074304342 0.66013849
0.0074800467 0.0066489875 0.66147017
0.0075303805 0.0058569908 0.66282028
0.0075813956 0.0050542653 0.6641888
0.0076331072 0.0042406321 0.66557592
0.0076855281 0.0034157932 0.66698211
0.0077388077 0.0025796294 0.66841131
0.007792966 0.001731813 0.66986406
0.0078268824 0.00086966157 0.6707738
0.0078821741 2.9802322e-08 0.67225701
0.0079382528 -0.00088199973 0.67376137
0.0079951352 -0.0017766654 0.67528713
0.008052839 -0.0026842654 0.67683506
0.008111381 -0.0036050677 0.6784054
0.0081707817 -0.0045392811 0.67999876
0.0082310578 -0.0054873228 0.68161571
0.0082922298 -0.0064494908 0.68325663
0.0083543183 -0.0074260235 0.68492216
0.0084173437 -0.0084173083 0.68661273
0.0084813265 -0.0094236434 0.68832904
0.00854629 -0.010445446 0.6900717
0.0086122565 -0.011483014 0.69184119
0.0086792484 -0.012536705 0.69363821
0.0087478692 -0.01360777 0.69547898
0.0088176532 -0.014696091 0.69735092
0.0088885585 -0.015801907 0.69925284
0.0089606494 -0.016925663 0.70118666
0.0090338839 -0.018067747 0.70315123
0.0091083245 -0.019228667 0.70514804
0.0091840019 -0.020408839 0.70717806
0.0092609478 -0.021608859 0.70924211
0.0093391938 -0.022829115 0.71134096
0.0094188126 -0.024070293 0.71347672
0.0094998004 -0.025332779 0.71564925
0.0095822755 -0.026617438 0.71786159
0.0096661942 -0.027924538 0.72011262
0.0097515546 -0.029254615 0.72240233
0.0098384777 -0.030608594 0.72473413
0.0099269655 -0.031986892 0.72710776
0.010017059 -0.033390194 0.72952443
0.010108802 -0.034819186 0.73198539
0.010202242 -0.036274612 0.73449194
0.010297379 -0.037757039 0.73704392
0.010394353 -0.03926754 0.73964524
0.010493173 -0.040806741 0.74229598
0.010593889 -0.042375535 0.74499768
0.010696556 -0.043974698 0.74775171
0.010802064 -0.045608729 0.75058192
0.010910043 -0.047276825 0.75347841
0.011020256 -0.048978895 0.7564348
0.011132664 -0.050715446 0.75945014
0.011247445 -0.052488059 0.76252908
0.011364559 -0.054297358 0.76567066
0.011484139 -0.056144685 0.76887828
0.011606321 -0.058031589 0.77215582
0.01173107 -0.059958786 0.77550209
0.011858594 -0.061928183 0.77892286
0.011988855 -0.063940555 0.78241706
0.0078824684 0.066212744 0.65112054
0.0079058083 0.065618247 0.65168405
0.0079399562 0.065107673 0.65250844
0.0079744011 0.064592689 0.65333998
0.0080091469 0.064073205 0.65417886
0.0080441954 0.063549191 0.65502495
0.008079553 0.063020527 0.65587854
0.0081152217 0.062487185 0.65673971
0.0081512071 0.061949193 0.65760845
0.0081875138 0.061406374 0.658485
0.0082241725 0.060858935 0.65936995
0.0082611321 0.060306281 0.66026229
0.0082984269 0.059748679 0.66116267
0.0083360588 0.059186012 0.66207117
0.0083740344 0.058618248 0.66298795
0.0084123584 0.058045268 0.66391319
0.0084510334 0.057467043 0.6648469
0.008490066 0.056883454 0.66578925
0.008529461 0.056294471 0.6667403
0.0085689295 0.055698067 0.66769314
0.0086086169 0.055095166 0.66865128
0.008648674 0.054486692 0.66961837
0.0086891046 0.053872496 0.67059445
0.0087299161 0.053252518 0.67157972
0.0087711439 0.052626878 0.67257506
0.0088127302 0.051995128 0.67357904
0.0088547142 0.051357359 0.67459261
0.0088970996 0.050713509 0.67561591
0.008939893 0.050063431 0.67664897
0.0089828419 0.049405664 0.67768592
0.0090254238 0.048737317 0.67871392
0.0090683792 0.048062414 0.67975092
0.0091117779 0.047381252 0.68079865
0.0091555938 0.046693593 0.68185645
0.0091998335 0.045999199 0.68292451
0.0092444681 0.045297921 0.6840021
0.009289572 0.044589937 0.68509102
0.009334702 0.043873131 0.68618047
0.0093787946 0.043142468 0.68724507
0.0094233053 0.04240489 0.68831962
0.0094682407 0.041660279 0.68940449
0.0095136445 0.040908664 0.69050056
0.0095594479 0.040149719 0.6916064
0.0069404789 0.028455973 0.62837887
0.0069310572 0.027724266 0.62815142
0.0069451802 0.027086198 0.62849241
0.006959361 0.026445568 0.62883472
0.0069758357 0.025810599 0.62923247
0.0070151919 0.025254726 0.63018262
0.0070549943 0.024692506 0.63114357
0.0070952517 0.024123847 0.63211542
0.007135971 0.023548752 0.63309848
0.0071771597 0.022966951 0.63409287
0.007218827 0.022378415 0.63509881
0.0072609815 0.021782964 0.6361165
0.0073036305 0.02118054 0.63714612
0.0073467619 0.020570964 0.63818741
0.0073904283 0.019954175 0.63924158
0.0074346163 0.019330025 0.64030838
0.0074793361 0.018698364 0.64138806
0.007524597 0.018059045 0.64248073
0.0075704083 0.017411947 0.64358675
0.0076167821 0.016756952 0.64470625
0.0076637273 0.01609382 0.64583969
0.0077112541 0.015422523 0.64698702
0.0077593741 0.014742821 0.64814878
0.0078080748 0.014054537 0.64932448
0.0078574149 0.013357639 0.65051568
0.0079073822 0.012651831 0.65172201
0.0079581672 0.011937261 0.65294802
0.0080096852 0.011213571 0.65419185
0.0080618747 0.010480434 0.65545177
0.0081147747 0.0097377598 0.65672886
0.0081683462 0.0089851916 0.65802228
0.0082226312 0.0082226694 0.65933275
0.0082776416 0.0074498653 0.66066086
0.0083333934 0.0066667497 0.6620068
0.0083899023 0.0058729053 0.66337109
0.0084471814 0.0050683022 0.66475391
0.0085052485 0.0042526722 0.66615576
0.0085641183 0.0034256577 0.66757703
0.0086238096 0.0025871396 0.66901815
0.0086769005 0.0017353892 0.67029977
0.0087186908 0.00087189674 0.6713087
0.0087804403 2.9802322e-08 0.67279947
0.0088435402 -0.00088435411 0.67432284
0.0089077437 -0.0017815232 0.6758728
0.0089728869 -0.0026918352 0.67744553
0.009039022 -0.0036155581 0.67904222
0.0091061387 -0.0045530498 0.68066251
0.0091742612 -0.0055045485 0.68230712
0.0092434091 -0.0064703822 0.68397653
0.0093136076 -0.0074508786 0.68567127
0.0093848463 -0.0084463656 0.68739116
0.0094572175 -0.0094572008 0.68913829
0.0095307147 -0.010483772 0.69091272
0.0096053621 -0.011526406 0.69271487
0.0096811894 -0.012585521 0.69454545
0.0097582219 -0.013661504 0.69640523
0.009836453 -0.014754653 0.69829386
0.009915987 -0.015865564 0.70021403
0.0099968174 -0.016994566 0.70216537
0.010078977 -0.018142164 0.70414895
0.010162498 -0.019308716 0.70616531
0.010247373 -0.020494699 0.7082144
0.010333721 -0.021700799 0.71029896
0.010421534 -0.022927374 0.71241903
0.010510854 -0.024174929 0.71457541
0.010601719 -0.02544409 0.7167691
0.010694169 -0.026735395 0.71900094
0.010788197 -0.02804929 0.72127104
0.010883942 -0.02938661 0.72358251
0.010982124 -0.030749947 0.72595286
0.011082486 -0.032139182 0.72837579
0.01118475 -0.033554256 0.73084468
0.011288868 -0.034995466 0.73335826
0.011394943 -0.036463797 0.73591912
0.011503083 -0.037960142 0.73852992
0.01161324 -0.039485008 0.7411893
0.011725583 -0.041039467 0.74390149
0.011840065 -0.042624205 0.7466653
0.011956804 -0.044240177 0.7494837
0.012075928 -0.045888484 0.75235957
0.012197387 -0.047569811 0.75529188
0.012321378 -0.049285471 0.75828528
0.012448347 -0.051038235 0.76135063
0.012577961 -0.052827388 0.7644797
0.012710366 -0.054654539 0.76767623
0.012845853 -0.056521714 0.77094728
0.012984731 -0.058431298 0.7743001
0.013126784 -0.060383201 0.77772951
0.013272258 -0.062379569 0.78124154
0.0086707156 0.066212744 0.65112054
0.0086793294 0.065489471 0.65130961
0.0087163318 0.064976305 0.65212166
0.0087536499 0.064458698 0.65294069
0.0087912893 0.063936681 0.65376675
0.0088292537 0.063410133 0.65460002
0.0088675478 0.062878966 0.65544051
0.0089062033 0.062343448 0.65628886
0.0089451699 0.061803013 0.65714407
0.0089844782 0.061257839 0.65800679
0.0090239262 0.060706437 0.65887254
0.0090629756 0.060145229 0.6597296
0.0091023343 0.059578925 0.66059345
0.0091420673 0.059007883 0.66146553
0.0091821477 0.058431864 0.66234517
0.009222582 0.057850778 0.66323256
0.0092633432 0.057264328 0.66412717
0.0093044974 0.056672871 0.66503042
0.0093460185 0.056076109 0.66594166
0.0093871756 0.055469722 0.66684496
0.0094276955 0.054852068 0.66773427
0.0094685992 0.054229259 0.66863197
0.0095098261 0.053600848 0.66953683
0.0095514143 0.052966952 0.67044961
0.0095933676 0.052327454 0.67137033
0.0096345441 0.051676214 0.67227399
0.0095558586 0.050385475 0.67054707
0.0095803766 0.049643785 0.67108518
0.0096201291 0.048975199 0.67195767
0.0096601797 0.048300922 0.67283666
0.0097009754 0.047622979 0.67373204
0.0097455671 0.046955943 0.67471075
0.0097905705 0.046282709 0.6756984
0.0098359911 0.045603216 0.67669529
0.0098818718 0.044917643 0.67770225
0.0099283597 0.044226348 0.67872256
0.009977025 0.043536127 0.67979062
0.010026168 0.04283911 0.68086916
0.010075799 0.042135179 0.68195844
0.010125923 0.041424245 0.6830585
0.010176548 0.040706217 0.68416965
0.010227682 0.039980978 0.68529189
0.010279985 0.03925091 0.68643981
0.0076345266 0.028455973 0.62837887
0.0076329387 0.027756184 0.62834406
0.0076485099 0.027117491 0.62868577
0.007664145 0.026476145 0.62902892
0.0076889629 0.025862902 0.62957358
0.0077324091 0.025306076 0.63052714
0.0077763712 0.024743021 0.63149196
0.0078208353 0.024173528 0.63246793
0.0078658117 0.023597449 0.63345498
0.0079113077 0.023014694 0.63445354
0.0079573337 0.022425205 0.63546365
0.008003898 0.02182883 0.63648558
0.0080510098 0.021225393 0.6375196
0.0080986815 0.020614833 0.63856584
0.0081471121 0.019997478 0.63962877
0.0081961742 0.019372791 0.64070559
0.0082458574 0.018740624 0.64179599
0.00829612 0.018100649 0.64289916
0.0083469991 0.017452836 0.64401579
0.0083985068 0.016797036 0.64514625
0.0084506543 0.01613307 0.64629078
0.0085034529 0.015460849 0.64744955
0.0085569145 0.014780164 0.64862287
0.0086110542 0.014090836 0.64981109
0.0086658821 0.013392746 0.65101445
0.008721414 0.012685716 0.65223324
0.0087776612 0.011969566 0.65346777
0.0088346386 0.011244118 0.65471822
0.0088924188 0.010509223 0.65598637
0.008950959 0.0097647011 0.65727115
0.0090102758 0.0090102851 0.65857291
0.0090703834 0.008245796 0.6598922
0.0091312984 0.0074710846 0.66122913
0.0091930367 0.006685853 0.66258413
0.0092555853 0.0058899522 0.66395688
0.0093192747 0.0050832629 0.66535473
0.0093839746 0.0042654574 0.66677475
0.0094495788 0.0034362674 0.66821456
0.0095161069 0.0025953054 0.66967469
0.0095561575 0.001737535 0.67055362
0.0096243341 0.00087496638 0.67205
0.0096934913 2.9802322e-08 0.67356783
0.0097636506 -0.00088754296 0.6751076
0.0098347962 -0.0017881095 0.67666906
0.0099070221 -0.0027019083 0.67825425
0.0099803172 -0.0036291778 0.67986286
0.010054705 -0.0045703053 0.68149549
0.01013021 -0.0055255592 0.68315268
0.010206857 -0.0064952374 0.68483484
0.010284634 -0.0074796975 0.6865418
0.010363646 -0.008479327 0.68827587
0.01044388 -0.0094944239 0.69003689
0.010525366 -0.010525346 0.69182533
0.010608135 -0.01157251 0.6936419
0.010692215 -0.012636214 0.69548714
0.010777595 -0.013716936 0.69736099
0.010864395 -0.014815062 0.69926608
0.010952603 -0.01593104 0.70120203
0.011042255 -0.017065287 0.7031697
0.011133973 -0.018219233 0.70518261
0.011227685 -0.019393235 0.70723939
0.011322987 -0.020587206 0.70933098
0.011419971 -0.02180177 0.71145952
0.011518579 -0.023037106 0.71362376
0.011618956 -0.024294168 0.71582675
0.011721048 -0.025573164 0.71806741
0.01182495 -0.02687487 0.72034776
0.011930761 -0.028199971 0.72267008
0.012038904 -0.029550016 0.72504348
0.012148973 -0.030924618 0.72745919
0.012261127 -0.032324731 0.72992074
0.012375316 -0.033750832 0.73242688
0.012491708 -0.035203874 0.73498136
0.012610311 -0.036684543 0.73758435
0.012731127 -0.038193345 0.74023604
0.012854342 -0.039731562 0.74294025
0.012979904 -0.041299701 0.74569601
0.013108506 -0.042900532 0.74851847
0.013239871 -0.044534117 0.7514016
0.013374286 -0.046202093 0.75435168
0.013511593 -0.04790473 0.75736517
0.0094589619 0.066212744 0.65112054
0.0094313864 0.065233827 0.65056574
0.0094688674 0.064703941 0.6513198
0.0095066465 0.064169914 0.65207988
0.0095447302 0.063631564 0.65284604
0.0095831193 0.063088894 0.6536184
0.0096218493 0.062542051 0.65439755
0.0096608624 0.061990559 0.65518242
0.0096965283 0.061411381 0.65589994
0.0096043032 0.060026914 0.65404457
0.0096365502 0.059425443 0.65469337
0.0096733766 0.058846384 0.65543425
0.0097104851 0.058262885 0.65618074
0.0097490503 0.057681918 0.65695661
0.0097903172 0.05711022 0.65778685
0.0098319342 0.056533664 0.65862417
0.009873908 0.055952162 0.65946865
0.0099162729 0.05536589 0.66032094
0.0099589713 0.054774344 0.66117996
0.010003638 0.054186434 0.66207856
0.010048909 0.053594232 0.66298938
0.010094592 0.052996665 0.66390836
0.010140726 0.052393764 0.66483659
0.01018725 0.051785231 0.6657725
0.010234201 0.051171035 0.66671717
0.010281694 0.050551653 0.66767263
0.010330163 0.049929112 0.66864771
0.010379126 0.049300879 0.66963279
0.010428556 0.048666596 0.67062724
0.010478423 0.048026115 0.6716305
0.010528768 0.047379434 0.67264336
0.010579563 0.046726435 0.67366529
0.010630812 0.04606688 0.67469633
0.010682599 0.045401067 0.67573822
0.010734892 0.044728756 0.67679024
0.010787622 0.044049472 0.67785108
0.010840833 0.043363303 0.67892164
0.010894612 0.042670578 0.68000358
0.010948927 0.041970879 0.68109632
0.011004512 0.041266918 0.68221456
0.011060664 0.040555775 0.6833443
0.011117352 0.039837182 0.68448472
0.011174665 0.039111346 0.68563783
0.0083285514 0.028455913 0.62837845
0.0083377352 0.027792454 0.62856317
0.0083544403 0.027151972 0.62889922
0.0083712125 0.026508868 0.6292367
0.0084059732 0.025918454 0.62993598
0.0084538832 0.025361657 0.63089991
0.0085023418 0.024798512 0.6318748
0.008551335 0.024228811 0.63286048
0.0086009214 0.023652524 0.63385808
0.0086510852 0.023069561 0.63486731
0.0087018376 0.022479773 0.63588834
0.0087531898 0.021882981 0.63692153
0.0088051511 0.021279126 0.63796687
0.0088577336 0.020668089 0.63902473
0.0089109475 0.020049661 0.64009535
0.0089647779 0.019423693 0.64117831
0.0090192892 0.018790185 0.64227498
0.0090744682 0.018148929 0.64338505
0.0091303261 0.017499834 0.64450884
0.009186876 0.016842604 0.64564657
0.0092441309 0.016177237 0.64679849
0.0093021039 0.015503526 0.64796484
0.0093608089 0.014821321 0.64914578
0.009420258 0.014130414 0.65034187
0.0094805583 0.013430834 0.65155506
0.0095419083 0.012722552 0.65278929
0.0096040582 0.012005091 0.65403962
0.0096670222 0.011278242 0.6553064
0.0097308178 0.010541767 0.65658987
0.0097954599 0.0097955167 0.65789032
0.0098609673 0.009039253 0.65920824
0.0099273566 0.0082728267 0.66054392
0.0099946465 0.0074959993 0.66189766
0.010062854 0.006708622 0.66326988
0.010131999 0.0059103668 0.66466099
0.010202101 0.0051010847 0.6660713
0.010273179 0.0042805076 0.66750133
0.010345256 0.0034484565 0.66895139
0.010418351 0.0026046336 0.6704219
0.010462575 0.0017437935 0.67131162
0.010537489 0.00087812543 0.67281884
0.010613486 2.9802322e-08 0.67434776
0.010690587 -0.00089085102 0.67589891
0.010768778 -0.0017947853 0.67747194
0.010848159 -0.0027120411 0.67906898
0.010928719 -0.0036428869 0.68068981
0.011010486 -0.0045876801 0.68233478
0.011093484 -0.0055467486 0.68400455
0.011177703 -0.0065203011 0.68569893
0.011263716 -0.0075091422 0.68742937
0.011351622 -0.008513689 0.6891979
0.011440867 -0.0095340312 0.69099343
0.011531571 -0.010570586 0.69281816
0.011623723 -0.01162371 0.69467217
0.011717728 -0.01269421 0.69656342
0.011813219 -0.013782054 0.69848448
0.011910326 -0.014887869 0.70043814
0.012009041 -0.016012013 0.70242417
0.012109359 -0.017154872 0.70444238
0.012211417 -0.018317133 0.70649564
0.012315158 -0.019498974 0.70858276
0.01242073 -0.0207012 0.71070671
0.012528073 -0.021924108 0.71286625
0.012637342 -0.023168474 0.71506464
0.012748481 -0.024434566 0.71730047
0.012861646 -0.025723279 0.71957719
0.012976837 -0.027035058 0.72189474
0.013094055 -0.02837044 0.724253
0.013213525 -0.029730409 0.72665656
0.013335729 -0.031116664 0.72911507
0.013460515 -0.032529533 0.73162556
0.013587905 -0.03396973 0.73418844
0.016116174 -0.053720534 0.78505331
0.010214992 0.065218836 0.65052223
0.010182945 0.064230919 0.64992708
0.010151099 0.063249201 0.64933568
0.010119451 0.062273562 0.64874798
0.010153254 0.061700583 0.64937574
0.01019629 0.06117779 0.65017492
0.010239692 0.060650498 0.65098095
0.010283465 0.060118735 0.65179384
0.010327877 0.059583902 0.65261859
0.010373005 0.059046358 0.65345663
0.010418561 0.058504254 0.65430272
0.01046452 0.057957351 0.65515614
0.010510853 0.057405442 0.65601659
0.010557597 0.056848645 0.65688467
0.010604724 0.056286663 0.6577599
0.010652274 0.055719614 0.65864289
0.010700253 0.055147499 0.65953398
0.010748629 0.054569989 0.66043234
0.010797446 0.053987235 0.66133893
0.010846672 0.053399026 0.66225308
0.010896312 0.052805215 0.66317493
0.010946445 0.052206159 0.66410595
0.010997191 0.051602215 0.66504836
0.011048896 0.050994903 0.66600859
0.011101129 0.050382107 0.66697854
0.011153858 0.049763381 0.66795778
0.011207091 0.049138784 0.66894639
0.011261028 0.048509061 0.66994804
0.011316589 0.047877938 0.6709798
0.011372702 0.047240466 0.67202193
0.011429374 0.046596706 0.67307436
0.011486654 0.045946658 0.67413813
0.011544471 0.045289904 0.67521179
0.011604237 0.04463172 0.67632174
0.011664627 0.043966681 0.67744321
0.01172569 0.043294877 0.67857718
0.011787354 0.042615831 0.67972237
0.011849971 0.041930676 0.68088526
0.011914612 0.041242927 0.68208563
0.01197996 0.04054755 0.68329924
0.012046029 0.039844602 0.68452621
0.0090477485 0.02923122 0.62884545
0.009027306 0.028470755 0.62846589
0.009045383 0.027831972 0.62880152
0.0090635316 0.027190626 0.62913859
0.0090817548 0.026546717 0.62947702
0.0091295289 0.025984079 0.63036424
0.009181669 0.025426179 0.63133252
0.009234434 0.024861932 0.63231242
0.00928781 0.024291188 0.63330364
0.0093418052 0.023713827 0.63430643
0.009396432 0.023129702 0.63532084
0.0094517022 0.022538692 0.63634723
0.0095076263 0.021940678 0.63738585
0.0095642162 0.021335602 0.63843673
0.0096214842 0.020723253 0.63950026
0.0096797571 0.02010414 0.6405825
0.0097387712 0.019477546 0.64167839
0.0097985091 0.018843293 0.64278781
0.0098589836 0.018201232 0.64391083
0.0099202106 0.017551154 0.6450479
0.0099822013 0.01689297 0.64619911
0.010044972 0.0162265 0.6473648
0.010108537 0.015551597 0.64854527
0.010172913 0.01486811 0.64974076
0.010238112 0.014175862 0.65095156
0.010304252 0.013474822 0.65217984
0.010371251 0.012764633 0.65342408
0.010439128 0.012045145 0.6546846
0.010507898 0.01131624 0.65596175
0.010577546 0.010577559 0.65725517
0.010648159 0.0098291039 0.65856647
0.01071972 0.0090705454 0.65989548
0.010792251 0.0083017647 0.66124243
0.010866168 0.007522732 0.66261518
0.010941216 0.0067330599 0.6640088
0.011017345 0.0059324205 0.66542262
0.011094502 0.0051206052 0.66685545
0.011172787 0.0042972565 0.66830933
0.011252145 0.0034622252 0.66978306
0.011313873 0.0026109219 0.67092943
0.011376004 0.0017501712 0.67208326
0.011459053 0.00088149309 0.67362553
0.011543282 -0 0.67518973
0.011628801 -0.0008944869 0.6767779
0.011715553 -0.0018023849 0.67838895
0.011803653 -0.0027239025 0.6800251
0.011893088 -0.0036594272 0.68168598
0.011983844 -0.0046091676 0.68337137
0.012076041 -0.0055735111 0.68508351
0.012169621 -0.0065528452 0.68682146
0.012264711 -0.0075474977 0.68858731
0.012361251 -0.0085577369 0.6903801
0.012459369 -0.0095841289 0.69220227
0.012559059 -0.010626853 0.69405359
0.012660308 -0.011686414 0.69593382
0.012763251 -0.012763262 0.69784564
0.012867832 -0.013857633 0.69978774
0.012974193 -0.014970183 0.70176303
0.013082274 -0.016101211 0.70377016
0.013192223 -0.017251372 0.7058121
0.013304038 -0.018420964 0.70788848
0.013417929 -0.019610792 0.71000355
0.013534352 -0.020822048 0.71216565
0.017422432 -0.028143913 0.78437072
0.017557399 -0.029712498 0.78687716
0.017698903 -0.031313419 0.789505
0.017843097 -0.032941073 0.7921828
0.017993243 -0.034602374 0.79497111
0.018147659 -0.036295325 0.79783881
0.016109986 -0.038416117 0.75999743
0.016212216 -0.039906949 0.7618959
0.01632951 -0.041451812 0.76407421
0.016457006 -0.043041408 0.76644188
0.016588962 -0.044662565 0.76889241
0.016723052 -0.046309978 0.77138257
0.016859937 -0.047985971 0.77392471
0.017001305 -0.049696088 0.77654994
0.017147955 -0.051443875 0.77927345
0.017300745 -0.053233057 0.78211087
0.017456377 -0.055054724 0.78500116
0.011000761 0.065218836 0.65052223
0.010966249 0.064230919 0.64992708
0.010931953 0.063249201 0.64933568
0.010897871 0.062273562 0.64874798
0.010897803 0.061494738 0.64874679
0.010944318 0.060975492 0.64954889
0.010991267 0.060451955 0.6503585
0.011038864 0.059925288 0.65117931
0.011087261 0.059396058 0.6520139
0.011136085 0.05886215 0.65285581
0.011185341 0.058323592 0.65370518
0.011235033 0.057780206 0.65456212
0.011285134 0.057231754 0.65542608
0.011336929 0.056684643 0.65631926
0.011389203 0.056132495 0.65722072
0.011441962 0.055575281 0.65813047
0.01149521 0.055012822 0.65904868
0.011548997 0.054445297 0.65997618
0.011603788 0.053874761 0.6609211
0.011659876 0.053302318 0.6618883
0.011716471 0.052724123 0.66286421
0.011773659 0.052140534 0.66385037
0.011831366 0.051550984 0.66484547
0.011890046 0.050957322 0.66585743
0.011950453 0.050362617 0.66689909
0.012011517 0.049762011 0.66795218
0.012073168 0.049155027 0.66901529
0.012135454 0.048541844 0.6700893
0.012200172 0.047929287 0.67120534
0.012266012 0.047311813 0.67234069
0.01233261 0.046687752 0.67348921
0.012400419 0.046058714 0.67465848
0.012470219 0.045427263 0.67586219
0.012540767 0.04478848 0.67707866
0.012612117 0.044142425 0.67830908
0.012684281 0.04348895 0.67955351
0.012758114 0.042830855 0.68082672
0.012833187 0.042166233 0.68212128
0.012910626 0.041498452 0.68345672
0.012991026 0.040828943 0.68484312
0.013077072 0.040165305 0.68632698
0.0097437287 0.02923122 0.62884545
0.009736984 0.028515488 0.62872916
0.0097560231 0.02787438 0.62905753
0.0097751645 0.027230829 0.62938762
0.0098012062 0.026603281 0.62983668
0.0098574515 0.026051849 0.63080657
0.0099143451 0.025494039 0.63178766
0.0099718999 0.024929762 0.63278013
0.010030126 0.024358928 0.63378423
0.010089037 0.0237813 0.63480014
0.010148644 0.023196906 0.63582802
0.010208929 0.022605509 0.63686758
0.010269965 0.022007108 0.63792014
0.010331736 0.021401495 0.63898534
0.010394254 0.02078855 0.64006341
0.010457533 0.020168155 0.64115459
0.010521588 0.019540071 0.64225918
0.010586431 0.018904358 0.64337736
0.010652047 0.018260628 0.6445089
0.010718514 0.01760903 0.64565504
0.010785815 0.016949177 0.6468156
0.010853968 0.016280979 0.64799082
0.010922987 0.015604287 0.64918107
0.010993027 0.014919132 0.6503889
0.011064355 0.014225602 0.6516189
0.01113658 0.013523012 0.6528644
0.011209791 0.012811214 0.65412676
0.011283933 0.012089968 0.6554054
0.0113591 0.011359125 0.65670156
0.011435238 0.010618448 0.65801448
0.011512442 0.0098678172 0.65934587
0.011590654 0.0091069639 0.66069454
0.011669978 0.0083357096 0.66206253
0.011750354 0.0075538158 0.66344845
0.011831885 0.0067611337 0.66485447
0.011914517 0.0059572756 0.66627938
0.01199831 0.0051421225 0.66772437
0.01208333 0.0043154955 0.66919047
0.012169989 0.0034771562 0.67068481
0.012221797 0.0026189685 0.67157829
0.012310763 0.0017586946 0.67311239
0.012401077 0.00088578463 0.67466986
0.012492681 -0 0.6762495
0.012585695 -0.00089895725 0.67785347
0.012680057 -0.001811415 0.67948067
0.012775891 -0.0027376711 0.68113327
0.012873186 -0.0036780536 0.68281102
0.012971925 -0.0046328306 0.68451375
0.013072241 -0.0056023598 0.68624359
0.01317407 -0.0065870285 0.68799961
0.013277548 -0.0075871646 0.68978405
0.013382613 -0.008603096 0.69159579
0.013489407 -0.0096352696 0.69343734
0.013598288 -0.010684311 0.69531494
0.017491918 -0.014993042 0.76245821
0.01761809 -0.016359657 0.76463401
0.017750684 -0.017750651 0.76692051
0.017885288 -0.019162804 0.76924163
0.018024731 -0.020599693 0.77164626
0.018168628 -0.022061855 0.77412766
0.018316662 -0.023550004 0.77668047
0.01847141 -0.025068313 0.77934897
0.018632267 -0.026617497 0.78212285
0.018801698 -0.028202534 0.78504461
0.01898041 -0.029826313 0.78812635
0.016192468 -0.026601881 0.74005002
0.01629545 -0.027935028 0.74182588
0.016408127 -0.029300183 0.74376893
0.016528297 -0.030695349 0.74584115
0.016651824 -0.032114208 0.74797136
0.016777212 -0.033554435 0.75013363
0.016904993 -0.035017431 0.75233704
0.017036805 -0.036507398 0.75461006
0.0171733 -0.038026571 0.75696391
0.017314738 -0.03957653 0.75940287
0.017459394 -0.041154265 0.76189739
0.017606579 -0.042758822 0.76443553
0.017750414 -0.044376016 0.76691586
0.017884649 -0.045989126 0.76923066
0.017997781 -0.04756555 0.77118152
0.018145567 -0.049252212 0.77372998
0.018295802 -0.050966829 0.77632076
0.018448547 -0.052710086 0.77895468
0.018603962 -0.054482996 0.78163469
0.018761916 -0.056285739 0.78435862
0.011786492 0.065218598 0.65052164
0.011749553 0.064230919 0.64992708
0.011712806 0.063249201 0.64933568
0.011676291 0.062273562 0.64874798
0.011655727 0.061386883 0.648417
0.011708531 0.060884356 0.6492669
0.011761778 0.060377151 0.65012383
0.01181555 0.059865475 0.65098929
0.011869777 0.059348881 0.65186214
0.011925036 0.058830202 0.65275145
0.01198173 0.058311075 0.65366393
0.012038964 0.057787031 0.65458506
0.012096749 0.05725795 0.65551513
0.01215509 0.056723744 0.65645415
0.01221523 0.056190073 0.65742207
0.012276851 0.055655092 0.65841389
