# .PCD v0.7 - Point Cloud Data file format
VERSION 0.7
FIELDS x y z
SIZE 4 4 4
TYPE F F F
COUNT 1 1 1
WIDTH 1314
HEIGHT 1
VIEWPOINT 0 0 0 1 0 0 0
POINTS 1314
DATA ascii
-0.0095830662 -0.02395761 0.69217658
-0.009609052 -0.024983525 0.69280392
-0.0096369972 -0.026019901 0.69347864
-0.010482405 -0.029350728 0.71388859
-0.010424053 -0.030229717 0.71247977
-0.010387265 -0.031161755 0.71159166
-0.0099990554 -0.030997038 0.70221949
-0.0099660736 -0.031891406 0.70142323
-0.0099523962 -0.032842904 0.70109296
-0.010103685 -0.034352511 0.70474547
-0.010332995 -0.036165446 0.71028143
-0.010359179 -0.037293047 0.71091366
-0.010400825 -0.038483024 0.71191901
-0.0094129853 0.027193099 0.71332037
-0.0093672462 0.026020139 0.71209347
-0.0093407826 0.024908751 0.71138364
-0.0093214475 0.023821503 0.71086496
-0.0092920959 0.022714049 0.71007758
-0.0092193875 0.021511912 0.70812726
-0.0091339303 0.020297647 0.70583487
-0.0090660024 0.019139349 0.70401275
-0.0090092309 0.018018484 0.70248991
-0.0089601511 0.016924769 0.70117331
-0.0089165773 0.015851706 0.70000452
-0.0088771693 0.014795303 0.69894737
-0.0088409539 0.01375258 0.69797593
-0.0088089248 0.012724012 0.69711679
-0.0087792147 0.011705667 0.69631982
-0.0087512359 0.010695964 0.69556928
-0.0087265773 0.0096962154 0.69490784
-0.0087029329 0.0087029338 0.69427359
-0.0086815916 0.0077169836 0.69370109
-0.0086616194 0.006736815 0.69316536
-0.0086431671 0.0057621002 0.69267035
-0.008626312 0.0047924221 0.69221818
-0.0086105112 0.0038269162 0.6917944
-0.0085963421 0.0028654635 0.6914143
-0.0085830055 0.0019073784 0.69105649
-0.0085711777 0.00095236301 0.69073927
-0.0085601639 2.9802322e-08 0.69044381
-0.0085505089 -0.00095003843 0.69018483
-0.0085417181 -0.0018981397 0.68994904
-0.008531847 -0.0028439164 0.68968421
-0.0085137812 -0.0037839115 0.68919969
-0.0084819971 -0.0047121942 0.68834704
-0.0084397765 -0.0056264997 0.68721449
-0.0084104259 -0.0065414011 0.68642718
-0.008390055 -0.0074577928 0.68588072
-0.0083753876 -0.0083753467 0.68548727
-0.0083684772 -0.0092982948 0.6853019
-0.0083663315 -0.010225505 0.68524438
-0.0083686011 -0.011158109 0.68530524
-0.0083793458 -0.012103498 0.68559349
-0.008399915 -0.0130665 0.68614519
-0.0084387325 -0.01406455 0.68718648
-0.0085097579 -0.015128434 0.68909174
-0.0085330103 -0.016117871 0.6897155
-0.0085435333 -0.017087042 0.68999773
-0.0085533345 -0.018056989 0.69026059
-0.0085650478 -0.019033432 0.69057482
-0.0085777408 -0.020014703 0.69091535
-0.0085933236 -0.021005869 0.69133329
-0.0086095892 -0.02200225 0.6917696
-0.0086289896 -0.023010612 0.69229001
-0.008650938 -0.024030358 0.69287878
-0.0086744679 -0.025059551 0.69351
-0.0087026302 -0.026107907 0.69426543
-0.0094110183 -0.029278696 0.71326768
-0.009373134 -0.030202299 0.71225142
-0.0090220468 -0.030073464 0.70283359
-0.0089922138 -0.030973166 0.7020334
-0.00896254 -0.031866789 0.70123744
-0.0090393601 -0.033144295 0.70329809
-0.0092949728 -0.035114318 0.71015477
-0.0093285916 -0.036277831 0.71105659
-0.0093545206 -0.037418038 0.71175212
-0.0084140571 0.028397441 0.71473753
-0.0083507597 0.027139992 0.71282732
-0.0083217667 0.026005507 0.71195245
-0.0083040204 0.024912089 0.71141684
-0.008284702 0.023818493 0.71083391
-0.0082424628 0.022666752 0.7095592
-0.0081603955 0.021421075 0.70708263
-0.008094782 0.020236999 0.70510256
-0.0080404095 0.019096017 0.70346171
-0.0079936534 0.017985731 0.70205069
-0.0079523949 0.01689887 0.70080566
-0.0079152836 0.015830576 0.69968569
-0.0078825811 0.014779836 0.69869888
-0.0078526437 0.013742119 0.69779539
-0.0078247068 0.012715131 0.69695228
-0.0077997027 0.011699617 0.69619775
-0.0077764578 0.010692626 0.69549632
-0.0077546141 0.009693265 0.69483709
-0.0077351634 0.0087020695 0.69425011
-0.0077163153 0.0077163577 0.6936813
-0.0076998398 0.0067373514 0.69318414
-0.0076838769 0.0057629347 0.69270241
-0.0076697725 0.004793644 0.69227678
-0.0076562464 0.0038281381 0.69186854
-0.0076443451 0.0028666556 0.69150943
-0.0076330039 0.0019082725 0.69116718
-0.0076231482 0.00095292926 0.69086975
-0.0076137818 -0 0.6905871
-0.0076059117 -0.00095069408 0.69034958
-0.0075979996 -0.0018994808 0.6901108
-0.007585905 -0.0028446913 0.68974584
-0.0075631724 -0.0037815571 0.68905985
-0.0075266524 -0.0047041178 0.68795776
-0.0074950275 -0.0056212544 0.68700337
-0.0074732266 -0.0065390468 0.68634546
-0.0074594393 -0.0074594319 0.68592942
-0.0074509974 -0.0083823502 0.68567461
-0.0074462015 -0.0093077421 0.68552989
-0.0074474206 -0.010240167 0.68556666
-0.0074545215 -0.011181772 0.685781
-0.0074683744 -0.012136102 0.68619907
-0.0074936803 -0.013113916 0.68696272
-0.007557746 -0.014170766 0.68889606
-0.0075895004 -0.015179008 0.68985438
-0.0076010586 -0.016152233 0.69020313
-0.0076097865 -0.017122 0.69046652
-0.0076192594 -0.018095732 0.69075239
-0.0076305596 -0.019076377 0.69109344
-0.0076434109 -0.020063907 0.69148123
-0.0076575647 -0.021058261 0.69190836
-0.0076739774 -0.022062659 0.69240361
-0.0076922346 -0.023076713 0.69295466
-0.0077131633 -0.024103612 0.69358623
-0.007736688 -0.025144219 0.69429612
-0.0083925696 -0.028324872 0.71408904
-0.008353618 -0.029237628 0.71291357
-0.0083239125 -0.030174136 0.71201718
-0.0080134002 -0.030050278 0.70264661
-0.0079868902 -0.030949175 0.70184666
-0.0080100652 -0.032040238 0.702546
-0.0082010552 -0.033829361 0.70830971
-0.0082960343 -0.035258114 0.71117592
-0.0083159581 -0.036382318 0.71177715
-0.0083574895 -0.037608683 0.71303046
-0.0073353788 0.02829361 0.71380901
-0.007301827 0.027121097 0.71265185
-0.0072825151 0.026008993 0.71198583
-0.0072672539 0.024916321 0.71145952
-0.0072424589 0.023796678 0.71060443
-0.0071796011 0.022564471 0.70843649
-0.0071148467 0.021344602 0.70620322
-0.0070637357 0.020182133 0.70444047
-0.007020073 0.019054502 0.70293456
-0.0069821761 0.017954201 0.70162755
-0.0069488198 0.016875744 0.70047712
-0.0069186222 0.015814006 0.69943565
-0.0068908539 0.014766157 0.69847798
-0.0068658111 0.013731629 0.69761425
-0.0068430337 0.012708515 0.69682866
-0.006821523 0.011694074 0.69608676
-0.0068023391 0.010689408 0.69542515
-0.0067842356 0.0096917748 0.69480085
-0.0067675877 0.0087011755 0.69422662
-0.006752349 0.0077169836 0.69370109
-0.0067379298 0.0067379177 0.69320381
-0.0067250961 0.0057643652 0.69276118
-0.0067127487 0.004794836 0.69233531
-0.0067019849 0.0038297474 0.69196403
-0.006691562 0.0028678477 0.69160461
-0.0066826758 0.0019093454 0.69129813
-0.0066740424 0.0009534657 0.69100034
-0.0066668522 -0 0.69075239
-0.0066599562 -0.00095140934 0.6905145
-0.0066515328 -0.0019004047 0.69022405
-0.0066358056 -0.0028439164 0.68968165
-0.0066076382 -0.0037757754 0.68871021
-0.0065751635 -0.0046965182 0.68759018
-0.0065546883 -0.0056182742 0.68688399
-0.0065404652 -0.0065404773 0.6863935
-0.0065304409 -0.0074633658 0.68604779
-0.0065250397 -0.0083893239 0.68586147
-0.0065247719 -0.0093210936 0.68585217
-0.0065281531 -0.010258496 0.68596882
-0.0065365592 -0.011205524 0.68625879
-0.0065549337 -0.012173414 0.68689245
-0.0065943273 -0.01318863 0.68825114
-0.0066425004 -0.014233917 0.68991256
-0.0066566397 -0.015215158 0.69040018
-0.0066645434 -0.016185313 0.69067276
-0.0066723893 -0.017157555 0.69094342
-0.006681886 -0.018136501 0.69127083
-0.0066922526 -0.019120723 0.69162846
-0.0067046275 -0.020113885 0.69205523
-0.0067180274 -0.021113783 0.6925174
-0.0067331893 -0.022123307 0.69304025
-0.0067512034 -0.023146987 0.69366157
-0.006770466 -0.024180233 0.69432592
-0.0067926035 -0.025229633 0.69508946
-0.0073291464 -0.028269559 0.71359408
-0.0073027709 -0.029211074 0.71268445
-0.0070295972 -0.029122591 0.7032631
-0.0070062829 -0.030026913 0.70245892
-0.0069871345 -0.030943036 0.70179856
-0.0070875781 -0.03240037 0.70526278
-0.0072598127 -0.034224808 0.71120286
-0.0072793365 -0.03535673 0.71187621
-0.007306579 -0.036532879 0.71281582
-0.0063183256 0.029485554 0.7150507
-0.0062770555 0.02824679 0.71339005
-0.0062563606 0.027110934 0.71255744
-0.006243038 0.026012689 0.71202135
-0.006227369 0.024909496 0.71139085
-0.0061905663 0.023730546 0.70991009
-0.0061294185 0.022474587 0.70744962
-0.0060811709 0.021284103 0.70550835
-0.0060410826 0.020136952 0.70389533
-0.006006611 0.019020975 0.70250827
-0.0059761209 0.017928362 0.70128143
-0.0059486488 0.016854525 0.70017606
-0.0059240223 0.015797377 0.69918519
-0.0059019183 0.014754832 0.69829571
-0.0058812452 0.013722897 0.69746393
-0.0058624106 0.012701899 0.69670606
-0.0058452664 0.011690557 0.69601619
-0.0058288332 0.010686249 0.69535506
-0.0058144736 0.0096907914 0.69477725
-0.0058006099 0.008700937 0.69421947
-0.0057881959 0.0077176094 0.69371998
-0.0057764356 0.0067391694 0.69324672
-0.0057658297 0.0057658553 0.69281995
-0.0057559251 0.0047966242 0.69242144
-0.0057469336 0.0038312972 0.69205964
-0.0057386728 0.0028693378 0.69172728
-0.0057312446 0.0019104183 0.69142836
-0.0057244692 0.00095409155 0.69115573
-0.005718559 2.9802322e-08 0.69091797
-0.0057124221 -0.00095203519 0.69067103
-0.0057017035 -0.0019005537 0.69023979
-0.0056829019 -0.002841413 0.68948323
-0.0056543876 -0.0037695765 0.6883359
-0.0056326822 -0.0046938658 0.68746251
-0.0056177154 -0.005617708 0.68686032
-0.0056073279 -0.006541878 0.68644238
-0.0056021796 -0.0074695647 0.68623525
-0.0055997763 -0.0083996356 0.68613851
-0.0056006955 -0.009334445 0.68617547
-0.0056074536 -0.010280311 0.68644738
-0.0056198607 -0.011239678 0.68694657
-0.0056421249 -0.012224585 0.68784249
-0.0056918012 -0.013280869 0.68984133
-0.0057100975 -0.014275193 0.69057745
-0.0057175793 -0.015246868 0.69087851
-0.0057241637 -0.016218454 0.69114351
-0.0057317703 -0.017195314 0.69144952
-0.0057402961 -0.018177599 0.69179261
-0.005750522 -0.019168377 0.692204
-0.005761337 -0.020164639 0.69263917
-0.0057741464 -0.021171868 0.69315463
-0.0057886424 -0.022189796 0.69373798
-0.0058044456 -0.023217738 0.69437373
-0.0058229766 -0.024262369 0.69511938
-0.0063025937 -0.027311206 0.7144177
-0.006276032 -0.028242141 0.71334893
-0.0060407422 -0.028190076 0.70388162
-0.006020681 -0.029099911 0.7030744
-0.0060007279 -0.030003607 0.70227152
-0.0060440744 -0.031227708 0.70401567
-0.0062181083 -0.03316322 0.7110182
-0.0062428825 -0.034335792 0.71201509
-0.0062596747 -0.035471439 0.71269071
-0.0052497368 0.029398561 0.71430063
-0.0052272291 0.028227031 0.71321386
-0.0052143079 0.027114421 0.71258998
-0.0052032461 0.026016235 0.7120558
-0.0051834746 0.024880707 0.71110123
-0.0051347073 0.023619682 0.70874649
-0.0050905128 0.022398293 0.70661259
-0.0050545982 0.021229357 0.70487845
-0.0050238837 0.020095527 0.70339543
-0.0049968716 0.018988132 0.70209122
-0.00497327 0.017903775 0.70095164
-0.004952007 0.016836822 0.69992495
-0.0049324608 0.015783876 0.69898117
-0.004914497 0.014743507 0.6981138
-0.0048984848 0.013715774 0.69734073
-0.0048833396 0.012696683 0.69660944
-0.0048695761 0.01168704 0.69594485
-0.0048568705 0.010685116 0.69533134
-0.0048449067 0.0096898377 0.69475365
-0.0048342338 0.0087016523 0.69423836
-0.0048238873 0.0077182353 0.69373882
-0.0048149191 0.0067409277 0.69330573
-0.0048060948 0.0057673454 0.69287968
-0.0047985911 0.0047985911 0.6925174
-0.0047911475 0.0038329363 0.69215798
-0.0047849528 0.0028710067 0.69185889
-0.0047787745 0.001911521 0.69156051
-0.0047738319 0.000954777 0.69132185
-0.0047688996 2.9802322e-08 0.69108373
-0.004762182 -0.00095242262 0.69075942
-0.004749543 -0.0018997788 0.69014913
-0.0047275363 -0.0028365254 0.68908656
-0.0047059632 -0.0037647486 0.68804491
-0.0046914197 -0.0046913922 0.6873427
-0.0046824459 -0.0056189001 0.68690938
-0.0046762493 -0.0065467358 0.68661022
-0.0046724239 -0.007475853 0.68642545
-0.0046731923 -0.0084117353 0.68646258
-0.0046767914 -0.0093535483 0.68663633
-0.0046843397 -0.010305524 0.68700087
-0.0046988567 -0.011277199 0.68770176
-0.0047357515 -0.012312949 0.68948323
-0.0047606602 -0.013329804 0.69068587
-0.0047689364 -0.014306784 0.69108552
-0.0047744331 -0.015278161 0.69135094
-0.0047802534 -0.016252846 0.69163197
-0.0047872965 -0.017234266 0.69197202
-0.0047951695 -0.018221617 0.69235218
-0.0048040645 -0.019216269 0.69278169
-0.0048141591 -0.020219445 0.69326907
-0.0048254319 -0.02123186 0.69381344
-0.0048386096 -0.022257566 0.6944496
-0.0048531019 -0.023294866 0.69514942
-0.0052694189 -0.026347101 0.71525097
-0.0052438611 -0.027268052 0.71401685
-0.0052251769 -0.028215945 0.7131148
-0.0050300448 -0.028168231 0.70369297
-0.0050133332 -0.029077321 0.70288604
-0.0050210604 -0.030126333 0.70325911
-0.005109142 -0.03167665 0.70751214
-0.0052048266 -0.03331089 0.71213216
-0.0052172439 -0.034433782 0.71273166
-0.0052421908 -0.035646886 0.71393627
-0.0042174184 0.030576289 0.71536463
-0.0041940515 0.029358387 0.71395427
-0.0041809622 0.028221488 0.71316421
-0.0041721244 0.027118832 0.71263093
-0.0041604685 0.026002944 0.71192735
-0.0041322419 0.024793506 0.71022379
-0.0040923948 0.023531288 0.70781887
-0.0040608589 0.022334754 0.70591545
-0.0040346305 0.021181822 0.70433235
-0.0040120012 0.020060003 0.70296657
-0.0039919955 0.018962026 0.70175916
-0.0039739395 0.017882764 0.70066935
-0.0039574541 0.016819209 0.69967437
-0.0039429371 0.015771747 0.69879824
-0.0039293594 0.014735073 0.69797873
-0.0039167483 0.013708651 0.69721752
-0.0039054977 0.012692869 0.69653857
-0.0038947209 0.011684179 0.69588816
-0.0038851041 0.010684043 0.69530773
-0.0038760155 0.0096900761 0.69475913
-0.0038677009 0.0087023377 0.69425726
-0.0038600329 0.007720083 0.69379449
-0.0038529143 0.0067426264 0.6933648
-0.0038464719 0.0057697296 0.692976
-0.0038404642 0.0048006177 0.69261342
-0.0038351067 0.0038351417 0.69229007
-0.0038301453 0.0028726161 0.69199061
-0.0038257816 0.0019129217 0.69172722
-0.0038218221 0.00095546246 0.69148827
-0.0038173464 -0 0.69121814
-0.0038092381 -0.00095230341 0.69072884
-0.0037948941 -0.0018974245 0.68986303
-0.003775893 -0.0028319061 0.68871623
-0.0037627742 -0.0037627518 0.68792444
-0.0037537131 -0.0046921074 0.68737751
-0.0037472474 -0.005620867 0.68698728
-0.0037441209 -0.0065521896 0.68679857
-0.0037433226 -0.0074866414 0.68675035
-0.0037445691 -0.0084252656 0.68682563
-0.0037494095 -0.009373486 0.68711776
-0.0037590431 -0.010337353 0.6876992
-0.0037776746 -0.011332989 0.68882382
-0.0038089193 -0.012378991 0.69070953
-0.0038183224 -0.013364106 0.69127703
-0.0038229902 -0.014336199 0.69155878
-0.0038274645 -0.01530984 0.69182879
-0.0038328003 -0.016289413 0.69215089
-0.0038386078 -0.017273694 0.69250137
-0.0038457182 -0.018267155 0.69293052
-0.0038532405 -0.019266188 0.69338459
-0.0038619693 -0.020275295 0.69391137
-0.0038721608 -0.021296859 0.69452649
-0.0038829939 -0.022327185 0.6951803
-0.0038957216 -0.023374319 0.69594848
-0.0042071878 -0.026294887 0.71474713
-0.0041912762 -0.027243286 0.71378678
-0.0040343376 -0.027231753 0.70431471
-0.0040208995 -0.028146267 0.70350367
-0.0040075504 -0.029054701 0.70269799
-0.0040586353 -0.030439794 0.70578122
-0.004163844 -0.032269776 0.71213114
-0.004175676 -0.033405393 0.71284527
-0.0041901707 -0.034568876 0.71372008
-0.0031559747 0.030507773 0.7147941
-0.0031433385 0.029337853 0.71377724
-0.0031361277 0.028225154 0.71319699
-0.0031292629 0.027120292 0.71264458
-0.0031156491 0.025963783 0.71154892
-0.0030850538 0.024680436 0.70908689
-0.0030594121 0.023455501 0.70702338
-0.0030382222 0.022280306 0.70531821
-0.0030200672 0.021140486 0.70385718
-0.003004099 0.020027339 0.70257211
-0.0029898698 0.018935889 0.70142704
-0.0029773095 0.01786387 0.70041633
-0.0029657565 0.016805977 0.69948655
-0.0029549904 0.015759945 0.6986202
-0.0029454811 0.014727414 0.69785494
-0.0029365269 0.013703763 0.69713438
-0.0029282318 0.012689024 0.6964668
-0.0029207449 0.011683017 0.69586426
-0.0029135342 0.010683 0.69528401
-0.0029072477 0.009690851 0.6947782
-0.0029011234 0.0087034106 0.69428527
-0.002895762 0.0077220798 0.6938538
-0.0028905869 0.0067447126 0.6934374
-0.002886052 0.0057721138 0.69307244
-0.0028817193 0.0048029125 0.69272375
-0.0028779735 0.0038373172 0.69242233
-0.0028743912 0.002874434 0.69213402
-0.0028714112 0.0019142926 0.69189417
-0.0028683934 0.00095617771 0.69165134
-0.0028638181 -0 0.69128317
-0.0028551791 -0.00095170736 0.69058794
-0.0028412789 -0.001894176 0.6894694
-0.0028293363 -0.0028293431 0.68850833
-0.0028211367 -0.0037614703 0.68784845
-0.0028158976 -0.0046931505 0.68742681
-0.0028127842 -0.0056255758 0.68717635
-0.0028110775 -0.0065591633 0.6870389
-0.0028115408 -0.0074974298 0.68707621
-0.0028144193 -0.0084432065 0.68730783
-0.00281996 -0.0093998313 0.6877538
-0.002829955 -0.010376483 0.6885581
-0.002854777 -0.011419058 0.69055557
-0.0028656879 -0.012417972 0.69143367
-0.00286983 -0.013392508 0.69176698
-0.0028731478 -0.014365703 0.69203395
-0.0028768373 -0.01534313 0.69233096
-0.0028811332 -0.016326427 0.6926766
-0.0028861519 -0.017316937 0.69308048
-0.0028915894 -0.018313408 0.6935181
-0.0028979087 -0.019319385 0.69402659
-0.0029050647 -0.020335436 0.69460249
-0.0029130252 -0.021362126 0.69524306
-0.0029221666 -0.02240327 0.69597864
-0.0031657056 -0.025325626 0.71557724
-0.0031517735 -0.026264757 0.71445602
-0.0031404581 -0.027217269 0.71354544
-0.0030233886 -0.027210474 0.70412445
-0.0030133259 -0.028124362 0.70331466
-0.0030310077 -0.029299766 0.70473754
-0.0031195343 -0.031195313 0.71186167
-0.0031334434 -0.032378912 0.71298099
-0.0031415888 -0.033510238 0.7136364
-0.003166066 -0.034826726 0.71560621
-0.0021124573 0.031686932 0.71581697
-0.0021017205 0.030474961 0.71452105
-0.0020955326 0.029337466 0.71377409
-0.0020911363 0.028230339 0.71324337
-0.002084689 0.02710101 0.71246511
-0.0020687263 0.025859088 0.71053827
-0.0020492563 0.024591088 0.70818806
-0.0020338132 0.023388863 0.70632386
-0.0020209327 0.022230268 0.70476907
-0.00200982 0.021103144 0.70342761
-0.0019999628 0.019999653 0.70223778
-0.0019910655 0.018915176 0.70116377
-0.0019828987 0.017846107 0.70017791
-0.0019756486 0.016793013 0.69930279
-0.0019689626 0.015751719 0.69849569
-0.0019626527 0.014719903 0.69773406
-0.0019570948 0.013699681 0.69706315
-0.0019517891 0.01268664 0.6964227
-0.0019469665 0.011681825 0.6958406
-0.0019424994 0.010683805 0.69530135
-0.0019383305 0.0096916556 0.69479811
-0.0019345758 0.0087055862 0.69434488
-0.0019309996 0.0077240467 0.69391316
-0.00192786 0.0067475438 0.69353414
-0.0019248414 0.0057745576 0.69316983
-0.001922246 0.0048056245 0.69285655
-0.0019197457 0.0038395226 0.69255471
-0.0019176487 0.0028764904 0.69230163
-0.0019156593 0.0019156635 0.69206142
-0.0019132127 0.00095662475 0.69176602
-0.0019086659 2.9802322e-08 0.69121724
-0.0019004883 -0.00095018744 0.69023013
-0.0018910932 -0.0018910766 0.68909603
-0.001885222 -0.0028277934 0.68838733
-0.0018811679 -0.003762275 0.68789792
-0.0018783221 -0.0046957731 0.68755448
-0.0018767579 -0.0056302547 0.68736559
-0.001876765 -0.0065686703 0.68736649
-0.0018778567 -0.0075113773 0.68749821
-0.0018804326 -0.0084619522 0.68780923
-0.0018857905 -0.0094289184 0.68845594
-0.0018984621 -0.010441512 0.68998557
-0.0019111228 -0.011466742 0.69151384
-0.0019149114 -0.01244691 0.69197118
-0.0019171566 -0.013420075 0.69224221
-0.0019194805 -0.014396071 0.69252264
-0.0019222533 -0.015377998 0.69285738
-0.0019253452 -0.016365379 0.69323063
-0.0019289227 -0.01736027 0.69366241
-0.0019328942 -0.018362492 0.69414186
-0.0019373472 -0.019373477 0.69467944
-0.0019426576 -0.020397902 0.69532049
-0.0019483614 -0.021431953 0.69600892
-0.0021181267 -0.024358422 0.71650141
-0.0021067648 -0.025281161 0.71512991
-0.0020992428 -0.026240528 0.71422195
-0.0020207614 -0.026269853 0.70474839
-0.0020140184 -0.027189225 0.70393443
-0.0020143671 -0.028201103 0.70397651
-0.0020476715 -0.029691249 0.70799673
-0.0020898525 -0.031347752 0.71308839
-0.0020948746 -0.032470554 0.71369469
-0.0021044256 -0.033670813 0.71484756
-0.0010627299 0.032944649 0.71738666
-0.0010540436 0.031621307 0.71528959
-0.0010501677 0.030454874 0.7143538
-0.0010479024 0.02934128 0.71380693
-0.0010454895 0.028228223 0.71322441
-0.0010402814 0.027047306 0.71196705
-0.0010298964 0.025747448 0.7094599
-0.0010215113 0.024516284 0.70743561
-0.0010145683 0.023335129 0.70575941
-0.0010086128 0.022189528 0.70432156
-0.0010033663 0.021070689 0.70305496
-0.00099864823 0.01997298 0.70191592
-0.00099448406 0.018895179 0.70091057
-0.00099068764 0.017832369 0.69999409
-0.00098714605 0.016781509 0.69913906
-0.00098396628 0.015743494 0.69837141
-0.00098102621 0.014715403 0.69766164
-0.00097824889 0.013695508 0.69699109
-0.00097579556 0.012685359 0.69639879
-0.00097343017 0.011681169 0.69582772
-0.0009713326 0.010684669 0.69532132
-0.00096932676 0.009693265 0.69483709
-0.00096753478 0.0087078512 0.69440448
-0.00096584647 0.0077268183 0.69399691
-0.00096433121 0.0067503452 0.69363105
-0.00096292456 0.0057775378 0.69329149
-0.00096166972 0.0048083663 0.69298851
-0.00096051779 0.0038421154 0.6927104
-0.00095951947 0.0028785765 0.69246936
-0.00095847913 0.001916945 0.6922183
-0.00095667952 0.00095668435 0.69178379
-0.00095348555 2.9802322e-08 0.69101262
-0.00094868033 -0.00094863772 0.6898526
-0.00094504305 -0.0018900633 0.68897444
-0.00094254001 -0.0028276145 0.68837023
-0.00094078551 -0.0037631094 0.68794662
-0.00093994784 -0.0046997368 0.68774438
-0.00093958422 -0.0056374967 0.68765664
-0.00093973952 -0.0065781772 0.68769413
-0.00094093411 -0.0075274706 0.68798256
-0.00094312633 -0.0084881186 0.68851173
-0.00094717898 -0.0094717443 0.68949008
-0.0009553862 -0.010509223 0.69147158
-0.00095824047 -0.011498868 0.69216061
-0.00095944584 -0.012472749 0.69245166
-0.0009605657 -0.013447851 0.69272196
-0.00096187316 -0.014428079 0.69303763
-0.0009633138 -0.015413016 0.69338542
-0.00096508639 -0.016406476 0.69381338
-0.0009669328 -0.017404765 0.69425911
-0.00096912397 -0.018413335 0.6947881
-0.00097164576 -0.019432902 0.6953969
-0.0009743211 -0.020460755 0.69604284
-0.00097751513 -0.021505326 0.69681394
-0.0010566122 -0.024302065 0.71590966
-0.0010524208 -0.025258064 0.71489781
-0.0010129785 -0.025324464 0.70537555
-0.0010095898 -0.026249319 0.70455742
-0.0010062235 -0.027168036 0.70374477
-0.0010168197 -0.028470933 0.706303
-0.0010447298 -0.03029713 0.71304101
-0.0010479683 -0.031439036 0.71382284
-0.0010513107 -0.032590628 0.71462983
0 0.032807231 0.71631646
0 0.03159672 0.71509135
0 0.030458868 0.71438682
0 0.029346198 0.71384937
0 0.028203338 0.71300203
0 0.026927441 0.71085358
0 0.025654227 0.70855939
0 0.024448782 0.70675671
0 0.023283899 0.70522219
0 0.022150129 0.70388943
0 0.021041483 0.70271933
0 0.019951791 0.70166016
0 0.018877745 0.70068842
0 0.0178186 0.69980955
0 0.016772717 0.69901407
0 0.015736341 0.698264
0 0.014710993 0.69759011
0 0.01369372 0.69696057
0 0.012684077 0.69637495
0 0.011682153 0.69584692
0 0.010685563 0.69534045
0 0.0096957684 0.69489694
0 0.0087100267 0.69446319
0 0.0077300072 0.69409418
0 0.0067531466 0.69372803
0 0.0057809055 0.69342488
0 0.0048111081 0.69312161
0 0.003844887 0.69287884
0 0.0028806627 0.69263744
0 0.0019177496 0.69231045
0 0.00095629692 0.69169194
0 -0 0.69061327
0 -0.00094744563 0.68956375
0 -0.00188905 0.68885303
0 -0.0028282106 0.68841994
0 -0.0037660897 0.68812442
0 -0.004703939 0.68794751
0 -0.0056456327 0.68798506
0 -0.0065920651 0.68817407
0 -0.0075468123 0.68856668
0 -0.008517772 0.68930763
0 -0.0095438957 0.69123131
0 -0.010546386 0.69228655
0 -0.011523783 0.69266146
0 -0.012498587 0.69293058
0 -0.013476819 0.69322079
0 -0.014460981 0.69356734
0 -0.015451372 0.69396442
0 -0.016447991 0.69440359
0 -0.017452866 0.69490421
0 -0.018467337 0.69547439
0 -0.019492775 0.69611979
0 -0.020530462 0.69684434
0 -0.023321778 0.71674728
0 -0.024269968 0.71557289
0 -0.025234103 0.71465647
0 -0.025304586 0.70518363
0 -0.026228875 0.70436776
0 -0.02736026 0.70546377
0 -0.029203624 0.71262038
0 -0.030406743 0.71395326
0 -0.031534284 0.7145893
0 -0.03281194 0.7163533
0.0010640542 0.034049779 0.71770632
0.0010563356 0.032746434 0.7158429
0.0010527174 0.031581551 0.7149694
0.0010504456 0.03046298 0.71442091
0.0010478761 0.029340565 0.71380055
0.0010418757 0.02813068 0.71235192
0.0010314506 0.026817739 0.70983505
0.0010232243 0.025580615 0.70784914
0.0010164025 0.024393648 0.70620215
0.0010105399 0.023242474 0.70478678
0.0010053703 0.022118181 0.70353878
0.0010007174 0.021015048 0.70241547
0.00099653588 0.01993075 0.70140594
0.00099279883 0.018863201 0.70050377
0.0009893087 0.017807543 0.69966114
0.00098611112 0.016763926 0.6988892
0.00098321994 0.015731543 0.69819123
0.00098046113 0.014706939 0.69752514
0.0009780234 0.013692349 0.69693661
0.00097569666 0.012684077 0.69637495
0.00097358925 0.011683106 0.69586617
0.0009716269 0.010687917 0.69539237
0.00096982269 0.0096982419 0.69495678
0.00096817885 0.0087136328 0.69455993
0.00096665625 0.0077332556 0.69419235
0.0009652875 0.006757021 0.69386196
0.00096403022 0.0057841837 0.69355839
0.00096291711 0.0048145652 0.6932897
0.00096191379 0.0038476586 0.6930474
0.00096077973 0.0028823614 0.69277364
0.0009587289 0.0019174814 0.69227856
0.00095508347 0.00095507503 0.69139844
0.00095027307 2.9802322e-08 0.6902371
0.00094697822 -0.00094696879 0.68944168
0.00094471109 -0.0018894076 0.68889433
0.00094310497 -0.0028293133 0.6885066
0.00094231637 -0.0037692487 0.68831623
0.0009421531 -0.0047107339 0.68827677
0.00094252225 -0.0056551099 0.68836594
0.00094375247 -0.006606251 0.68866289
0.0009462834 -0.0075702369 0.68927389
0.00095132098 -0.0085618794 0.69049007
0.00095894566 -0.0095894337 0.69233084
0.0009611377 -0.010572523 0.69286007
0.00096230226 -0.011547625 0.69314122
0.00096346228 -0.012524992 0.69342124
0.00096482213 -0.013507485 0.69374961
0.00096633518 -0.014495015 0.69411492
0.00096814136 -0.015490234 0.69455087
0.00097008597 -0.016491443 0.69502038
0.00097230281 -0.017501444 0.69555557
0.00097495894 -0.01852423 0.69619679
0.00097777112 -0.01955539 0.69687575
0.00098101469 -0.020601302 0.69765878
0.0010580333 -0.023276687 0.71625274
0.001054248 -0.024247676 0.71533883
0.0010147905 -0.024354964 0.70581305
0.0010113936 -0.025284857 0.70499295
0.0010101727 -0.026264459 0.70469815
0.001026036 -0.027702957 0.70852786
0.0010488426 -0.029367566 0.7140339
0.0010514521 -0.030492097 0.71466386
0.0010560191 -0.031680524 0.71576643
0.0021207484 0.033932 0.71681786
0.0021111828 0.032723367 0.71566319
0.0021057096 0.031585664 0.71500254
0.0021011999 0.030467361 0.71445823
0.0020934723 0.029308617 0.71352541
0.0020739655 0.027998567 0.71117067
0.0020557647 0.026724994 0.70897365
0.0020410975 0.025513738 0.70720315
0.0020285691 0.024342865 0.70569086
0.0020175755 0.023202121 0.70436382
0.0020079568 0.022087544 0.70320272
0.0019993156 0.020992815 0.70215964
0.0019913744 0.019913763 0.70120102
0.0019840624 0.018848628 0.7003184
0.0019775773 0.017798215 0.69953567
0.001971453 0.016757399 0.69879627
0.0019658452 0.015726775 0.6981194
0.0019607223 0.01470542 0.697501
0.001955848 0.013690919 0.69691265
0.001951553 0.01268515 0.69639421
0.0019473757 0.011684269 0.69588995
0.0019437521 0.010690689 0.69545251
0.0019402246 0.009701103 0.69502676
0.0019371674 0.0087172985 0.69465768
0.0019342094 0.0077368617 0.69430065
0.0019316855 0.0067609251 0.69399595
0.00192925 0.00578776 0.69370198
0.0019272361 0.0048180819 0.69345891
0.0019252044 0.0038504004 0.69321364
0.0019221203 0.0028832257 0.69284135
0.0019162903 0.0019163191 0.6921376
0.0019068694 0.0009534657 0.69100034
0.0018988583 -0 0.69003344
0.001893376 -0.00094667077 0.68937165
0.001889836 -0.0018898249 0.68894434
0.0018877969 -0.0028316677 0.68869817
0.0018867292 -0.0037734509 0.68856925
0.0018870422 -0.0047175586 0.68860704
0.0018890941 -0.0056672692 0.68885475
0.0018930321 -0.0066256225 0.68933004
0.0019000481 -0.0076001585 0.69017696
0.0019171052 -0.0086269379 0.69223595
0.0019237018 -0.0096184909 0.69303226
0.0019263532 -0.010594904 0.69335228
0.0019285881 -0.011571497 0.69362205
0.0019311487 -0.01255244 0.69393122
0.0019340523 -0.013538361 0.6942817
0.0019375423 -0.014531523 0.69470298
0.0019412483 -0.01552996 0.69515026
0.0019455734 -0.016537368 0.69567239
0.001950564 -0.017555058 0.69627488
0.0019559474 -0.01858148 0.69692463
0.0019622527 -0.019622505 0.69768572
0.0021229438 -0.022290885 0.71708286
0.0021141262 -0.023255348 0.7160185
0.0020348222 -0.023400426 0.70644569
0.0020279854 -0.024335831 0.70562041
0.0020212021 -0.025265008 0.70480156
0.0020393755 -0.026511848 0.70699531
0.0020968148 -0.028306961 0.71392888
0.0021040894 -0.029457182 0.71480691
0.0021102477 -0.030598611 0.71555036
0.0031961456 0.035157621 0.71802688
0.003176155 0.033879012 0.71641809
0.003165839 0.032713681 0.71558791
0.0031590562 0.031590581 0.71504217
0.003150437 0.030454248 0.7143485
0.0031296676 0.029210269 0.71267706
0.003099015 0.027891159 0.71021032
0.0030748288 0.026648551 0.70826405
0.0030547304 0.025456101 0.70664662
0.0030374352 0.024299502 0.70525479
0.003022159 0.023169905 0.70402545
0.0030083854 0.022061497 0.7029171
0.0029957893 0.020970523 0.70190334
0.0029847568 0.019898444 0.70101559
0.0029744422 0.018838167 0.70018554
0.0029648074 0.017788857 0.6994102
0.0029562709 0.016752183 0.69872326
0.0029481191 0.015723348 0.69806719
0.0029407837 0.014703929 0.69747692
0.0029339211 0.013691664 0.69692463
0.0029275697 0.012686163 0.69641352
0.0029218139 0.011687309 0.69595033
0.0029163756 0.010693401 0.69551271
0.002911556 0.0097052157 0.69512486
0.0029069665 0.0087209344 0.69475549
0.002902986 0.0077413023 0.69443524
0.0028991958 0.0067647696 0.69413018
0.0028959853 0.0057919919 0.6938718
0.0028929603 0.0048216283 0.69362843
0.0028892404 0.0038523078 0.69332904
0.0028823281 0.0028823316 0.69277275
0.0028698849 0.0019132495 0.69177139
0.0028556893 0.00095191598 0.69062901
0.0028467644 -0 0.68991077
0.0028406875 -0.00094687939 0.68942177
0.0028364577 -0.0018909872 0.68908137
0.0028340798 -0.0028340518 0.6888901
0.0028342083 -0.0037789345 0.68890035
0.0028360395 -0.0047267079 0.68904775
0.0028402358 -0.0056804419 0.68938541
0.0028486336 -0.006646812 0.69006121
0.0028695776 -0.0076521933 0.69174671
0.002886818 -0.0086604357 0.69313407
0.0028921578 -0.009640485 0.69356376
0.0028955161 -0.010616839 0.69383407
0.0028991173 -0.011596441 0.69412386
0.0029033567 -0.012581199 0.69446504
0.0029081942 -0.01357156 0.69485432
0.0029136811 -0.014568388 0.69529587
0.0029198134 -0.015572309 0.69578928
0.0029268044 -0.016585231 0.69635195
0.0029348845 -0.017609268 0.69700217
0.0029437598 -0.018643796 0.69771641
0.0031949349 -0.021299541 0.71792942
0.0031796533 -0.022257566 0.71669966
0.0031681908 -0.023233384 0.71577722
0.0030498274 -0.023382038 0.7062521
0.0030396001 -0.024316788 0.70542908
0.0030491084 -0.025409222 0.70619428
0.0031325151 -0.027148426 0.71290618
0.0031577006 -0.028419286 0.71493304
0.0031654919 -0.029544532 0.71556002
0.0031846857 -0.030785292 0.71710467
0.0042498363 0.035061181 0.71732128
0.0042318823 0.03385511 0.7162376
0.0042216885 0.032718122 0.71562237
0.0042125182 0.031593919 0.71506888
0.0041947197 0.03041172 0.71399462
0.0041534402 0.029074103 0.71150321
0.0041184672 0.027799696 0.70939237
0.004089619 0.026582539 0.70765126
0.0040649497 0.025405973 0.70616233
0.0040432699 0.024259657 0.70485383
0.0040239389 0.023137689 0.70368707
0.0040069246 0.022038102 0.7026602
0.0039912947 0.020954311 0.7017169
0.0039767502 0.019883752 0.70083904
0.0039638337 0.018828243 0.70005941
0.0039517656 0.017783016 0.69933105
0.0039404994 0.016747147 0.69865108
0.0039304239 0.015721738 0.69804293
0.0039207228 0.014702737 0.69745743
0.0039122156 0.013692796 0.696944
0.0039040351 0.01268813 0.69645023
0.0038967533 0.011690319 0.69601077
0.0038898613 0.010697097 0.69559485
0.003883702 0.0097092688 0.69522309
0.0038779681 0.0087254643 0.69487697
0.0038728802 0.0077457726 0.69456995
0.0038681945 0.0067693293 0.69428706
0.0038641316 0.0057961941 0.69404191
0.0038599139 0.0048249066 0.69378734
0.0038526324 0.0038526952 0.69334781
0.0038396239 0.0028797388 0.6925627
0.0038201879 0.0019100904 0.69138968
0.0038055445 0.00095140934 0.6905058
0.003795513 2.9802322e-08 0.6899004
0.0037884004 -0.000947088 0.68947107
0.0037851336 -0.0018925667 0.68927395
0.0037838309 -0.0028378665 0.68919528
0.0037845895 -0.0037845969 0.68924117
0.0037895341 -0.0047369003 0.68953949
0.0037987835 -0.0056981444 0.69009781
0.0038164 -0.0066786706 0.69116104
0.0038489278 -0.0076978505 0.69312423
0.0038594075 -0.0086836517 0.6937567
0.0038642064 -0.0096605122 0.69404638
0.0038688376 -0.01063931 0.69432592
0.0038741846 -0.011622548 0.69464868
0.0038801183 -0.012610346 0.69500673
0.0038873984 -0.013605893 0.69544613
0.0038950243 -0.014606327 0.6959064
0.0039039436 -0.015615791 0.69644475
0.0039144806 -0.016636521 0.69708073
0.0039255363 -0.01766488 0.69774801
0.003938545 -0.01870808 0.69853312
0.0042514615 -0.021257281 0.71741927
0.0042356439 -0.022237122 0.71646464
0.0040769563 -0.022423238 0.70688701
0.0040632496 -0.02336365 0.70605969
0.0040528164 -0.024316877 0.70543003
0.0041129654 -0.025705993 0.70906037
0.004211118 -0.027372211 0.71498436
0.0042221514 -0.028499514 0.71565032
0.0042393943 -0.029675752 0.71669096
0.0053339056 0.036270589 0.7183646
0.0053055808 0.035016894 0.71699703
0.0052892938 0.033851475 0.7162106
0.0052780234 0.032723784 0.71566641
0.0052621039 0.03157264 0.71489775
0.005222755 0.030292004 0.71299779
0.0051728426 0.028967917 0.71058786
0.0051333373 0.027720034 0.70868039
0.0051004551 0.026522398 0.70709264
0.005072122 0.025360644 0.7057246
0.0050470321 0.024225771 0.70451319
0.0050244285 0.023112386 0.70342177
0.005003707 0.022016346 0.70242125
0.0049852412 0.020938039 0.70152968
0.0049682921 0.019873202 0.70071125
0.0049523399 0.018818915 0.69994104
0.0049381857 0.017777503 0.69925761
0.0049248291 0.016744435 0.69861269
0.0049125282 0.015720129 0.69801873
0.0049013258 0.014703989 0.69747782
0.0048906901 0.013693959 0.69696432
0.0048812814 0.012691319 0.69651002
0.0048721745 0.011693209 0.69607031
0.0048643686 0.010701627 0.69569337
0.0048566819 0.0097133815 0.69532228
0.0048502604 0.0087305009 0.69501215
0.0048438935 0.0077502429 0.69470477
0.0048387595 0.0067742765 0.69445682
0.0048336922 0.0058004558 0.6942122
0.0048268656 0.0048268735 0.69388258
0.0048138816 0.0038511455 0.69325566
0.0047912025 0.002874732 0.69216067
0.0047692996 0.0019077659 0.6911031
0.0047543813 0.0009508729 0.69038272
0.004745435 2.9802322e-08 0.68995082
0.0047394121 -0.00094783306 0.68965995
0.004735895 -0.0018943548 0.6894902
0.0047366843 -0.0028420091 0.68952823
0.0047409385 -0.003792733 0.68973374
0.0047496515 -0.0047496259 0.69015443
0.0047658472 -0.0057190061 0.69093639
0.0048070368 -0.0067298412 0.69292516
0.0048273131 -0.0077236593 0.69390416
0.0048346641 -0.0087023675 0.69425917
0.0048403135 -0.009680599 0.69453192
0.0048465207 -0.010662317 0.69483167
0.0048538363 -0.011649191 0.69518483
0.0048624021 -0.012642205 0.69559848
0.0048717191 -0.013640791 0.69604832
0.0048823678 -0.014647067 0.69656247
0.0048947092 -0.015663028 0.6971584
0.0049082683 -0.016688108 0.69781303
0.004923821 -0.017725766 0.69856405
0.0053319046 -0.020261228 0.71826804
0.0053087333 -0.0212349 0.71714926
0.0051094131 -0.02145952 0.70752525
0.0050921915 -0.022405624 0.70669365
0.005075064 -0.023345292 0.70586669
0.0051132147 -0.024543434 0.70770872
0.0052604885 -0.026302427 0.71481973
0.0052807643 -0.027459949 0.71579874
0.0052956529 -0.02859652 0.71651769
0.0064677866 0.037728757 0.72106451
0.0063873134 0.036194801 0.71782649
0.0063621905 0.034992069 0.71681571
0.006347985 0.033855915 0.7162441
0.0063334946 0.032723129 0.71566105
0.0063026999 0.031513512 0.71442199
0.0062396391 0.030158281 0.71188456
0.0061881421 0.028878003 0.70981252
0.0061456044 0.027655244 0.70810097
0.0061091874 0.026473165 0.70663565
0.0060771327 0.025321424 0.70534587
0.0060483366 0.024193376 0.70418715
0.0060228789 0.02308771 0.70316285
0.0059997928 0.02199924 0.70223391
0.0059782634 0.020923942 0.70136768
0.005958803 0.019862711 0.70058465
0.0059409975 0.018813193 0.69986814
0.0059240223 0.017772108 0.69918513
0.0059091905 0.016742736 0.69858831
0.0058948947 0.015719712 0.69801319
0.0058820746 0.014705181 0.69749731
0.0058700219 0.01369673 0.69701236
0.0058590472 0.012694597 0.69657075
0.0058489558 0.011697948 0.69616473
0.0058396948 0.010706127 0.69579208
0.0058313236 0.009718895 0.69545519
0.0058236774 0.0087355375 0.69514757
0.0058168843 0.0077558458 0.69487423
0.0058107595 0.0067792535 0.69462782
0.0058038398 0.0058038533 0.69434941
0.0057914117 0.0048261881 0.69384933
0.0057691978 0.0038461387 0.69295549
0.0057399669 0.0028699934 0.69177938
0.0057200845 0.0019067228 0.69097936
0.0057064723 0.00095111132 0.69043159
0.0056968997 2.9802322e-08 0.69004643
0.0056921039 -0.00094866753 0.68985343
0.00569137 -0.0018971264 0.68982399
0.0056939605 -0.0028469563 0.68992817
0.0057014436 -0.0038009584 0.6902293
0.0057174051 -0.0047644675 0.69087154
0.0057518883 -0.0057518482 0.69225907
0.0057943631 -0.0067600608 0.69396806
0.0058067134 -0.0077422857 0.69446504
0.0058136848 -0.0087205172 0.69474554
0.0058208765 -0.0097014308 0.69503486
0.0058291955 -0.010686845 0.6953696
0.0058386959 -0.011677355 0.69575185
0.0058497083 -0.012674361 0.69619501
0.0058617922 -0.013677478 0.6966812
0.0058756052 -0.014688998 0.69723701
0.0058918875 -0.015711665 0.69789213
0.0059093763 -0.016743213 0.69859588
0.0064207003 -0.019262105 0.71916991
0.0063875583 -0.020227224 0.71783638
0.0063644839 -0.021214932 0.71690798
0.0061264662 -0.021442622 0.70733082
0.0061058076 -0.022387922 0.70649964
0.006116481 -0.0234465 0.70692909
0.0062392759 -0.024957091 0.71187001
0.0063398881 -0.026416153 0.7159183
0.0063554561 -0.027540296 0.71654475
0.0063881287 -0.028746575 0.71785939
0.0074822395 0.037411213 0.7188741
0.0074446429 0.036159724 0.71757746
0.0074231224 0.034994751 0.7168352
0.0074071726 0.033861399 0.71628511
0.0073828469 0.032695472 0.71544617
0.0073211803 0.031376511 0.71331936
0.0072529274 0.030047864 0.71096539
0.0071993764 0.028797537 0.70911855
0.0071539674 0.027593911 0.70755243
0.0071146153 0.026425719 0.70619524
0.0070800707 0.025285989 0.70500386
0.0070488658 0.024167597 0.70392758
0.00702027 0.02306661 0.70294136
0.006994307 0.021982133 0.70204592
0.0069709481 0.020912856 0.7012403
0.0069489297 0.019854069 0.70048094
0.0069290246 0.018807352 0.69979441
0.0069106226 0.017770231 0.69915974
0.0068933498 0.016741008 0.69856405
0.0068779448 0.015721023 0.69803268
0.0068629854 0.014706403 0.6975168
0.0068501267 0.013700277 0.69707334
0.0068375031 0.012698263 0.69663799
0.0068266545 0.011702865 0.69626379
0.0068161064 0.010711044 0.69590002
0.0068071517 0.0097245276 0.69559115
0.0067984834 0.0087409317 0.69529223
0.0067913388 0.0077615678 0.69504577
0.0067841043 0.0067841113 0.69479632
0.0067732153 0.0058056414 0.6944207
0.006752531 0.0048232675 0.69370735
0.0067190584 0.0038394928 0.69255292
0.0066908211 0.0028675199 0.69157898
0.0066715763 0.0019061863 0.69091529
0.0066590188 0.00095126033 0.69048226
0.0066520129 -0 0.69024062
0.0066485279 -0.00094977021 0.6901204
0.0066496385 -0.0018998981 0.69015872
0.0066573229 -0.0028530955 0.69042373
0.0066719321 -0.0038124919 0.69092762
0.0066984217 -0.0047845542 0.69184113
0.0067581339 -0.0057926774 0.69390059
0.0067799543 -0.0067799389 0.69465315
0.0067888382 -0.0077586472 0.69495952
0.0067969002 -0.0087388456 0.69523758
0.0068060937 -0.0097229481 0.69555461
0.0068163988 -0.010711461 0.69591004
0.0068290774 -0.011706978 0.69634736
0.006842365 -0.012707233 0.6968056
0.006857906 -0.013715804 0.69734156
0.0068761352 -0.014734596 0.69797033
0.0068952763 -0.01576063 0.69863051
0.0069181025 -0.016801119 0.69941777
0.0074745114 -0.019220144 0.71860754
0.0074452762 -0.020208567 0.71759927
0.0071660872 -0.020474494 0.70797038
0.0071418895 -0.021425635 0.70713586
0.0071178251 -0.022370279 0.70630598
0.0072131944 -0.023700505 0.70959508
0.0073971921 -0.025361776 0.71594095
0.0074177459 -0.02649191 0.71664977
0.0074459729 -0.027656466 0.71762329
0.0086022923 0.038710326 0.72041798
0.0085335579 0.037334293 0.71834379
0.008503248 0.036138833 0.71742916
0.008484683 0.034999341 0.71686888
0.0084643736 0.033857524 0.71625596
0.0084174545 0.032617658 0.71484011
0.0083321603 0.031245619 0.71226615
0.0082648247 0.029960006 0.71023405
0.0082090953 0.028731853 0.70855224
0.0081612943 0.027544379 0.70710975
0.0081191808 0.026387364 0.70583886
0.0080813486 0.02525425 0.70469713
0.0080472631 0.024141788 0.70366859
0.0080168992 0.02304858 0.70275223
0.0079886438 0.021968782 0.70189959
0.0079625826 0.020901799 0.7011131
0.0079392092 0.019848019 0.70040774
0.0079169115 0.018802673 0.69973481
0.0078970445 0.017768383 0.6991353
0.0078783305 0.016741425 0.69857061
0.0078611569 0.015722305 0.69805229
0.0078454409 0.014710218 0.69757807
0.0078307381 0.013703763 0.69713438
0.0078176167 0.012703627 0.69673836
0.0078051775 0.011707783 0.69636297
0.0077943564 0.010717243 0.69603646
0.00778411 0.0097301602 0.69572717
0.0077754003 0.0087473392 0.69546437
0.007767193 0.0077672303 0.69521666
0.0077571385 0.0067875087 0.69491327
0.0077384831 0.0058039129 0.69435024
0.0077047898 0.0048155189 0.69333351
0.0076666581 0.0038333237 0.69218278
0.0076425648 0.0028659999 0.69145566
0.007626344 0.0019066334 0.69096613
0.0076151718 0.00095191598 0.69062901
0.0076087452 2.9802322e-08 0.69043505
0.0076094395 -0.00095117092 0.69045603
0.0076148533 -0.0019036829 0.69061947
0.007626954 -0.0028600991 0.69098461
0.0076506855 -0.0038253367 0.69170076
0.0077114692 -0.0048196614 0.69353509
0.0077523608 -0.0058142543 0.69476908
0.0077657765 -0.0067950487 0.69517392
0.0077748573 -0.0077748001 0.69544798
0.0077848062 -0.0087578595 0.69574821
0.0077962996 -0.0097453594 0.69609505
0.0078097763 -0.010738462 0.69650173
0.0078247376 -0.011737108 0.6969533
0.0078415377 -0.01274249 0.69746029
0.0078610331 -0.013756812 0.69804853
0.0078829238 -0.014780462 0.69870913
0.0079074344 -0.015814841 0.69944882
0.0085706487 -0.018212587 0.71946311
0.0085317744 -0.019196451 0.71828997
0.0085006841 -0.020189136 0.71735179
0.0081833508 -0.020458341 0.70777535
0.0081557063 -0.021408707 0.70694119
0.0082057966 -0.022565931 0.70845276
0.0084464774 -0.024283618 0.71571594
0.0084821656 -0.025446445 0.71679288
0.0085053435 -0.026579171 0.71749234
0.0096390899 0.038556397 0.71938556
0.0095934616 0.037307948 0.71816158
0.0095674135 0.036143601 0.7174629
0.009546645 0.035004377 0.71690577
0.0095127644 0.033823162 0.71599698
0.009424963 0.032463759 0.7136417
0.0093407044 0.031135678 0.71138155
0.0092733055 0.029880673 0.70957357
0.0092158029 0.028671414 0.70803106
0.0091654221 0.027496278 0.70667964
0.0091213118 0.026350468 0.70549643
0.0090817632 0.025227159 0.70443547
0.0090455338 0.024121493 0.70346367
0.0090120081 0.023030728 0.70256436
0.0089824554 0.021957129 0.70177162
0.008954592 0.020894051 0.70102423
0.0089288466 0.019841909 0.7003336
0.0089056091 0.018800735 0.69971031
0.008883263 0.017766535 0.69911087
0.0088638552 0.016742855 0.69859022
0.0088450173 0.01572448 0.69808495
0.0088284053 0.014714003 0.69763935
0.0088125458 0.013708413 0.69721389
0.0087985294 0.012709022 0.6968379
0.0087853465 0.011713833 0.69648427
0.0087737422 0.010723501 0.69617295
0.0087629855 0.0097366869 0.69588447
0.0087537533 0.0087537766 0.69563681
0.0087440647 0.0077725053 0.69537687
0.0087275254 0.0067881048 0.69493324
0.0086977221 0.0057984889 0.69413376
0.0086534647 0.004807502 0.69294661
0.0086203348 0.0038312674 0.69205791
0.0085977204 0.0028659403 0.69145131
0.0085816318 0.0019070506 0.69101965
0.0085743759 0.00095272064 0.6908251
0.0085717319 -0 0.69075418
0.0085740173 -0.00095266104 0.69081545
0.0085852956 -0.0019077957 0.69111794
0.0086072516 -0.0028690398 0.69170696
0.0086501399 -0.0038444698 0.69285738
0.0087224534 -0.004845798 0.69479716
0.0087439287 -0.0058292747 0.6953733
0.0087547395 -0.0068092048 0.69566327
0.0087655103 -0.007791549 0.69595218
0.0087777777 -0.0087777972 0.69628119
0.0087917279 -0.0097685456 0.69665545
0.008808339 -0.010765731 0.697101
0.0088261561 -0.011768192 0.69757897
0.0088466154 -0.012778431 0.69812775
0.0088712238 -0.013799638 0.69878787
0.0088970587 -0.014828414 0.69948095
0.0096791582 -0.017207354 0.72046041
0.0096241347 -0.01817891 0.71898443
0.0095892539 -0.01917851 0.71804875
0.0092302347 -0.01948601 0.70841819
0.009198973 -0.020442158 0.70757961
0.009202281 -0.021471977 0.70766836
0.0093608201 -0.022881985 0.7119211
0.009546604 -0.024396867 0.7169047
0.0095701385 -0.025520384 0.71753597
0.0096167354 -0.026713103 0.71878594
0.010766423 0.039835811 0.72074533
0.010691289 0.038488686 0.71893144
0.010655181 0.037293136 0.71805972
0.010632041 0.036148936 0.71750116
0.010603651 0.034992069 0.71681571
0.01053582 0.033714622 0.71517807
0.010431094 0.032336414 0.71264982
0.010348552 0.031045675 0.71065706
0.010280132 0.029812425 0.70900524
0.010221373 0.028619826 0.70758671
0.010169521 0.027457714 0.70633483
0.010122858 0.026319444 0.7052083
0.010080236 0.025200605 0.70417929
0.010042725 0.024102569 0.70327371
0.010007895 0.023018181 0.70243287
0.0099752136 0.021945477 0.70164382
0.0099464608 0.020887583 0.70094973
0.0099190539 0.019838154 0.70028806
0.0098941037 0.018798828 0.69968569
0.0098711113 0.017768025 0.69913065
0.0098495809 0.016744316 0.69861084
0.0098303072 0.015728533 0.69814551
0.0098118782 0.014717877 0.69770062
0.0097958576 0.013714224 0.69731385
0.0097802719 0.012714386 0.69693756
0.0097671747 0.011720628 0.69662136
0.0097542647 0.01072973 0.69630969
0.0097438181 0.0097438395 0.69605744
0.0097335447 0.008760184 0.69580948
0.0097197415 0.0077757835 0.69547617
0.0096934177 0.0067854226 0.69484067
0.0096473284 0.0057884157 0.69372797
0.0096032238 0.004801631 0.69266325
0.009573238 0.0038293302 0.69193929
0.0095551396 0.0028665662 0.69150233
0.0095432568 0.0019086301 0.69121552
0.0095365271 0.00095367432 0.69105303
0.0095381625 -0 0.69109249
0.0095473723 -0.0009547174 0.69131482
0.0095659904 -0.0019131601 0.69176435
0.009600129 -0.0028800368 0.69258851
0.0096852742 -0.0038740635 0.69464409
0.0097223856 -0.0048612058 0.69554007
0.0097364234 -0.0058418512 0.69587898
0.0097479559 -0.0068235397 0.6961574
0.009760811 -0.0078086257 0.69646776
0.0097756479 -0.0087980628 0.69682592
0.0097934809 -0.0097934604 0.69725645
0.0098125329 -0.010793775 0.69771636
0.0098344032 -0.011801243 0.69824439
0.0098601785 -0.012818217 0.69886667
0.0098877307 -0.013842791 0.69953185
0.0099199181 -0.014879853 0.70030886
0.010727505 -0.017163992 0.71980584
0.010683527 -0.018161982 0.71874404
0.010282584 -0.018508643 0.70906442
0.010247667 -0.019470543 0.7082215
0.010212987 -0.020425946 0.70738423
0.010326852 -0.021686375 0.71013314
0.010607024 -0.023335457 0.71689707
0.010638461 -0.024468482 0.71765614
0.010675959 -0.025622308 0.71856141
0.011804508 0.039706111 0.71989912
0.011752031 0.038461208 0.71874732
0.011722246 0.037298113 0.71809363
0.011696537 0.036152959 0.71752942
0.011649105 0.034947336 0.71648842
0.01153427 0.033554286 0.7139681
0.011435868 0.03222838 0.71180844
0.011354851 0.030967772 0.71003032
0.011285653 0.029753119 0.70851159
0.011224938 0.028572559 0.70717907
0.011170762 0.02741918 0.70599002
0.011123217 0.026291251 0.70494658
0.011079554 0.025180846 0.70398825
0.011039022 0.024085164 0.70309865
0.01100283 0.023005933 0.70230436
0.010969323 0.021938652 0.70156896
0.010937759 0.020881176 0.70087624
0.010909834 0.019836068 0.70026338
0.010882955 0.018797815 0.69967347
0.010859164 0.017769575 0.69915128
0.010836544 0.016747385 0.69865483
0.010816143 0.015732616 0.69820702
0.010797258 0.014723569 0.69779265
0.010780002 0.013720006 0.69741386
0.010764359 0.012721539 0.69707054
0.010750146 0.011727422 0.69675863
0.010737437 0.010737449 0.69647968
0.010726095 0.0097510219 0.69623077
0.010713193 0.0087653399 0.69594765
0.010690138 0.0077746511 0.6954416
0.010648772 0.0067765117 0.69453371
0.010594453 0.0057788193 0.69334161
0.010557832 0.0047990382 0.69253784
0.0105329 0.0038301349 0.69199067
0.010515433 0.0028678477 0.69160724
0.01050652 0.0019102991 0.69141161
0.010505638 0.00095510483 0.6913923
0.010511095 2.9802322e-08 0.69151205
0.010525165 -0.00095680356 0.69182086
0.010555726 -0.00191921 0.69249159
0.010626977 -0.002898246 0.69405544
0.010698575 -0.0038903952 0.6956268
0.010719786 -0.0048725903 0.69609231
0.010732537 -0.0058540702 0.69637215
0.010746158 -0.0068384409 0.69667107
0.010761706 -0.0078266859 0.69701236
0.010779875 -0.0088198781 0.69741112
