# .PCD v0.7 - Point Cloud Data file format
VERSION 0.7
FIELDS x y z
SIZE 4 4 4
TYPE F F F
COUNT 1 1 1
WIDTH 486
HEIGHT 1
VIEWPOINT 0 0 0 1 0 0 0
POINTS 486
DATA ascii
0.0013545353 0.0054181516 0.62432778
0.0013531456 0.0064276755 0.62416005
0.0013531456 0.0064276755 0.62416005
-0.0042997082 0.010635644 0.62471402
-0.0054361997 0.012571409 0.6248728
0.011627116 0.0006839335 0.62594056
0.00045488784 0.0045479937 0.62553775
0.013642211 0.0044339448 0.62549692
0.013642211 0.0044339448 0.62549692
-0.0043264977 0.0086522996 0.62573195
0.017467704 0.0013700128 0.62619442
0.0027456174 0.0027456582 0.62653357
-0.0068541146 0.011651993 0.6262939
-0.0082379142 0.014416397 0.62655497
-0.0085639572 0.018497705 0.62621868
0.017898222 0.00068840384 0.62701368
0.021354996 0.002066642 0.62712902
0.022564836 0.0023020706 0.62758464
-0.0041327812 0.0075767934 0.62711114
-0.0096725468 0.024527043 0.62761796
0.024936885 0.0034634769 0.6280514
0.027784191 0.0055568516 0.62851334
-0.0076290662 0.025661439 0.62825906
-0.010502674 0.028707325 0.62985885
-0.010502674 0.028707325 0.62985885
0.031535909 0.010512024 0.63000846
0.031165192 0.012041122 0.63181961
-0.0035383836 0.03538385 0.63166916
-0.0064143785 0.038486302 0.63288397
0.019345975 -0.00071647763 0.63380355
-0.0028643559 0.003580451 0.63370007
-0.0028643559 0.003580451 0.63370007
-0.011449297 0.017889559 0.63357741
-0.0021502057 0.04228738 0.63385612
0.035195649 0.017238706 0.63422865
0.033843882 0.025563195 0.63466418
0.034438327 0.021388382 0.63585669
0.00764158 -0.0021834373 0.63653064
0.00764158 -0.0021834373 0.63653064
-0.0065542669 0.033499599 0.6366365
0.00437759 0.046694309 0.63696152
0 -0 0.63794142
0.033669636 0.034401596 0.6375289
0.0051266849 0.045407802 0.63763392
0.0094980747 0.045298517 0.63720846
0.0094980747 0.045298517 0.63720846
-0.011770824 0.014713556 0.63842893
0.034567952 0.031626016 0.63838351
0.030536465 0.038630724 0.63846874
0.030536465 0.038630724 0.63846874
0.024598494 0.042588234 0.63809168
0.025726965 0.042633295 0.63827914
0.0073703104 0.045695931 0.63875592
0.020611186 0.045639068 0.63853449
0.034770377 0.028482869 0.63942325
0.0022428487 -0.0022428036 0.64131141
0.0044855098 -0.0029903054 0.6413039
-0.0056202905 0.002622813 0.64173853
0.030000756 0.009000212 0.64189148
-0.012726665 0.015721202 0.64155555
0.021720594 0.04119426 0.64164209
0.0022419507 0.043344408 0.64123917
0.0089667058 0.044086337 0.64121705
0 -0.0015015304 0.64207244
0.028596306 0.03913182 0.64249873
0.030185454 0.0083009899 0.64300627
0.03250299 0.020408869 0.64330733
0.017446203 0.044753343 0.64394635
0.028983302 0.00838992 0.64495742
0.032739405 0.031978011 0.6446346
0.026581611 0.040252179 0.64417434
0.0061071105 -0.0045803189 0.64511925
0.032123297 0.019885838 0.64546973
0.011552638 -0.0053912103 0.64675778
-0.0065387376 0.030770451 0.64653683
-0.0077223461 0.0023167133 0.64725482
0.032410644 0.018520355 0.64712143
0.020856258 0.039395154 0.64730781
0.009256701 0.041655153 0.64705133
0.009256701 0.041655153 0.64705133
-0.012420392 0.0093153119 0.64823014
0.031617932 0.031617772 0.64852476
0.0093212808 0.041169018 0.6483506
0.017079152 0.043474227 0.64824235
-0.0062419008 2.9802322e-08 0.64918691
0.027410302 0.032109201 0.64989042
0.028089432 0.036672354 0.64919281
0.025052378 0.039144367 0.64982653
0.013263048 0.040569335 0.64917284
0.033023026 0.015725285 0.65064144
0.02039309 0.039217502 0.65017968
0.032457713 0.027707845 0.65194249
0.00079427043 -0.0055598915 0.65257478
0.02699611 0.031760126 0.65251023
0.026159765 0.03725785 0.65220052
0.019081878 0.041344106 0.65276974
0.0032090112 0.040914863 0.65450186
0.0056254021 0.040985078 0.65483409
0.0064057792 0.040836871 0.65413237
0.0072170575 0.040094793 0.65441555
-0.0064471308 -0.0024176538 0.65538031
0.021399796 0.035532013 0.65577978
0.026700292 0.005663693 0.65615487
0.030197743 0.016323149 0.65785819
0.031802144 0.025278628 0.65768546
0.025250973 0.035840124 0.65747011
-0.0024426803 0.037454456 0.65739262
0.01058054 0.038252771 0.65731078
0.016284959 0.040712416 0.65739775
0.014856793 -0.0082537532 0.66008461
-0.0016578158 -0.0074601173 0.66093695
0.029254477 0.015462384 0.66261107
0.020087263 0.033478796 0.66288316
0.0083656628 0.036808938 0.66278583
0.0050163446 0.038458675 0.66266304
0.0083803181 -0.010056347 0.6631397
-0.015961744 0.0084009171 0.66363698
0.029336812 0.027660489 0.66317898
0.029336812 0.027660489 0.66317898
0.026191834 0.02619186 0.66479731
0.00084189256 0.037885189 0.66407174
0.00084189256 0.037885189 0.66407174
0.023719059 0.033884406 0.66533118
0.0050851176 0.037290871 0.66543025
-0.0034020413 -0.0085050762 0.66615224
-0.0034020413 -0.0085050762 0.66615224
0 -0.01026845 0.66740656
0.024861732 0.031720161 0.66779172
0.028367633 0.01375401 0.66835284
0.029260736 0.024526626 0.66859049
0.0051553422 0.036087394 0.66825587
0.00086533709 -0.011249363 0.66973174
0.017319141 0.033772349 0.66988146
0.015527033 0.037092358 0.66907412
-0.009555161 -0.006080538 0.67053181
0.0078042569 0.034685582 0.67016691
0.0087382402 -0.014854997 0.67178071
0.0034866498 -0.012203246 0.67125887
0.024396433 0.02526778 0.67117167
-0.0026120478 0.034827322 0.6710223
-0.0017507729 0.035015464 0.67215794
0.016674116 0.03510344 0.67268872
0.016674116 0.03510344 0.67268872
-0.019442249 0.0088374019 0.67417431
-0.021207629 0.0097202063 0.67415315
0.027493013 0.011529356 0.67493057
0.027377523 0.01236406 0.67403114
0.027377523 0.01236406 0.67403114
0.018601814 0.030117244 0.67467207
-0.003539969 0.033629745 0.67447686
0.0045168018 0.032521039 0.67891139
0.0045168018 0.032521039 0.67891139
0.014431099 0.034273863 0.67856932
0.019926524 0.030795544 0.6794886
-0.0054255892 0.031649262 0.67912978
0.026399333 0.010467947 0.68059206
-0.0036643832 0.032063395 0.68198597
0 -0.015628874 0.68277109
0.014722927 -0.013802707 0.68297267
-0.018399326 2.9802322e-08 0.68292046
0.02386288 0.021109492 0.68239814
0.026720589 0.0082926154 0.6832664
0.026798163 0.020329654 0.68391228
0.026798163 0.020329654 0.68391228
0.0036864399 0.031334728 0.68331724
-0.015844813 -0.0065243244 0.68583715
0.0037331562 -0.02053234 0.68613684
-0.017764036 -0.003739804 0.68653762
-0.01602125 -0.0075393915 0.68834281
0.026497338 0.0056780279 0.68928605
0.010476163 0.031428516 0.69074535
-0.0066763321 -0.016213924 0.69107938
0 -0.020157635 0.69255829
0 -0.020157635 0.69255829
-0.024076357 0.0028891861 0.69332278
0.02023676 0.025055051 0.69346786
0.02023676 0.025055051 0.69346786
0.0038612841 0.027994365 0.69387007
-0.0028921908 0.029886007 0.69356644
0.019393072 0.025211006 0.69491601
0.025348142 0.015598893 0.69618952
0.0019547399 0.02736637 0.69677889
0.0029273983 0.027322412 0.69639969
0.010758004 0.029340029 0.69693106
0.02161224 0.016700387 0.69798708
-0.0088458862 -0.017691761 0.69810826
-0.012868188 -0.015837759 0.69979441
-0.012868188 -0.015837759 0.69979441
0.01490837 0.022859544 0.70076752
-0.0029918959 -0.020943254 0.70159012
0.011983157 0.026962131 0.7019034
0.020032698 0.02103433 0.70263696
0.012039285 0.024078608 0.70303261
-0.022222003 -0.0050504208 0.70467842
0.023226935 0.015148014 0.7046243
-0.017213805 -0.014176071 0.70527858
-0.017213805 -0.014176071 0.70527858
0.02333441 0.014203578 0.70575243
-0.023444027 -0.0030578673 0.70690298
-0.0040716315 0.026465625 0.70656562
-0.021520805 -0.0092231333 0.70822954
-0.0010255774 0.024613887 0.70841718
0.011279642 0.024610192 0.70837963
-0.011336374 -0.020611584 0.70962483
0.017523678 0.020616114 0.70967913
0.010340938 0.024818271 0.7104733
-0.017676039 -0.016636282 0.71184289
-0.022856539 -0.0083114505 0.71164167
0.0010401517 0.022883356 0.71193576
0.015662968 0.020883977 0.71291256
0 0.022911638 0.71224618
-0.012680526 -0.022190899 0.71593338
0.0073809489 0.024251699 0.71538073
0.0073809489 0.024251699 0.71538073
0.017984739 0.016926855 0.71622676
-0.0053143268 -0.025508761 0.71741927
-0.0021377553 0.021377563 0.71887082
-0.012887761 -0.023627579 0.72010267
-0.028039157 -0.0053921342 0.72117674
0.0086424462 0.021606147 0.7216298
0 0.019577324 0.72339749
0.016359577 0.0098157823 0.72412431
0.016359577 0.0098157823 0.72412431
0.014293577 0.016492605 0.72626513
-0.011148813 -0.027872026 0.72997713
0.013390272 0.01562202 0.73021233
0.013390272 0.01562202 0.73021233
-0.017919393 -0.02463913 0.73120368
0.01485429 0.010283709 0.73667812
-0.0091743711 -0.03096351 0.7376821
-0.016127823 -0.028799653 0.73893529
0.012662414 0.01266247 0.73872793
0.012662414 0.01266247 0.73872793
-0.017458029 -0.029096693 0.74180371
0.012864918 0.010525852 0.74317235
0.012864918 0.010525852 0.74317235
-0.0273946 -0.021439254 0.74837053
-0.0083616907 -0.037030339 0.74920529
-0.026304215 -0.023912907 0.74947542
0.010870539 0.0084549189 0.7524187
-0.0073460466 -0.040403247 0.75640303
-0.022095341 -0.031915486 0.7571702
-0.024855634 -0.031069547 0.76085496
-0.0075345789 -0.04269594 0.76398897
-0.03651683 -0.020866752 0.77567601
-0.031797249 -0.03179726 0.7806766
-0.022650559 -0.041303962 0.78248727
-0.0093719214 -0.048198432 0.78404695
-0.017512022 -0.044453561 0.78603446
-0.01354936 -0.04877767 0.78793138
-0.031222032 -0.036651939 0.78854549
-0.024770649 -0.044036686 0.79305232
0.01500501 0.0027474016 0.62522674
0.0064319684 0.0040622503 0.62427223
-0.0026135347 0.0072698295 0.62536919
0.021079887 0.0013822764 0.62767458
-0.0075948527 0.02140367 0.6275081
0.010393965 -0 0.62810922
-0.010530317 0.029484928 0.6303038
0.02106395 1.4901161e-08 0.63319147
-0.010716356 0.015359059 0.63329804
0.003614472 -0.00072288513 0.63534307
0.030849576 0.0093266368 0.63402426
-0.0090060718 0.010446861 0.6347391
0.037136674 0.022804219 0.63490427
0.036297113 0.025119916 0.63491815
-0.00071924704 0.040277839 0.63446248
-0.0025286626 0.043009147 0.63532561
0.015246822 -0.0021781027 0.63610226
-0.0076473979 0.0072822422 0.63667607
-0.0049229646 0.03355065 0.63690436
0.023097362 0.042528257 0.63784206
0.01610711 0.045392781 0.63757551
0.0086965477 0.046949007 0.63700539
0.013599155 -0.0029402971 0.63828397
0.029513888 0.034309164 0.63895297
0.032295879 0.038167894 0.6380235
-0.011956672 0.013076454 0.64123321
0.029201405 0.039092399 0.64101535
0.032393079 0.024106503 0.64269024
0.021937434 0.039713278 0.64344728
0.0092121214 0.043188412 0.64310974
0.0068539781 -0.0045700176 0.64470553
-0.011444512 0.0091556311 0.6450175
0.032830827 0.018992104 0.64515227
-0.0027983894 0.03713876 0.64506173
0.015200199 0.043320596 0.64430356
0.0046072123 -0.0046072006 0.64620084
-0.0077223461 0.0023167133 0.64725482
0.027799588 0.03783834 0.6472491
0.023078926 0.038462907 0.64653611
0.018760141 0.043429565 0.64694619
0.01519497 -0.0054543018 0.64893293
0.028509483 0.0070299506 0.6493963
0.027410302 0.032109201 0.64989042
0.028430274 0.0063178539 0.65147853
0.015553965 0.042922057 0.65096176
0.031584635 0.029197058 0.65305972
0.019945795 0.037498116 0.65343451
0.020923151 0.036813706 0.65264368
-0.010827226 0.0028076917 0.65443003
0.031822059 0.013871163 0.65780878
0.019558756 0.035857767 0.65756679
0.024597675 0.036761265 0.65659511
0.012244365 0.038365692 0.65789092
0.0070017902 -0.0090613663 0.65969491
-0.013558567 0.0049307197 0.65920144
0.026251227 0.028914906 0.65887105
0.024473634 0.03498064 0.66110635
0.024473634 0.03498064 0.66110635
0.0050765942 0.038950507 0.66090274
0.016876504 0.039284628 0.66119599
-0.0058586281 -0.0058586299 0.66287774
0.028871082 0.02761519 0.66284788
0.0058613927 0.037680387 0.66297311
-0.0025260686 0.03620699 0.66410321
0.013669227 -0.010251909 0.66707361
0.029925551 0.011970222 0.66723996
-0.0034479671 -0.0094818771 0.66892415
0.029417388 0.023360908 0.66970283
0.017320849 0.0333426 0.66990209
-0.013936263 -0.0013080537 0.67110288
-0.013936263 -0.0013080537 0.67110288
0.018706655 0.03132388 0.67088354
0.024615701 0.030697694 0.67057157
-0.00087034935 0.035684377 0.67094183
-0.0008807116 -0.012329966 0.6734435
-0.0084402598 -0.0093304813 0.6753329
-0.022116207 0.01105839 0.67439389
-0.020895597 0.014226899 0.675488
0.024882589 0.023105264 0.67536336
0.006629223 0.033589095 0.67421877
0.006629223 0.033589095 0.67421877
-0.0035812682 0.033126771 0.67696953
0.016123783 0.033590183 0.67707789
0.011608711 0.035719126 0.67640483
0.026319668 0.012706071 0.67992878
0.02170212 0.02984044 0.67912734
-0.0036318668 -0.013619483 0.68002343
-0.0036318668 -0.013619483 0.68002343
0.026058629 0.020938978 0.68550342
0.021325869 0.027816385 0.68466967
-0.0065151113 0.029783398 0.68551898
-0.00093916105 -0.016904861 0.68755442
0.025303299 0.0089023858 0.68707114
0.025303299 0.0089023858 0.68707114
-0.022613633 0.0037689805 0.6882965
0.026482552 0.017496556 0.6891585
0.02277403 0.018978387 0.68990993
0.016491424 0.026385799 0.68832397
-0.011435506 -0.013341397 0.69088548
-0.011435506 -0.013341397 0.69088548
0.001920431 -0.022084951 0.69263738
-0.012990711 -0.012991548 0.69314229
0.0091550481 0.030839548 0.69348735
-0.0048659393 -0.018490523 0.69576919
-0.015578823 -0.01168412 0.69588721
-0.019455357 -0.0058365762 0.6956678
-0.022769775 0.0014521778 0.69475406
0.024300959 0.018468738 0.69549173
-0.001949333 -0.019493312 0.69612622
-0.017631991 -0.0097955465 0.69730639
0.025527503 0.013745576 0.69785488
0.017788494 0.024706274 0.69940543
0.012817599 0.027113214 0.69885492
-0.022899712 -0.00099560618 0.70118952
0.0014960766 0.025940388 0.70168877
0.0049734083 0.02586177 0.70095831
-0.0070233671 0.026086807 0.70304817
0.011045801 0.027112454 0.70324743
-0.0085941236 -0.020217419 0.70486701
0.022173481 0.016126186 0.70414591
-0.0020473781 0.025592238 0.70796132
0.01554482 0.021762788 0.71101099
0.022943052 0.010428667 0.71259105
0.021574929 0.013223301 0.71286035
0.013630039 0.019920826 0.71394265
-0.0031663731 -0.027441889 0.71563089
-0.0031663731 -0.027441889 0.71563089
0.00052571722 0.02208963 0.71476853
0.016955044 0.013245597 0.71665275
-0.028815622 -0.0032017231 0.71847665
-0.012887761 -0.023627579 0.72010267
0.014069978 0.018399268 0.72211266
-0.02844514 -0.0065642297 0.7249465
0.014733415 0.016915679 0.72429556
0.0049180305 0.021860763 0.72470331
-0.0011135812 0.017817348 0.72966313
0.015218996 0.0073272288 0.73297769
0.0068170941 -0.028404534 0.73511958
0.0068170941 -0.028404534 0.73511958
-0.02496687 -0.018157691 0.7347998
0.0079421671 0.013615131 0.7347365
0 0.016103923 0.73852223
-0.0058270423 -0.036127627 0.7421754
-0.029121509 -0.012813449 0.74204302
-0.029121509 -0.012813449 0.74204302
0.01398223 0.0093215108 0.7421217
-0.030180931 -0.016901284 0.75227374
-0.032131005 -0.017301321 0.75917137
-0.023645623 -0.032357126 0.76127136
-0.012589227 -0.039026558 0.76475173
-0.012589227 -0.039026558 0.76475173
-0.025277795 -0.032861114 0.76595092
-0.021768762 -0.037134916 0.76996464
-0.029324276 -0.029324234 0.76862556
-0.017100798 -0.04209426 0.77839774
-0.016047686 -0.0441311 0.78367543
-0.026651975 -0.038645327 0.78253877
-0.026651975 -0.038645327 0.78253877
-0.002510448 0.0051243473 0.6293422
0.033823729 0.013954253 0.63137847
-0.012320556 0.022285596 0.63578826
-0.0056649968 0.03830247 0.6331436
-0.0056649968 0.03830247 0.6331436
0.034975249 0.030037889 0.63806343
0.0058224457 0.045858677 0.63759875
-0.012544784 0.014171695 0.64254498
0.010232379 0.043101095 0.64203966
0.0059909881 -0.0047943359 0.64596057
0.0093914075 -0.0051109567 0.64581496
0.0093914075 -0.0051109567 0.64581496
-0.0099699795 0.0060067875 0.64592838
0.031749077 0.021707527 0.64553189
0.013950828 0.04212793 0.64562237
0.017879233 0.044336777 0.64484292
0.027466772 0.0076518133 0.65030503
-0.0066478122 0.029981002 0.64965093
0.028154559 0.03636542 0.64962959
0.0062358761 0.042106234 0.65016687
-0.010097365 0.0019198805 0.65429109
-0.015243608 0.017953154 0.65451205
-0.015243608 0.017953154 0.65451205
0.03172709 0.027710721 0.65474927
0.0096368194 -0.0084216325 0.65750909
0.015420923 -0.0073046386 0.6567651
0.021252573 0.035037585 0.65857047
0.026322341 0.034419831 0.65789449
-0.014555551 0.0056813359 0.66161799
0.025866117 0.029620737 0.66228116
-0.0042807409 -0.0085614622 0.66751331
-0.011448478 -0.0018397173 0.66556513
0.0021806238 -0.012487955 0.67146844
0.0012911259 -0.011231805 0.66940594
0.0097232908 0.034770325 0.67026949
0.022267304 0.033093862 0.66993767
-0.00086097128 0.036160827 0.66867775
0.0052775922 -0.016723394 0.67331499
0.023789376 0.02511026 0.67353439
-0.0022052315 0.034415767 0.67387986
0.022018082 0.029964365 0.67804307
0.01109863 0.03410029 0.68183893
-0.0095352763 -0.012898582 0.68646127
-0.0095352763 -0.012898582 0.68646127
0.01963101 0.028510138 0.68650401
-0.0013895126 0.032443166 0.68460578
-0.0013895126 0.032443166 0.68460578
0.0020606061 -0.021256214 0.69059646
-0.019799905 -0 0.68844569
0.013521489 0.030247521 0.68992221
0 0.028388202 0.69714916
0.012045762 0.025095895 0.70316291
0.0041277423 0.02373454 0.70995218
-0.019298866 -0.015124545 0.71265578
0.014007255 0.019608587 0.71442544
0.014007255 0.019608587 0.71442544
0.018072218 0.011427805 0.71750259
0.021439238 0.010520861 0.7180357
-0.010275112 -0.02542001 0.72195494
-0.0076743825 -0.027408481 0.72550088
-0.004457301 -0.032315433 0.72984278
-0.010560178 -0.027785376 0.72914034
0.007258473 0.018611273 0.73042792
-0.02496687 -0.018157691 0.7347998
-0.0063011069 -0.033794791 0.73739243
-0.02759397 -0.014374658 0.7383948
-0.030912289 -0.011664003 0.74241614
-0.021361148 -0.028481543 0.74732298
0.0023660227 0.015394568 0.74671078
-0.017230473 -0.035079628 0.75797242
-0.019877397 -0.03478542 0.76074767
0.0012873815 -0.038621426 0.77162224
-0.03590994 -0.019237429 0.77044326
-0.015109365 -0.042712659 0.77808166
-0.036092442 -0.02406162 0.78354257
-0.020486696 -0.045070738 0.79054934
