# .PCD v0.7 - Point Cloud Data file format
VERSION 0.7
FIELDS x y z
SIZE 4 4 4
TYPE F F F
COUNT 1 1 1
WIDTH 1336
HEIGHT 1
VIEWPOINT 0 0 0 1 0 0 0
POINTS 1336
DATA ascii
0.0029047043 0.038487345 0.63613528
0.00291177 0.037853003 0.63656181
0.0029192877 0.037220925 0.63701546
0.0029268353 0.03658548 0.63747102
0.0029344223 0.035946667 0.63792896
0.0029426541 0.035311878 0.63842583
0.0029510714 0.034675151 0.63893378
0.0029595459 0.034034789 0.6394453
0.0029680692 0.03339079 0.63995975
0.0029766329 0.032742977 0.64047658
0.0029852551 0.032091528 0.64099699
0.0029945811 0.031443119 0.6415599
0.0030040112 0.030791134 0.642129
0.0030135005 0.030134976 0.64270175
0.0030230589 0.029474854 0.64327866
0.0030326692 0.028810382 0.64385867
0.003042341 0.028141648 0.64444244
0.0030527634 0.02747491 0.64507145
0.0030632576 0.026803523 0.64570481
0.0030738146 0.026127458 0.64634204
0.003084454 0.025446773 0.64698416
0.0030951677 0.024761349 0.64763081
0.0031060136 0.024071604 0.64828539
0.0031175478 0.02338165 0.64898157
0.0031291677 0.022686481 0.64968288
0.0031408747 0.021986127 0.65038943
0.0031526797 0.021280617 0.65110195
0.0031645636 0.020569682 0.65181923
0.0031768095 0.019855082 0.65255833
0.0031895472 0.019137323 0.65332711
0.0032023978 0.018413812 0.65410268
0.0032153521 0.01768446 0.65488458
0.0032284118 0.016949177 0.65567279
0.0032415779 0.016207904 0.65646744
0.0032554236 0.015463293 0.65730309
0.0032695164 0.01471287 0.65815365
0.0032837209 0.013955802 0.65901107
0.0032980605 0.013192266 0.65987647
0.0033125146 0.012421966 0.66074884
0.0033274279 0.011646032 0.66164893
0.0033428781 0.010864377 0.66258144
0.0033584721 0.01007539 0.66352266
0.0033742127 0.0092791021 0.6644727
0.0033901129 0.0084753036 0.66543233
0.0034063724 0.0076643527 0.66641366
0.0034233509 0.0068467259 0.66743839
0.0034405109 0.0060209036 0.66847408
0.0034578319 0.0051867962 0.66951954
0.0034753282 0.0043441653 0.6705755
0.0034933074 0.0034933388 0.67166066
0.0035120284 0.0026340485 0.67279059
0.0035309382 0.0017654598 0.6739319
0.0035500654 0.00088754296 0.67508632
0.0035693883 -0 0.6762526
0.0035895924 -0.00089737773 0.677472
0.0036102997 -0.0018051267 0.67872179
0.0036312605 -0.0027234256 0.67998689
0.003652453 -0.0036524236 0.68126595
0.0036742585 -0.0045928359 0.68258202
0.0036970086 -0.0055454969 0.68395507
0.0037200558 -0.0065100789 0.68534613
0.0037433784 -0.0074867308 0.68675375
0.0037669244 -0.0084755719 0.6881749
0.0037896342 -0.0094740987 0.68954557
0.003810181 -0.01047796 0.69078565
0.0038286506 -0.011485904 0.69190037
0.0038451713 -0.012496799 0.6928975
0.0038589761 -0.013506413 0.69373071
0.0038721911 -0.014520705 0.69452828
0.003885949 -0.015543759 0.69535869
0.0039019343 -0.016583204 0.69632345
0.0039201849 -0.017640829 0.69742501
0.0039394447 -0.018712372 0.69858742
0.0039621703 -0.019810855 0.69995904
0.0039851596 -0.020922095 0.70134658
0.0040128697 -0.022070795 0.70301902
0.0040411311 -0.023236483 0.70472473
0.004075462 -0.024452746 0.70679677
0.0041131685 -0.025707275 0.70907259
0.0041590161 -0.027033597 0.71183968
0.0043590763 -0.029423743 0.72391444
0.0044122566 -0.030885786 0.72712415
0.0044643399 -0.032366455 0.73026764
0.0045221997 -0.033916473 0.73375982
0.0045853574 -0.035536498 0.73757172
0.0046565146 -0.037252069 0.74186641
0.0047742794 -0.039387792 0.74897414
0.0049107503 -0.041741341 0.75721085
0.0039621945 0.062602699 0.65213263
0.0039485996 0.061598152 0.6514762
0.0039350973 0.060600519 0.65082419
0.0039216746 0.059609443 0.65017611
0.0039083678 0.058625519 0.64953363
0.0038951386 0.057648093 0.64889485
0.0038819867 0.056677043 0.64825982
0.0038689354 0.05571267 0.64762968
0.0038772942 0.055057555 0.64803326
0.003894811 0.054527372 0.64887899
0.0039145439 0.054020703 0.64983183
0.0039383555 0.053561658 0.65098155
0.0039843051 0.053389728 0.65320015
0.0042063063 0.055523217 0.66391933
0.004216657 0.054816574 0.66441911
0.0037676017 0.048225313 0.64273679
0.0037552956 0.04731673 0.64214265
0.0037430809 0.046414226 0.64155287
0.0037309565 0.045517713 0.64096743
0.0042911228 0.051493466 0.66801465
0.004312247 0.050884545 0.66903466
0.0043378179 0.050318718 0.67026931
0.0043690135 0.049806774 0.67177552
0.0044027828 0.049311191 0.67340606
0.0036597536 0.040257305 0.63752943
0.0036481409 0.039399952 0.63696873
0.0036366123 0.038548112 0.63641208
0.0036251566 0.037701666 0.63585889
0.003628995 0.037015736 0.63604426
0.0036392468 0.03639248 0.63653928
0.0036495565 0.035765678 0.6370371
0.003659925 0.035135299 0.63753772
0.0036703416 0.034501225 0.63804066
0.0036808285 0.033863634 0.63854706
0.0036916588 0.03322497 0.63906997
0.003703123 0.032587498 0.63962352
0.0037146588 0.031946093 0.64018047
0.0037262663 0.031300664 0.64074099
0.003737947 0.030651212 0.64130497
0.0037497124 0.029997706 0.64187306
0.0037618116 0.029342145 0.64245725
0.0037745591 0.028686672 0.64307272
0.0037873932 0.02802673 0.64369243
0.0038003034 0.027362168 0.64431578
0.0038133136 0.026693165 0.64494401
0.0038264131 0.026019603 0.64557648
0.0038398737 0.02534318 0.64622641
0.0038539879 0.024665564 0.64690787
0.0038681938 0.023982793 0.64759386
0.003882505 0.023295015 0.64828485
0.0038969347 0.02260223 0.64898157
0.0039114594 0.021904171 0.64968288
0.0039265743 0.021203488 0.65041268
0.0039421534 0.020499229 0.65116489
0.0039578443 0.019789219 0.65192258
0.0039736736 0.019073665 0.65268683
0.0039896299 0.01835233 0.65345722
0.0040057148 0.017625153 0.65423387
0.0040227314 0.016895533 0.65505552
0.004039946 0.016159803 0.65588677
0.0040572952 0.015417725 0.65672445
0.0040748073 0.014669329 0.65757
0.0040924577 0.013914406 0.65842223
0.0041107079 0.013154298 0.65930343
0.0041295844 0.012388796 0.66021484
0.0041486216 0.011616141 0.66113412
0.0041678357 0.010836393 0.66206175
0.0041872417 0.010049373 0.66299886
0.00420707 0.0092555881 0.66395622
0.0042278017 0.0084556341 0.66495728
0.0042487243 0.007647723 0.66596746
0.0042698546 0.0068317652 0.66698778
0.0042912113 0.006007731 0.66801894
0.0043130647 0.0051756799 0.66907412
0.0043358938 0.0043358803 0.67017633
0.0043589501 0.0034871697 0.67128962
0.0043822685 0.0026293695 0.67241555
0.0044058221 0.0017623305 0.67355281
0.0044303052 0.00088605285 0.67473495
0.0044555534 2.9802322e-08 0.6759541
0.0044810753 -0.00089618564 0.67718637
0.0045068911 -0.0018027425 0.67843288
0.0045332364 -0.0027199388 0.6797049
0.0045609386 -0.0036487281 0.68104243
0.0045889816 -0.0045889616 0.68239653
0.0046173884 -0.0055408478 0.68376815
0.0046461145 -0.0065045059 0.68515515
0.0046742223 -0.0074787438 0.68651235
0.0046997569 -0.0084595382 0.68774527
0.0047231452 -0.0094462633 0.68887454
0.0047440138 -0.010436803 0.68988216
0.0047619469 -0.011428654 0.69074804
0.0047776243 -0.012421787 0.69150501
0.0047943792 -0.013424248 0.69231403
0.0048121964 -0.014436543 0.69317424
0.0048344024 -0.015470058 0.69424647
0.0048568142 -0.016513139 0.69532865
0.0048837592 -0.017581522 0.69662964
0.0049116989 -0.018664449 0.69797868
0.0049432595 -0.019773006 0.69950259
0.0049775839 -0.020905823 0.70115989
0.0050163283 -0.022071809 0.70303065
0.0050591365 -0.023272008 0.70509762
0.0051125875 -0.024540395 0.7076785
0.0051843338 -0.025921643 0.71114266
0.0054211696 -0.028190047 0.72257811
0.0054840809 -0.029614031 0.72561574
0.005551178 -0.031086564 0.72885549
0.0056235758 -0.032616735 0.73235118
0.0057052928 -0.034231752 0.73629683
0.0057988944 -0.035953104 0.7408163
0.0059135393 -0.037846595 0.74635184
0.004779309 0.063724101 0.65312546
0.0047628251 0.062710553 0.65246218
0.0047464548 0.06170392 0.65180349
0.0047400398 0.060830504 0.65154535
0.0047793239 0.060538113 0.65312606
0.0048172856 0.060216099 0.65465355
0.0046820831 0.057745725 0.64921337
0.0046662474 0.056772709 0.64857626
0.0046505332 0.055806398 0.64794391
0.0046603801 0.055147856 0.64834011
0.0046973946 0.054802954 0.64982939
0.0049837343 0.057312995 0.66135091
0.0049955435 0.056616187 0.66182601
0.0050094472 0.05593887 0.66238546
0.005025161 0.055276811 0.66301781
0.0050415155 0.054616451 0.66367579
0.0050591184 0.053963959 0.66438413
0.0050793192 0.053332895 0.6651969
0.0051024552 0.052725405 0.6661278
0.0051293406 0.052148342 0.66720963
0.0051639443 0.051639467 0.66860199
0.0052010352 0.051143527 0.67009437
0.0053972048 0.052172989 0.67798769
0.0054302998 0.05158788 0.67931926
0.0054627489 0.050985664 0.68062496
0.0054955883 0.050376236 0.68194634
0.0043847258 0.039462537 0.63724864
0.0043708477 0.038609177 0.6366902
0.0043570441 0.037761062 0.6361348
0.0043433527 0.036918521 0.63558394
0.0043454901 0.036212444 0.63566995
0.0043577398 0.035588235 0.63616282
0.0043700584 0.034960479 0.63665849
0.0043831761 0.034334898 0.63718635
0.004396644 0.033707619 0.63772821
0.0044101942 0.033076465 0.63827342
0.0044238283 0.032441437 0.63882196
0.0044375472 0.031802446 0.63937396
0.0044513512 0.031159461 0.63992947
0.0044658924 0.030516952 0.64051455
0.0044808635 0.029872417 0.64111692
0.004495935 0.029223561 0.64172339
0.0045110947 0.028570294 0.64233333
0.0045263707 0.027912647 0.64294797
0.0045417505 0.027250528 0.64356685
0.0045578023 0.026587218 0.64421272
0.0045743589 0.025921404 0.64487886
0.0045910496 0.025250763 0.64555049
0.0046078484 0.024575174 0.64622647
0.004624771 0.023894638 0.64690733
0.0046418323 0.023209184 0.6475938
0.0046597435 0.022522151 0.64831448
0.0046780263 0.021830827 0.64905012
0.0046964535 0.021134079 0.6497916
0.0047150264 0.020431757 0.65053892
0.004733732 0.019723892 0.65129155
0.0047526765 0.019010723 0.65205383
0.004772699 0.018295348 0.65285951
0.0047928751 0.017573893 0.65367132
0.0048132385 0.016846329 0.65449071
0.0048337597 0.016112566 0.65531641
0.004854457 0.015372455 0.65614921
0.0048759184 0.014627784 0.65701276
0.0048980494 0.013877779 0.65790319
0.0049203662 0.013121009 0.6588012
0.0049428875 0.012357235 0.65970731
0.0049656322 0.011586517 0.66062248
0.0049888692 0.010809243 0.6615575
0.0050131446 0.010026306 0.6625343
0.0050376579 0.0092357397 0.66352057
0.0050624288 0.0084373951 0.66451728
0.0050874273 0.0076311529 0.66552317
0.0051129526 0.006817311 0.66655028
0.0051396852 0.0059963167 0.66762584
0.0051666815 0.0051667094 0.66871208
0.0051939804 0.0043283403 0.66981053
0.0052215513 0.0034810305 0.6709199
0.0052500409 0.0026250482 0.67206621
0.0052795857 0.0017598867 0.67325503
0.0053094462 0.00088492036 0.67445654
0.0053396462 -0 0.6756717
0.0053702109 -0.00089502335 0.67690152
0.005402605 -0.0018008947 0.67820495
0.0054353923 -0.0027177036 0.67952418
0.0054685799 -0.0036456883 0.68085957
0.0055021956 -0.0045851767 0.68221217
0.0055354103 -0.005535394 0.68354863
0.0055661378 -0.0064938068 0.68478501
0.0055944128 -0.0074591935 0.68592268
0.0056196502 -0.0084294379 0.68693811
0.0056414255 -0.0094023645 0.6878143
0.0056599313 -0.010376513 0.68855894
0.0056795264 -0.011359066 0.68934739
0.0056992574 -0.012348354 0.69014132
0.0057244035 -0.013356924 0.69115317
0.0057505886 -0.014376432 0.69220674
0.0057800165 -0.015413374 0.69339085
0.0058126273 -0.016469091 0.69470298
0.0058470424 -0.017541111 0.69608772
0.0058870581 -0.018642306 0.69769782
0.0059288186 -0.019762695 0.69937813
0.0059786681 -0.020925313 0.70138389
0.0060350592 -0.022128522 0.70365292
0.0061050379 -0.023402601 0.70646858
0.0063943062 -0.025577217 0.71810794
0.0064692083 -0.026955009 0.72112173
0.0065438594 -0.028356701 0.7241255
0.0066271219 -0.029822052 0.7274757
0.0067178179 -0.031349778 0.731125
0.0068196026 -0.032961398 0.73522055
0.0069396286 -0.034698129 0.74004996
0.007093464 -0.036649555 0.7462399
0.0055855173 0.063834488 0.65345854
0.0055662198 0.062818825 0.65279293
0.005547055 0.061810046 0.65213197
0.0055854637 0.06144011 0.65345663
0.0056267395 0.06109032 0.65488023
0.0056670527 0.060718447 0.6562705
0.0056967875 0.060223222 0.65729606
0.0054531773 0.056868851 0.64889425
0.0057409354 0.059049636 0.65881872
0.0057556527 0.058378756 0.65932626
0.0057701226 0.05770126 0.65982533
0.0057873605 0.057046831 0.66041982
0.005805952 0.056400687 0.66106105
0.0058252839 0.05575633 0.66172779
0.0058469502 0.055128425 0.66247505
0.0058718682 0.054524541 0.66333431
0.0059006349 0.0539487 0.66432655
0.0059354929 0.053419441 0.66552871
0.0059776129 0.052944601 0.66698134
0.0060231099 0.052487105 0.66855055
0.0062431782 0.053512961 0.67614043
0.0062804348 0.052935094 0.67742538
0.0063176369 0.05234611 0.67870843
0.0063552829 0.051750153 0.68000674
0.0063924226 0.051139385 0.68128771
0.0064296215 0.050518453 0.68257058
0.0064672562 0.04989028 0.68386859
0.0051074121 0.038670421 0.63696927
0.0050912574 0.037820786 0.63641208
0.0050752335 0.036976695 0.63585949
0.0050592958 0.036137819 0.63530976
0.0050602318 0.03542161 0.63534206
0.0050756163 0.034804255 0.63587266
0.0050910944 0.034183115 0.63640642
0.0051066675 0.0335581 0.63694358
0.0051223361 0.032929331 0.63748395
0.0051381015 0.032296658 0.63802767
0.0051550716 0.031666934 0.63861293
0.0051721688 0.031033039 0.63920259
0.0051893806 0.030394942 0.63979626
0.0052066916 0.029752523 0.64039326
0.0052241338 0.029105932 0.64099479
0.0052416939 0.028454959 0.64160043
0.0052603041 0.027804494 0.64224225
0.0052792057 0.027150214 0.64289421
0.0052982443 0.026491255 0.64355081
0.0053174365 0.025827587 0.64421272
0.0053367517 0.025159001 0.64487886
0.005356208 0.024485528 0.64554989
0.0053768633 0.023811847 0.64626229
0.0053977282 0.023133159 0.64698184
0.0054187556 0.022449136 0.6477071
0.0054399474 0.021759808 0.64843798
0.0054613058 0.021065056 0.64917457
0.0054830387 0.020365596 0.64992416
0.0055058794 0.019663841 0.65071189
0.0055288943 0.018956244 0.65150559
0.0055521196 0.018242717 0.65230662
0.0055755232 0.01752311 0.65311384
0.005599143 0.016797453 0.6539284
0.005623668 0.016067654 0.65477425
0.0056489008 0.015332788 0.65564448
0.0056743422 0.014591187 0.65652198
0.0057000141 0.013842881 0.65740734
0.0057259188 0.013087809 0.65830082
0.005752401 0.012326598 0.65921408
0.0057800827 0.011560172 0.66016883
0.0058080126 0.010786355 0.6611321
0.0058362139 0.010004938 0.66210473
0.0058647101 0.0092159808 0.66308749
0.0058936845 0.0084195733 0.66408676
0.0059241285 0.0076167583 0.66513675
0.0059548682 0.0068055987 0.66619694
0.0059859492 0.0059859455 0.66726887
0.0060173357 0.0051577389 0.66835141
0.0060495958 0.0043211579 0.66946399
0.0060831974 0.0034761131 0.67062289
0.0061171744 0.0026216805 0.67179465
0.0061515328 0.0017576218 0.67297965
0.0061863014 0.00088378787 0.67417878
0.0062228357 2.9802322e-08 0.67543882
0.0062601399 -0.00089430809 0.67672539
0.0062978715 -0.0017993748 0.67802674
0.0063360827 -0.0027154386 0.67934459
0.0063741351 -0.0036423504 0.68065691
0.0064101587 -0.00457865 0.68189937
0.0064431527 -0.0055226684 0.68303728
0.0064725145 -0.0064724982 0.68404996
0.0064987675 -0.0074271262 0.68495536
0.0065204236 -0.0083833933 0.68570226
0.0065422733 -0.0093460679 0.68645585
0.0065647131 -0.010315925 0.68722975
0.0065911002 -0.011299014 0.6881398
0.0066208537 -0.012295842 0.68916595
0.0066520129 -0.013303995 0.69024056
0.0066890321 -0.014333636 0.69151735
0.0067264657 -0.01537478 0.69280833
0.0067707011 -0.016443133 0.69433403
0.0068166903 -0.017528594 0.69592011
0.0068706321 -0.018648833 0.69778049
0.0069279824 -0.019794226 0.69975853
0.007002221 -0.021006674 0.70231885
0.0071032168 -0.022324383 0.70580208
0.0074214549 -0.024384737 0.71677774
0.0075056492 -0.02573362 0.71968144
0.0075958585 -0.027128041 0.72279274
0.0076929913 -0.02857396 0.72614264
0.0078021875 -0.030094147 0.7299087
0.007927211 -0.031708837 0.73422062
0.0080782697 -0.033467084 0.73943043
0.0082996329 -0.035569847 0.74706495
0.0064168493 0.064970583 0.65446645
0.0063945637 0.063945681 0.65379393
0.0063724117 0.062927574 0.65312546
0.0063892971 0.062295675 0.65363497
0.0064262445 0.061852634 0.65474999
0.0064545539 0.061318308 0.6556043
0.0064786649 0.060737491 0.6563319
0.0064969822 0.060097098 0.65688473
0.0065123094 0.059424847 0.6573472
0.0065305624 0.058775097 0.65789801
0.0065509332 0.058139563 0.65851277
0.0065717762 0.057503074 0.65914178
0.0065945992 0.056878418 0.65983051
0.0066209305 0.056277931 0.66062516
0.0066509633 0.055701822 0.66153145
0.0066864262 0.055163026 0.66260171
0.0067311539 0.054690659 0.66395146
0.0067783664 0.054226965 0.66537619
0.0070325215 0.055381149 0.67304599
0.0070746322 0.054828465 0.67431676
0.0071159336 0.054259032 0.67556316
0.0071577206 0.053682923 0.67682421
0.0071997158 0.053097904 0.67809159
0.0072410018 0.052497298 0.67933744
0.0072827642 0.051889688 0.68059778
0.0073244213 0.051270962 0.68185484
0.0073593254 0.050595373 0.68290818
0.0073862942 0.049857497 0.68372202
0.0074027409 0.049043149 0.68421841
0.0058277966 0.037880689 0.63669026
0.0058094086 0.037034988 0.63613534
0.0057911538 0.036194712 0.63558441
0.0057729967 0.035359621 0.63503647
0.0057752454 0.034651488 0.6351043
0.0057927798 0.034032613 0.63563347
0.0058108256 0.033412278 0.63617808
0.0058298162 0.032792717 0.63675117
0.0058489493 0.032169193 0.63732857
0.0058682077 0.031541646 0.63790971
0.0058875759 0.030909777 0.63849425
0.0059070904 0.030273825 0.63908315
0.0059268568 0.029634297 0.63967967
0.0059478697 0.028995872 0.64031374
0.0059690145 0.028352857 0.64095181
0.0059903096 0.027705222 0.64159453
0.0060117752 0.027052999 0.64224231
0.0060333782 0.026396036 0.64289421
0.0060553192 0.02573514 0.6435563
0.0060784728 0.025073707 0.64425504
0.0061018039 0.024407238 0.64495915
0.006125296 0.023735553 0.64566809
0.0061489893 0.023058742 0.64638311
0.0061728656 0.022376657 0.64710361
0.0061973315 0.021690637 0.64784193
0.0062228432 0.021002114 0.64861178
0.0062485859 0.020307928 0.64938867
0.0062745218 0.019607902 0.65017134
0.0063006743 0.018902063 0.65096056
0.0063270656 0.018190324 0.651757
0.0063545471 0.017475009 0.65258634
0.0063827359 0.016754717 0.65343702
0.0064111552 0.016027927 0.65429461
0.0064398292 0.015294611 0.65515995
0.0064687603 0.014554739 0.65603304
0.0064983331 0.013808995 0.65692544
0.0065292199 0.013058454 0.65785754
0.0065604025 0.01230076 0.65879858
0.0065919058 0.011535883 0.65974927
0.0066236914 0.010763526 0.66070843
0.0066559403 0.009983927 0.66168165
0.0066899122 0.0091986656 0.66270685
0.0067242109 0.008405298 0.66374189
0.0067588859 0.0076037645 0.66478831
0.0067938967 0.0067939162 0.66584492
0.0068296697 0.0059759915 0.66692436
0.0068671391 0.0051503778 0.66805518
0.006905023 0.0043156445 0.66919839
0.006943326 0.0034716725 0.67035437
0.0069820816 0.002618283 0.67152387
0.0070224786 0.0017556548 0.67274296
0.0070640203 0.00088301301 0.67399657
0.0071060807 -0 0.67526585
0.0071486193 -0.00089356303 0.67654955
0.0071913861 -0.0017977953 0.67784017
0.0072326283 -0.00271222 0.67908478
0.0072698286 -0.0036348999 0.68020737
0.0073035201 -0.0045647025 0.68122411
0.0073339492 -0.0055004358 0.68214238
0.007359839 -0.0064398348 0.68292373
0.0073834606 -0.007383436 0.68363655
0.0074084681 -0.0083345175 0.6843912
0.0074354406 -0.0092942715 0.68520516
0.0074685696 -0.010269254 0.68620497
0.0075019947 -0.011252999 0.68721366
0.0075418833 -0.012255549 0.68841732
0.007583519 -0.013271153 0.68967384
0.0076295994 -0.014305472 0.69106448
0.0076806922 -0.015361369 0.69260633
0.0077362699 -0.016439557 0.69428349
0.0077998848 -0.017549723 0.69620323
0.0078748278 -0.018702656 0.69846487
0.0079695573 -0.019923866 0.70132357
0.0083413972 -0.021896154 0.7125448
0.008435512 -0.023197621 0.71538502
0.008531156 -0.024527073 0.71827132
0.0086373361 -0.025911987 0.7214756
0.0087531544 -0.027353585 0.72497064
0.0088827517 -0.028868973 0.72888166
0.009034886 -0.030492693 0.7334727
0.0092287753 -0.032300651 0.73932379
0.0072315447 0.065083921 0.65480417
0.0072063864 0.064056814 0.65412927
0.0071813795 0.063036561 0.65345854
0.0071970341 0.062374353 0.65387845
0.0072198352 0.061769724 0.65449011
0.0072364723 0.061108023 0.65493631
0.0072554299 0.060461938 0.65544486
0.0072771674 0.05983451 0.65602791
0.0073000533 0.059211582 0.6566419
0.0073242267 0.058593839 0.65729034
0.0073515363 0.057995468 0.65802288
0.0073827761 0.057421595 0.65886092
0.0074187778 0.056877315 0.65982664
0.0074624456 0.056382924 0.66099799
0.0075146728 0.055942565 0.66239893
0.0075710965 0.055521429 0.66391248
0.0078458367 0.056664437 0.67128229
0.0078915115 0.056117445 0.67250746
0.0079371892 0.05556035 0.67373282
0.0079833986 0.054996789 0.67497236
0.0080290623 0.054419249 0.67619723
0.0080746999 0.053831369 0.67742145
0.00812086 0.053236783 0.67865968
0.0081644114 0.052615106 0.67982793
0.0081990464 0.051927328 0.68075705
0.0082242629 0.05117321 0.68143344
0.0082394313 0.050352097 0.6818403
0.008258258 0.04954955 0.68234533
0.0082810977 0.048766494 0.68295801
0.0065666731 0.03794077 0.63696927
0.0065459213 0.03709355 0.63641256
0.0065253004 0.036251694 0.63585937
0.006504809 0.035415083 0.63530976
0.0064844457 0.034583747 0.63476354
0.0064905775 0.033895284 0.63492799
0.0065116566 0.033281833 0.63549346
0.0065328735 0.032664388 0.63606262
0.0065542101 0.032042801 0.63663495
0.006575705 0.03141728 0.6372115
0.0065978263 0.030789882 0.63780493
0.0066209715 0.030162215 0.63842577
0.0066442606 0.029530108 0.63905048
0.0066677136 0.028893471 0.63967961
0.0066913334 0.028252304 0.64031327
0.0067151412 0.027606726 0.64095187
0.0067395419 0.026958197 0.64160639
0.0067650354 0.026308507 0.64229023
0.0067907232 0.025653869 0.64297932
0.0068166065 0.024994254 0.6436736
0.0068426668 0.024329484 0.6443727
0.0068689478 0.023659706 0.64507771
0.0068960446 0.022986829 0.64580452
0.0069241221 0.022311091 0.64655769
0.0069524511 0.02162984 0.64731759
0.0069809905 0.020942986 0.64808309
0.007009787 0.020250529 0.64885557
0.0070388005 0.019552261 0.64963388
0.0070691202 0.018851012 0.65044725
0.0071001053 0.018144727 0.65127832
0.0071313861 0.017432272 0.65211743
0.0071629197 0.01671353 0.65296334
0.0071947342 0.01598835 0.65381676
0.0072272271 0.015257508 0.65468836
0.0072611854 0.014522344 0.6555993
0.0072954879 0.013780385 0.65651941
0.0073300926 0.013031304 0.6574477
0.0073650507 0.0122751 0.6583854
0.0074003679 0.011511683 0.65933281
0.007437672 0.01074332 0.66033345
0.0074753785 0.0099671781 0.66134489
0.0075134691 0.0091831684 0.66236663
0.0075519248 0.0083910227 0.66339821
0.0075909803 0.0075910091 0.66444588
0.0076321233 0.0067841411 0.66554952
0.0076737152 0.0059684515 0.6666652
0.0077157626 0.005143851 0.6677931
0.0077582998 0.0043101907 0.66893417
0.0078022829 0.0034677088 0.67011392
0.0078478605 0.0026159585 0.67133659
0.007893974 0.0017542541 0.67257357
0.0079406602 0.00088229775 0.67382592
0.0079877889 -0 0.67509013
0.0080337031 -0.00089260936 0.67632174
0.0080753658 -0.001794517 0.67743933
0.0081137782 -0.0027045608 0.67846972
0.0081483973 -0.0036215186 0.67939836
0.0081781419 -0.0045433939 0.68019623
0.0082038855 -0.0054692328 0.68088681
0.0082313279 -0.0064021349 0.68162292
0.0082589546 -0.0073412657 0.68236399
0.0082945516 -0.0082945526 0.68331891
0.0083312271 -0.0092568994 0.68430269
0.0083721178 -0.010232568 0.68539959
0.0084177209 -0.011223584 0.68662286
0.0084647788 -0.012226909 0.68788517
0.0085206758 -0.013254344 0.68938458
0.0085772835 -0.014295459 0.69090307
0.0086462209 -0.015371054 0.6927523
0.0087200552 -0.016471207 0.69473284
0.0088115456 -0.017623067 0.69718707
0.0089544132 -0.018903732 0.70101941
0.009334974 -0.020744354 0.71122777
0.0094385548 -0.022023261 0.7140063
0.0095501272 -0.023344725 0.71699917
0.0096698478 -0.024711788 0.72021067
0.0098040355 -0.026144087 0.7238102
0.0099575203 -0.027659774 0.72792733
0.010140534 -0.029294878 0.7328366
0.010407277 -0.031221777 0.7399919
0.0080773616 0.06623441 0.65582567
0.0080490867 0.065197617 0.65514308
0.0080210362 0.064168334 0.65446585
0.0079931794 0.063146114 0.65379333
0.0079655154 0.062131017 0.65312546
0.0079854485 0.061487943 0.65360671
0.0080101984 0.060877502 0.65420419
0.0080354884 0.060266197 0.65481478
0.0080633555 0.059668869 0.65548754
0.0080953436 0.059096068 0.65625978
0.0081319986 0.058550388 0.65714473
0.0081756338 0.058047056 0.65819818
0.0082296366 0.057607502 0.65950185
0.0082866084 0.057177633 0.66087729
0.0085950717 0.058446497 0.66832429
0.0086453557 0.057923913 0.66953826
0.0086946916 0.057384968 0.67072934
0.0087445937 0.056839913 0.67193407
0.0087947929 0.056286722 0.67314595
0.0088441027 0.055717885 0.67433643
0.0088939369 0.055142432 0.67553955
0.0089441445 0.05455929 0.67675167
0.0089872302 0.053923428 0.67779183
0.0090209655 0.053223729 0.67860627
0.0090424521 0.052446246 0.67912495
0.0090590529 0.051636636 0.67952579
0.0090814801 0.050856292 0.68006724
0.0091081951 0.050095081 0.68071222
0.0091370018 0.049339831 0.68140763
0.0091675706 0.048588157 0.68214566
0.0073078759 0.038001001 0.63724864
0.007284746 0.037152231 0.6366902
0.0072617615 0.036308825 0.63613534
0.0072389427 0.035470843 0.63558441
0.0072162249 0.034637928 0.63503593
0.0071936701 0.033810288 0.63449144
0.007207036 0.033152401 0.63481414
0.0072304271 0.032536924 0.63537884
0.0072548753 0.031921476 0.63596904
0.0072800401 0.03130421 0.63657659
0.0073054009 0.030682683 0.63718891
0.0073309173 0.030056775 0.63780493
0.0073566139 0.029426485 0.63842523
0.0073825116 0.028791815 0.63905048
0.007409317 0.028155416 0.63969767
0.0074370471 0.02751708 0.64036715
0.0074649858 0.026874006 0.64104164
0.0074931355 0.026226014 0.64172113
0.0075214976 0.025573105 0.64240587
0.0075500752 0.024915248 0.64309585
0.0075796978 0.024255067 0.64381105
0.0076102251 0.023591727 0.644548
0.0076410226 0.022923082 0.64529151
0.0076720468 0.022248983 0.6460405
0.0077033476 0.021569371 0.64679617
0.0077348808 0.020884186 0.64755744
0.0077679269 0.020196617 0.64835525
0.0078015984 0.01950404 0.64916813
0.0078355866 0.018805414 0.64998865
0.0078698481 0.018100679 0.65081584
0.0079044104 0.017389715 0.65165025
0.0079397047 0.016673386 0.65250236
0.0079765879 0.015953183 0.65339279
0.0080138156 0.015226245 0.65429151
0.0080514187 0.014492571 0.65519935
0.0080893496 0.013751924 0.65611506
0.0081276661 0.013004303 0.65704012
0.0081680808 0.012252122 0.65801585
0.0082090059 0.01149258 0.65900385
0.0082503445 0.010725468 0.66000187
0.0082920734 0.0099505186 0.66100925
0.0083342548 0.009167701 0.6620276
0.0083788307 0.0083788633 0.66310376
0.0084239431 0.0075815618 0.66419291
0.0084695444 0.0067756772 0.66529381
0.00851567 0.0059610009 0.66640741
0.0085629467 0.0051377714 0.66754872
0.0086123804 0.0043061972 0.66874218
0.0086623589 0.003464967 0.66994876
0.0087129511 0.0026139319 0.67117012
0.0087641068 0.0017528534 0.67240518
0.0088143451 0.00088146329 0.67361802
0.0088607986 2.9802322e-08 0.67473948
0.0089039393 -0.00089037418 0.67578101
0.0089424495 -0.001788497 0.67671078
0.0089761708 -0.0026928186 0.67752486
0.0090045035 -0.0036017895 0.67820883
0.0090340609 -0.0045170188 0.67892241
0.0090640085 -0.0054383874 0.67964542
0.00909968 -0.0063697398 0.68050659
0.0091393711 -0.0073114634 0.68146485
0.009180624 -0.0082625449 0.68246078
0.009229973 -0.0092299283 0.68365216
0.0092798555 -0.010207832 0.68485641
0.0093376283 -0.011205167 0.68625116
0.0093988078 -0.012218446 0.68772817
0.0094680982 -0.013255328 0.68940103
0.0095443493 -0.014316529 0.69124186
0.0096376287 -0.015420198 0.69349384
0.0097575746 -0.016587853 0.69638962
0.01020503 -0.018369049 0.70719212
0.010316973 -0.019602209 0.70989466
0.010432095 -0.020864159 0.71267396
0.010559032 -0.022173941 0.71573842
0.010697918 -0.023535401 0.71909148
0.01085278 -0.024961382 0.72283018
0.011033707 -0.026480854 0.72719812
0.011263 -0.028157473 0.73273379
0.008900702 0.066350728 0.6561681
0.0088695195 0.065311939 0.65548378
0.0088385548 0.064280421 0.65480417
0.0088078054 0.063256085 0.65412933
0.0087772692 0.062238842 0.65345907
0.0087583857 0.061308712 0.6530447
0.0087911207 0.060738653 0.65376306
0.0088283755 0.060193479 0.65458077
0.008871235 0.05967924 0.65552139
0.0089239366 0.059222519 0.65667808
0.0089848591 0.058809996 0.65801513
0.0090524815 0.058429688 0.65949929
0.0093777385 0.059676528 0.66663784
0.0094310874 0.059158683 0.66780877
0.0094844587 0.058631212 0.66898006
0.0095384363 0.05809778 0.6701647
0.0095918626 0.057551205 0.67133737
0.0096451472 0.05699411 0.67250675
0.0096990261 0.056430727 0.67368931
0.0097511606 0.055847585 0.67483354
0.0097927647 0.0551956 0.67574656
0.0098244743 0.054481238 0.6764425
0.0098431688 0.053689986 0.67685282
0.0098637715 0.052905679 0.67730504
0.0098892218 0.052143186 0.6778636
0.009918699 0.051396877 0.67851049
0.0099509051 0.05065918 0.67921734
0.0099845901 0.049922973 0.67995661
0.01002332 0.049205393 0.6808067
0.0100692 0.04851523 0.6818136
0.0080514578 0.03806144 0.63752943
0.0080259098 0.037211031 0.63696873
0.0080005703 0.036366254 0.63641256
0.0079753669 0.035526633 0.63585949
0.0079503218 0.034692317 0.63530982
0.0079254108 0.033863127 0.63476306
0.0079006786 0.033039242 0.63422018
0.0079255477 0.032422721 0.63476604
0.0079528494 0.031811416 0.63536525
0.0079803625 0.031195998 0.63596904
0.0080080442 0.030576169 0.63657659
0.0080359178 0.029952079 0.63718837
0.0080651203 0.02932775 0.63782924
0.0080949878 0.028700441 0.63848484
0.0081250547 0.028068423 0.63914466
0.0081553692 0.027431726 0.63981003
0.008185911 0.026790291 0.64048034
0.0082166819 0.026143998 0.64115572
0.0082487734 0.025496244 0.64186001
0.0082816649 0.024845004 0.64258182
0.0083147939 0.024188489 0.643309
0.0083482154 0.023526818 0.64404249
0.0083818799 0.022859693 0.64478129
0.0084158173 0.022187173 0.64552617
0.0084514841 0.021512896 0.64630896
0.0084877163 0.020833522 0.64710414
0.0085242875 0.020148337 0.64790684
0.0085611474 0.019457161 0.64871585
0.0085983286 0.018759996 0.64953178
0.0086362669 0.018057704 0.65036446
0.0086759366 0.017351896 0.6512351
0.0087160002 0.01663968 0.65211439
0.0087564066 0.015920728 0.65300125
0.008797219 0.015195221 0.65389693
0.0088383844 0.014462829 0.65480042
0.0088817133 0.013726294 0.65575135
0.0089257024 0.012982875 0.65671682
0.0089700986 0.012231976 0.65769124
0.0090149688 0.011473626 0.65867597
0.0090602897 0.010707647 0.65967071
0.0091079082 0.0099359155 0.66071576
0.0091563631 0.0091563761 0.66177922
0.0092053683 0.0083685219 0.66285479
0.0092548691 0.0075722039 0.6639412
0.0093052201 0.0067674518 0.66504627
0.0093582543 0.0059552491 0.66621023
0.0094119282 0.0051338077 0.6673882
0.009466189 0.0043028295 0.6685791
0.0095211118 0.0034622252 0.66978455
0.0095754759 0.0026115179 0.67097759
0.0096268933 0.0017503798 0.67210615
0.0096743405 0.00087949634 0.67314744
0.0097164223 5.9604645e-08 0.67407107
0.0097546168 -0.0008867681 0.67490935
0.0097866012 -0.0017793179 0.67561132
0.0098173944 -0.0026774406 0.67628711
0.0098495446 -0.0035816729 0.67699277
0.009884675 -0.0044930279 0.67776376
0.0099272495 -0.0054148436 0.67869824
0.0099702291 -0.0063446462 0.67964149
0.010021131 -0.0072880685 0.6807586
0.010074581 -0.0082428157 0.68193173
0.010132485 -0.0092113316 0.68320256
0.010197968 -0.010197937 0.68463975
0.010266563 -0.011199862 0.68614525
0.010348057 -0.012229532 0.6879338
0.010438334 -0.0132851 0.68991518
0.010545573 -0.014380306 0.69226873
0.010754011 -0.015642166 0.69684345
0.011167317 -0.017258555 0.70591438
0.01128857 -0.018472195 0.70857567
0.011419781 -0.019725055 0.7114554
0.011560289 -0.021018684 0.71453917
0.011717106 -0.022368997 0.71798086
0.011896462 -0.023792922 0.72191727
0.012109414 -0.025319666 0.72659093
0.012413219 -0.027083367 0.73325872
0.0097269714 0.066467673 0.65651244
0.0096928338 0.065426618 0.65582567
0.0096589355 0.064392924 0.65514368
0.009625243 0.063366205 0.65446579
0.0095918458 0.062347025 0.65379393
0.0095586181 0.061334491 0.65312546
0.0096012326 0.060807854 0.65398276
0.0096639106 0.060399443 0.65524375
0.0097299339 0.060001284 0.65657204
0.010089605 0.061378479 0.66380805
0.010147273 0.060883671 0.66496825
0.010203904 0.060373157 0.66610759
0.010261206 0.05985707 0.66726047
0.010318907 0.059333742 0.66842127
0.010375432 0.058794141 0.66955841
0.010432579 0.05824855 0.67070818
0.010490359 0.057696998 0.67187065
0.010541227 0.057098329 0.67289406
0.010581315 0.056433707 0.67370057
0.010608948 0.055696964 0.67425644
0.010627425 0.054908365 0.67462814
0.010652312 0.0541493 0.67512888
0.010681611 0.053408086 0.67571831
0.010713782 0.052676141 0.67636555
0.010748805 0.051952571 0.67707014
0.010785878 0.051232964 0.67781597
0.01082961 0.050538212 0.67869586
0.010882568 0.049878448 0.67976123
0.010943339 0.049245059 0.6809839
0.011006005 0.048609853 0.6822446
0.0087973848 0.038122028 0.63781065
0.0087694516 0.037270188 0.63724864
0.0087416954 0.036423743 0.6366902
0.0088006081 0.035935849 0.63787544
0.0086866803 0.034746766 0.6355834
0.008659469 0.033916295 0.63503599
0.0086323787 0.03309083 0.63449097
0.0086164726 0.032311797 0.63417095
0.0086460523 0.031702191 0.63476604
0.0086758351 0.031088442 0.63536525
0.0087073399 0.030475706 0.63599908
0.0087392526 0.029859096 0.63664109
0.0087713981 0.029238045 0.6372878
0.008803783 0.028612345 0.63793933
0.0088363811 0.027981848 0.63859516
0.0088692475 0.027346849 0.63925636
0.0089037316 0.026711226 0.63995016
0.0089388592 0.026071668 0.64065689
0.0089742374 0.025427014 0.64136863
0.0090099238 0.024777293 0.64208657
0.0090458672 0.024122328 0.64280969
0.0090821274 0.023462206 0.64353919
0.0091202846 0.022800714 0.6443069
0.0091589605 0.022134125 0.64508498
0.0091979653 0.021461964 0.64586967
0.0092373332 0.02078402 0.6466617
0.0092770094 0.020100206 0.64745992
0.0093174623 0.019411385 0.64827383
0.0093598161 0.018719673 0.64912587
0.0094025265 0.018021524 0.64998513
0.0094456598 0.017317057 0.65085292
0.0094891591 0.016606033 0.65172803
0.0095330914 0.015888482 0.65261191
0.0095791444 0.015166998 0.65353841
0.0096260449 0.014439076 0.65448201
0.0096733766 0.013703972 0.65543419
0.0097212065 0.012961626 0.65639651
0.0097695133 0.012211889 0.65736836
0.0098199714 0.011456639 0.65838343
0.0098716021 0.010694265 0.65942222
0.009923812 0.0099238455 0.66047257
0.0099765444 0.0091452003 0.66153347
0.01002984 0.0083581805 0.6626057
0.010086215 0.0075646639 0.66373992
0.01014333 0.0067622364 0.66488892
0.010201131 0.0059506893 0.66605175
0.010259558 0.005129844 0.66722727
0.010317914 0.0042991638 0.66840124
0.010374284 0.0034581125 0.6695354
0.010425225 0.0026063025 0.67056024
0.010471514 0.0017453134 0.6714915
0.010513724 0.00087615848 0.67234075
0.010550117 5.9604645e-08 0.67307287
0.010582023 -0.00088182092 0.67371482
0.010616263 -0.0017693639 0.67440367
0.010650688 -0.0026626587 0.67509615
0.010695652 -0.0035651922 0.67600083
0.010741345 -0.004475534 0.67692006
0.010792004 -0.0053959787 0.67793924
0.010848825 -0.0063284636 0.67908239
0.010906247 -0.007270813 0.68023765
0.010975706 -0.0082317591 0.68163502
0.011046137 -0.0092050731 0.683052
0.011129015 -0.010201573 0.68471938
0.011216792 -0.01121676 0.68648535
0.011328192 -0.012272179 0.68872654
0.011473705 -0.013385981 0.69165409
0.011990671 -0.014988303 0.70205462
0.012119037 -0.0161587 0.70463705
0.012252083 -0.017357081 0.70731378
0.012398006 -0.018596977 0.71024954
0.012557945 -0.019883364 0.71346724
0.012735771 -0.021226257 0.71704483
0.012942599 -0.022649556 0.72120589
0.013203239 -0.024205893 0.72644955
0.013737126 -0.026329458 0.73719054
0.010556123 0.066584796 0.65685737
0.010519011 0.065541565 0.65616816
0.010482193 0.064505816 0.65548438
0.010445564 0.06347692 0.65480417
0.010409225 0.062455356 0.65412927
0.010392494 0.061555564 0.65381861
0.010473552 0.061230034 0.65532386
0.010843489 0.062558621 0.66219395
0.0109038 0.062067807 0.66331404
0.010964158 0.061567962 0.66443491
0.011025188 0.061062574 0.66556829
0.011085654 0.060544729 0.66669118
0.011145869 0.060016245 0.66780943
0.011206781 0.059482187 0.6689406
0.011266332 0.058931589 0.67004657
0.011315053 0.058316022 0.67095137
0.011352931 0.05763796 0.67165476
0.011376164 0.056880832 0.67208618
0.011397851 0.056112528 0.67248893
0.011425198 0.055368304 0.67299682
0.011458527 0.05464837 0.67361581
0.01149396 0.053933233 0.67427379
0.011531127 0.0532206 0.67496395
0.011572774 0.052522659 0.67573738
0.011622359 0.051853627 0.67665827
0.01168105 0.05121693 0.6777482
0.01174695 0.050602257 0.67897207
0.011813213 0.049979031 0.6802026
0.01187936 0.049345076 0.68143106
0.011945068 0.048699141 0.68265128
0.01201226 0.048049062 0.68389904
0.0095153591 0.037329495 0.63752943
0.012156385 0.046755344 0.68657559
0.012243703 0.046149373 0.68819714
0.012344453 0.045579553 0.69006824
0.009395808 0.033969492 0.63530922
0.009366395 0.033142656 0.63476306
0.0093371654 0.032320976 0.63422018
0.0093364147 0.031600207 0.6342063
0.0093702804 0.030994028 0.63483518
0.0094043929 0.030383468 0.63546872
0.0094387559 0.029768407 0.63610685
0.0094733695 0.029148847 0.63674963
0.0095082102 0.028524637 0.63739669
0.009545045 0.027900904 0.63808072
0.0095822783 0.027272642 0.63877219
0.009619833 0.026639581 0.63946962
0.009657654 0.026001394 0.640172
0.0096958028 0.025358289 0.64088041
0.0097342245 0.02470997 0.64159393
0.0097748023 0.024061084 0.64234751
0.0098158093 0.023406923 0.64310902
0.0098571619 0.022747308 0.64387697
0.0098988935 0.02208218 0.64465195
0.0099409502 0.02141133 0.64543301
0.0099838255 0.020735621 0.64622927
0.01002868 0.02005741 0.64706218
0.01007397 0.019373029 0.64790332
0.01011964 0.01868242 0.6487515
0.010165758 0.017985612 0.6496079
0.010212266 0.017282337 0.65047157
0.010260917 0.016575366 0.65137506
0.010310589 0.015862465 0.65229756
0.010360712 0.01514262 0.65322834
0.010411358 0.014415741 0.65416884
0.010462467 0.01368171 0.65511811
0.010515611 0.012942314 0.65610498
0.010570292 0.012196511 0.65712047
0.010625511 0.01144287 0.65814596
0.010681311 0.010681331 0.65918213
0.010737699 0.0099117458 0.66022938
0.010796873 0.0091358423 0.66132826
0.01085728 0.0083518028 0.66245008
0.01091837 0.007558912 0.66358459
0.010980186 0.0067570806 0.66473252
0.011042407 0.0059459507 0.66588807
0.011102911 0.0051244497 0.66701162
0.011157647 0.0042914152 0.66802812
0.011208519 0.003448844 0.66897285
0.011254792 0.0025973022 0.66983223
0.011294581 0.0017376244 0.67057115
0.011328612 0.00087144971 0.67120314
0.011364833 2.9802322e-08 0.67187577
0.011401288 -0.00087702274 0.67255282
0.011445262 -0.0017608106 0.67336941
0.011493554 -0.0026523471 0.67426628
0.011543364 -0.0035517812 0.67519122
0.011603368 -0.0044628084 0.67630559
0.011663999 -0.0053833723 0.67743158
0.011732797 -0.0063176155 0.67870915
0.01180708 -0.0072658956 0.6800887
0.011888176 -0.0082302392 0.68159473
0.011980621 -0.0092158318 0.68331146
0.012087261 -0.01022765 0.68529189
0.012215558 -0.011275887 0.68767452
0.012781258 -0.012781233 0.69817996
0.012923514 -0.013917595 0.70082188
0.013060891 -0.01507026 0.70337307
0.013210281 -0.016258806 0.70614737
0.013369775 -0.017483532 0.70910931
0.013547261 -0.018757731 0.71240544
0.013750072 -0.020096213 0.71617174
0.013989908 -0.021522939 0.72062564
0.014324677 -0.023139864 0.72684264
0.01138824 0.066702574 0.65720409
0.011348133 0.065657079 0.65651244
0.011392724 0.065101296 0.65728134
0.011456259 0.064646065 0.65837699
0.011520468 0.0641855 0.65948427
0.011584866 0.063716799 0.66059476
0.011648128 0.06323269 0.66168565
0.011712084 0.062743336 0.66278851
0.011776628 0.062247902 0.66390157
0.011839766 0.061735958 0.66499037
0.011903544 0.061218262 0.66609013
0.011968012 0.060694933 0.66720188
0.012026324 0.060131669 0.66820747
0.01207296 0.059502453 0.66901165
0.012106804 0.058804512 0.66959524
0.012127848 0.05804044 0.66995817
0.012153898 0.057296962 0.67040741
0.012185189 0.056574106 0.67094696
0.012220347 0.055864453 0.67155325
0.0122591 0.055165976 0.67222154
0.012299436 0.05446896 0.67291713
0.012345782 0.053792357 0.67371631
0.012400419 0.053144634 0.67465848
0.012466181 0.052536041 0.67579246
0.012536054 0.051935136 0.67699736
0.012605669 0.051323086 0.67819792
0.012675421 0.050701708 0.6794008
0.012744652 0.050068289 0.68059456
0.012816845 0.04943642 0.68183953
0.01289214 0.048805982 0.68313789
0.01297279 0.048184693 0.68452865
0.013065121 0.047594398 0.68612087
0.013178679 0.047066748 0.68807912
0.013304228 0.046564817 0.69024408
0.013404482 0.045958251 0.69197291
0.01349003 0.045287967 0.69344819
0.010102686 0.033194572 0.63503546
0.010071138 0.032371551 0.63449144
0.010039729 0.031553477 0.63394982
0.010060724 0.030900836 0.63431185
0.010097239 0.030291736 0.63494152
0.010134079 0.029678375 0.63557684
0.01017308 0.029065937 0.63624936
0.010212352 0.028448731 0.63692659
0.010251959 0.027826786 0.6376096
0.010291845 0.027199864 0.63829744
0.010332071 0.026568234 0.63899106
0.010372583 0.025931478 0.63968968
0.010415489 0.025294781 0.64042956
0.01045872 0.024652719 0.64117503
0.01050231 0.024005294 0.64192677
0.010546299 0.023352534 0.64268529
0.010590624 0.02269423 0.64344966
0.010635776 0.022031277 0.64422834
0.010683075 0.021366179 0.64504391
0.010730763 0.02069506 0.64586627
0.010778911 0.020017982 0.64669657
0.01082746 0.019334763 0.64753377
0.010876482 0.018645465 0.64837909
0.010927553 0.017952412 0.64925981
0.010979863 0.017254084 0.65016186
0.01103264 0.016548961 0.65107197
0.011085963 0.015837103 0.65199149
0.011139768 0.015118271 0.65291935
0.011195387 0.014394104 0.65387845
0.011252936 0.013664305 0.65487087
0.011311045 0.012926936 0.65587288
0.011369757 0.012181878 0.65688539
0.011429081 0.011429101 0.65790832
0.011490799 0.010670036 0.65897262
0.011554368 0.0099037588 0.66006887
0.011618607 0.0091289282 0.66117662
0.011683602 0.0083454549 0.66229743
0.011749251 0.0075531006 0.6634295
0.011813369 0.006750524 0.66453516
0.011872635 0.0059363246 0.66555721
0.011928069 0.005112052 0.66651309
0.011977589 0.0042777359 0.66736704
0.01202166 0.0034347475 0.668127
0.012058661 0.0025840402 0.66876507
0.012095892 0.0017279983 0.66940713
0.012134235 0.00086674094 0.67006826
0.012176716 2.9802322e-08 0.67080081
0.012227473 -0.00087335706 0.6716761
0.012278655 -0.0017540455 0.67255867
0.012338953 -0.0026440322 0.67359853
0.012402614 -0.0035435855 0.67469633
0.012470042 -0.0044535697 0.67585909
0.012548 -0.0053777099 0.67720342
0.012626892 -0.0063134432 0.67856383
0.012723262 -0.0072704256 0.68022573
0.012823744 -0.008243829 0.68195844
0.012950868 -0.0092506111 0.68415064
0.013122195 -0.010310292 0.68710506
0.013703148 -0.011745542 0.69712323
0.013846599 -0.012857556 0.699597
0.013996271 -0.013996243 0.70217794
0.014159396 -0.015170753 0.70499098
0.014338746 -0.016387105 0.70808369
0.014537403 -0.017652541 0.71150947
0.014767499 -0.018986762 0.71547735
0.015055822 -0.020432889 0.72044927
0.015542815 -0.022203982 0.72884715
0.012266738 0.067875981 0.65825105
0.012223307 0.066820771 0.65755206
0.012180142 0.065772772 0.65685737
0.012247282 0.065318853 0.65793794
0.012313914 0.064853311 0.65901035
0.01238062 0.064379275 0.66008395
0.012448054 0.063899994 0.66116929
0.012514973 0.063409239 0.66224635
0.012581477 0.062907398 0.66331673
0.012648692 0.062400252 0.66439855
0.012715164 0.061880469 0.66546834
0.012770853 0.061300129 0.66636467
0.012814987 0.06065762 0.66707504
0.012842968 0.059933901 0.66752535
0.012865116 0.059179544 0.66788185
0.012895265 0.058458537 0.66836709
0.01293059 0.057756662 0.66893554
0.012968662 0.057062149 0.66954833
0.013009709 0.056375444 0.67020905
0.013053334 0.055694252 0.67091119
0.013104706 0.055039793 0.67173797
0.013166502 0.054421544 0.67273253
0.013237422 0.053832203 0.67387402
0.013310951 0.053243816 0.67505741
0.013383728 0.052642643 0.67622876
0.013456675 0.052032471 0.67740285
0.013529496 0.051412135 0.67857486
0.01360671 0.050798416 0.67981756
0.013685909 0.050181657 0.68109232
0.013774524 0.049588323 0.68251848
0.013871673 0.049013257 0.68408215
0.013998552 0.048528343 0.68612421
0.014130115 0.048042417 0.68824166
0.014228425 0.047428071 0.68982393
0.014315049 0.046762526 0.69121814
0.014396657 0.046069324 0.69253165
0.014468705 0.045335293 0.69369119
0.010841317 0.033246696 0.63530928
0.010807379 0.032422155 0.63476306
0.010773652 0.03160274 0.63422018
0.010747364 0.030809104 0.63379711
0.010788271 0.030207217 0.63445544
0.010829522 0.029600739 0.63511944
0.010871058 0.028989494 0.63578796
0.010912946 0.028373688 0.63646209
0.010955126 0.027752995 0.63714099
0.010997762 0.027127832 0.63782722
0.011042778 0.026502699 0.63855171
0.011088132 0.02587232 0.63928169
0.011133859 0.025236756 0.64001769
0.011179965 0.024595946 0.64075971
0.011226488 0.023949862 0.64150846
0.01127384 0.023299277 0.64227062
0.011323404 0.022646815 0.64306837
0.011373441 0.02198866 0.64387369
0.011423887 0.021324635 0.64468557
0.011474816 0.020654678 0.64550531
0.011526167 0.019978702 0.64633179
0.011579552 0.019299299 0.64719093
0.01163437 0.018614978 0.64807332
0.011689675 0.01792419 0.64896339
0.011745544 0.017226845 0.64986259
0.011801913 0.016522706 0.65076983
0.011859837 0.015813142 0.65170211
0.011920111 0.01509887 0.65267217
0.011980964 0.014377207 0.6536516
0.012042441 0.013648123 0.65464103
0.012104552 0.012911528 0.65564072
0.012168649 0.012168705 0.65667236
0.012235143 0.011419505 0.65774256
0.012302408 0.010662109 0.65882516
0.012370377 0.009896338 0.65991914
0.01243914 0.0091220438 0.66102588
0.012506756 0.0083378553 0.66211414
0.012570729 0.0075424612 0.66314375
0.012630174 0.0067361295 0.66410047
0.012682718 0.005918622 0.6649462
0.012731082 0.005092442 0.66572458
0.012772244 0.0042574406 0.66638708
0.012810044 0.0034160316 0.66699547
0.012850181 0.0025700629 0.6676414
0.012890747 0.0017187893 0.66829437
0.012943836 0.00086292624 0.6691488
0.012997363 2.9802322e-08 0.67001033
0.013056286 -0.00087040663 0.67095864
0.013122807 -0.0017496645 0.67202926
0.013190011 -0.0026379824 0.67311096
0.013269673 -0.0035385489 0.67439306
0.013352013 -0.004450649 0.67571831
0.013445586 -0.0053781867 0.67722434
0.013548008 -0.0063223839 0.67887282
0.013670952 -0.007291168 0.68085158
0.013821809 -0.0082930923 0.68327951
0.014452935 -0.0096352696 0.69343734
0.01460816 -0.010712653 0.69593573
0.01476025 -0.011808157 0.69838351
0.014926456 -0.012936234 0.70105863
0.015103497 -0.014096558 0.70390803
0.015299681 -0.015299678 0.70706558
0.015523857 -0.016558766 0.71067363
0.01578784 -0.017892867 0.71492237
0.016148176 -0.019377768 0.72072184
0.01310783 0.067996889 0.65860277
0.013061295 0.066939145 0.65790063
0.013031445 0.065971673 0.6574502
0.01310148 0.065507382 0.65850699
0.013172272 0.065038145 0.6595751
0.013241336 0.064551502 0.66061723
0.013311128 0.064059794 0.66167033
0.013381659 0.0635629 0.66273457
0.013447202 0.063033789 0.66372353
0.013500265 0.062438756 0.6645242
0.013540452 0.061778307 0.66513056
0.013564082 0.061038375 0.66548711
0.013590792 0.060309142 0.66589016
0.013623402 0.05960241 0.66638219
0.013661901 0.058916986 0.6669631
0.0137032 0.058238626 0.66758627
0.013746164 0.057562113 0.66823447
0.01379453 0.056902438 0.66896427
0.013851765 0.056272835 0.66982782
0.013919246 0.055676997 0.67084616
0.013995067 0.055105597 0.67199022
0.01407162 0.054527521 0.67314523
0.014147863 0.053938717 0.67429566
0.014223826 0.053339332 0.67544186
0.014300251 0.052732199 0.67659503
0.014382254 0.052135676 0.67783237
0.014465204 0.051532298 0.67908394
0.014562031 0.050967127 0.68054497
0.014666608 0.050416499 0.68212295
0.014804441 0.049965024 0.68420273
0.014934575 0.049470812 0.68616623
0.015037188 0.048870891 0.68771452
0.015124458 0.04820922 0.68903136
0.015207719 0.047524124 0.69028765
0.015283028 0.046804249 0.69142401
0.015356258 0.046068788 0.6925289
0.015426386 0.045315027 0.69358706
0.011582274 0.033299029 0.63558394
0.01154596 0.032473058 0.63503599
0.011509872 0.031652182 0.63449144
0.01147401 0.030836403 0.63395035
0.01147753 0.030128568 0.6340034
0.0115213 0.029523373 0.63466388
0.011565374 0.028913438 0.63532895
0.011610056 0.02829951 0.63600314
0.011657086 0.027685612 0.63671273
0.011704466 0.027066618 0.63742763
0.011752231 0.026442528 0.63814837
0.011800389 0.025813371 0.63887501
0.011848977 0.025179088 0.63960814
0.011898391 0.024540484 0.6403538
0.011950182 0.02390039 0.64113522
0.01200239 0.023254633 0.64192295
0.012055091 0.022603333 0.6427182
0.01210822 0.021946192 0.64351982
0.012161857 0.021283269 0.64432913
0.012217388 0.020616829 0.64516711
0.012274598 0.019946247 0.64603031
0.012332305 0.019269258 0.64690101
0.012390597 0.018585891 0.64778054
0.012449402 0.017896026 0.64866787
0.012509512 0.017200589 0.64957488
0.012572338 0.016501218 0.65052283
0.012635797 0.015794754 0.65148038
