# .PCD v0.7 - Point Cloud Data file format
VERSION 0.7
FIELDS x y z
SIZE 4 4 4
TYPE F F F
COUNT 1 1 1
WIDTH 1303
HEIGHT 1
VIEWPOINT 0 0 0 1 0 0 0
POINTS 1303
DATA ascii
-0.023178952 -0.055050015 0.68146932
-0.023178952 -0.056498677 0.68146926
-0.023178952 -0.057947367 0.68146932
-0.023178952 -0.059396029 0.68146926
-0.023178952 -0.060844719 0.6814692
-0.023178952 -0.06229341 0.68146926
-0.023178952 -0.063742101 0.6814692
-0.023178952 -0.065190792 0.68146926
-0.021610159 0.06771186 0.68050271
-0.021610159 0.066271156 0.68050271
-0.021610159 0.064830482 0.68050265
-0.021610159 0.063389838 0.68050265
-0.021610159 0.061949164 0.68050271
-0.021610159 0.06050846 0.68050271
-0.021610159 0.059067816 0.68050265
-0.021610159 0.057627141 0.68050271
-0.021610159 0.056186438 0.68050265
-0.021610159 0.054745734 0.68050265
-0.021610159 0.053305089 0.68050271
-0.021610159 0.051864415 0.68050265
-0.021610159 0.050423712 0.68050265
-0.021610159 0.048983067 0.68050265
-0.021610159 0.047542363 0.68050271
-0.021610159 0.046101689 0.68050271
-0.021610159 0.044661015 0.68050265
-0.021610159 0.043220311 0.68050271
-0.021610159 0.041779637 0.68050271
-0.021610159 0.040338933 0.68050265
-0.021610159 0.038898319 0.68050271
-0.021610159 0.037457645 0.68050265
-0.021610159 0.036016941 0.68050271
-0.021610159 0.034576297 0.68050265
-0.021610159 0.033135623 0.68050271
-0.021610159 0.031694919 0.68050271
-0.021610159 0.030254245 0.68050265
-0.021610159 0.028813571 0.68050271
-0.021610159 0.027372867 0.68050271
-0.021610159 0.025932193 0.68050265
-0.021610159 0.024491519 0.68050271
-0.021610159 0.023050874 0.68050265
-0.021610159 0.021610141 0.68050271
-0.021610159 0.020169497 0.68050271
-0.021610159 0.018728822 0.68050271
-0.021610159 0.017288148 0.68050265
-0.021610159 0.015847504 0.68050265
-0.021610159 0.0144068 0.68050271
-0.021610159 0.012966126 0.68050265
-0.021610159 0.011525422 0.68050265
-0.021610159 0.010084778 0.68050265
-0.021610159 0.008644104 0.68050265
-0.021610159 0.0072034001 0.68050271
-0.021610159 0.0057627261 0.68050265
-0.021610159 0.004322052 0.68050271
-0.021610159 0.0028813779 0.68050265
-0.021610159 0.0014407039 0.68050265
-0.021610159 2.9802322e-08 0.68050271
-0.021610159 -0.0014406741 0.68050271
-0.021610159 -0.0028813481 0.68050265
-0.021610159 -0.004322052 0.68050271
-0.021610159 -0.0057626963 0.68050271
-0.021610159 -0.0072034001 0.68050271
-0.021610159 -0.0086440444 0.68050271
-0.021610159 -0.010084689 0.68050271
-0.021610159 -0.011525422 0.68050271
-0.021610159 -0.012966037 0.68050265
-0.021610159 -0.01440677 0.68050271
-0.021610159 -0.015847415 0.68050271
-0.021610159 -0.017288119 0.68050265
-0.021610159 -0.018728793 0.68050271
-0.021610159 -0.020169467 0.68050271
-0.021610159 -0.021610141 0.68050265
-0.021610159 -0.023050815 0.68050265
-0.021610159 -0.024491489 0.68050271
-0.021610159 -0.025932193 0.68050271
-0.021610159 -0.027372867 0.68050271
-0.021610159 -0.028813541 0.68050265
-0.021610159 -0.030254215 0.68050265
-0.021610159 -0.031694889 0.68050265
-0.021610159 -0.033135593 0.68050271
-0.021610159 -0.034576207 0.68050271
-0.021610159 -0.036016911 0.68050265
-0.021610159 -0.037457585 0.68050265
-0.021610159 -0.03889823 0.68050271
-0.021610159 -0.040338963 0.68050271
-0.021610159 -0.041779608 0.68050271
-0.021610159 -0.043220311 0.68050265
-0.021610159 -0.044660985 0.68050271
-0.021610159 -0.046101689 0.68050265
-0.021610159 -0.047542334 0.68050271
-0.021610159 -0.048983008 0.68050271
-0.021610159 -0.050423682 0.68050265
-0.021610159 -0.051864356 0.68050265
-0.021610159 -0.05330503 0.68050271
-0.021610159 -0.054745734 0.68050271
-0.021610159 -0.056186438 0.68050271
-0.021610159 -0.057627052 0.68050265
-0.021610159 -0.059067756 0.68050271
-0.021610159 -0.0605084 0.68050265
-0.021610159 -0.061949104 0.68050271
-0.021610159 -0.063389778 0.68050271
-0.021610159 -0.064830452 0.68050265
-0.021610159 -0.066271156 0.68050271
-0.020058552 0.06733945 0.6795463
-0.020058552 0.065906674 0.67954624
-0.020058552 0.064473927 0.67954624
-0.020058552 0.06304121 0.67954624
-0.020058552 0.061608404 0.67954624
-0.020058552 0.060175687 0.67954624
-0.020058552 0.05874294 0.67954624
-0.020058552 0.057310134 0.67954624
-0.020058552 0.055877447 0.67954624
-0.020058552 0.054444641 0.67954624
-0.020058552 0.053011894 0.67954624
-0.020058552 0.051579177 0.67954624
-0.020058552 0.050146401 0.67954624
-0.020058552 0.048713624 0.67954624
-0.020058552 0.047280908 0.67954624
-0.020058552 0.045848161 0.67954624
-0.020058552 0.044415385 0.67954624
-0.020058552 0.042982638 0.67954624
-0.020058552 0.041549891 0.67954624
-0.020058552 0.040117115 0.67954624
-0.020058552 0.038684368 0.67954624
-0.020058552 0.037251621 0.67954624
-0.020058552 0.035818875 0.67954624
-0.020058552 0.034386128 0.67954624
-0.020058552 0.032953382 0.67954624
-0.020058552 0.031520605 0.67954624
-0.020058552 0.030087858 0.67954624
-0.020058552 0.028655082 0.67954624
-0.020058552 0.027222335 0.67954624
-0.020058552 0.025789589 0.67954624
-0.020058552 0.024356812 0.67954624
-0.020058552 0.022924095 0.67954624
-0.020058552 0.021491349 0.67954624
-0.020058552 0.020058542 0.67954624
-0.020058552 0.018625826 0.67954624
-0.020058552 0.017193079 0.67954624
-0.020058552 0.015760273 0.67954624
-0.020058552 0.014327556 0.67954624
-0.020058552 0.012894809 0.67954624
-0.020058552 0.011462033 0.67954624
-0.020058552 0.010029316 0.67954624
-0.020058552 0.0085965395 0.67954624
-0.020058552 0.007163763 0.67954624
-0.020058552 0.0057310462 0.67954624
-0.020058552 0.0042982697 0.67954624
-0.020058552 0.0028655231 0.67954624
-0.020058552 0.0014327765 0.67954624
-0.020058552 2.9802322e-08 0.67954624
-0.020058552 -0.0014327466 0.67954624
-0.020058552 -0.0028654933 0.67954624
-0.020058552 -0.0042982399 0.67954624
-0.020058552 -0.0057310164 0.67954624
-0.020058552 -0.0071637332 0.67954624
-0.020058552 -0.0085964799 0.6795463
-0.020058552 -0.010029286 0.67954624
-0.020058552 -0.011462003 0.67954624
-0.020058552 -0.012894779 0.67954624
-0.020058552 -0.014327526 0.67954624
-0.020058552 -0.015760273 0.67954624
-0.020058552 -0.017193049 0.67954624
-0.020058552 -0.018625796 0.67954624
-0.020058552 -0.020058513 0.67954624
-0.020058552 -0.021491319 0.67954624
-0.020058552 -0.022924066 0.67954624
-0.020058552 -0.024356782 0.67954624
-0.020058552 -0.025789589 0.67954624
-0.020058552 -0.027222306 0.67954624
-0.020058552 -0.028655052 0.67954624
-0.020058552 -0.030087829 0.67954624
-0.020058552 -0.031520575 0.67954624
-0.020058552 -0.032953322 0.67954624
-0.020058552 -0.034386098 0.67954624
-0.020058552 -0.035818845 0.67954624
-0.020058552 -0.037251562 0.67954624
-0.020058552 -0.038684368 0.67954624
-0.020058552 -0.040117085 0.6795463
-0.020058552 -0.041549832 0.67954624
-0.020058552 -0.042982608 0.6795463
-0.020058552 -0.044415355 0.67954624
-0.020058552 -0.045848101 0.67954624
-0.020058552 -0.047280848 0.67954624
-0.020058552 -0.048713624 0.67954624
-0.020058552 -0.050146341 0.67954624
-0.020058552 -0.051579118 0.67954624
-0.020058552 -0.053011864 0.67954624
-0.020058552 -0.054444611 0.67954624
-0.020058552 -0.055877388 0.67954624
-0.020058552 -0.057310134 0.67954624
-0.020058552 -0.058742911 0.67954624
-0.020058552 -0.060175657 0.67954624
-0.020058552 -0.061608374 0.67954624
-0.020058552 -0.06304118 0.67954624
-0.020058552 -0.064473927 0.67954624
-0.020058552 -0.065906614 0.67954624
-0.018523976 0.06839624 0.67860079
-0.018523976 0.066971332 0.67860079
-0.018523976 0.065546393 0.67860079
-0.018523976 0.064121455 0.67860079
-0.018523976 0.062696546 0.67860079
-0.018523976 0.061271638 0.67860073
-0.018523976 0.059846699 0.67860073
-0.018523976 0.058421791 0.67860073
-0.018523976 0.056996882 0.67860079
-0.018523976 0.055571973 0.67860079
-0.018523976 0.054147035 0.67860079
-0.018523976 0.052722067 0.67860079
-0.018523976 0.051297158 0.67860079
-0.018523976 0.049872279 0.67860079
-0.018523976 0.048447371 0.67860079
-0.018523976 0.047022432 0.67860073
-0.018523976 0.045597494 0.67860079
-0.018523976 0.044172555 0.67860079
-0.018523976 0.042747647 0.67860079
-0.018523976 0.041322738 0.67860079
-0.018523976 0.039897799 0.67860079
-0.018523976 0.038472861 0.67860079
-0.018523976 0.037047982 0.67860079
-0.018523976 0.035623074 0.67860073
-0.018523976 0.034198105 0.67860079
-0.018523976 0.032773197 0.67860079
-0.018523976 0.031348288 0.67860079
-0.018523976 0.029923409 0.67860079
-0.018523976 0.028498441 0.67860079
-0.018523976 0.027073503 0.67860079
-0.018523976 0.025648594 0.67860079
-0.018523976 0.024223685 0.67860079
-0.018523976 0.022798777 0.67860079
-0.018523976 0.021373838 0.67860079
-0.018523976 0.01994893 0.67860079
-0.018523976 0.018523991 0.67860079
-0.018523976 0.017099023 0.67860079
-0.018523976 0.015674144 0.67860079
-0.018523976 0.014249235 0.67860079
-0.018523976 0.012824297 0.67860079
-0.018523976 0.011399388 0.67860079
-0.018523976 0.0099744499 0.67860079
-0.018523976 0.0085495412 0.67860079
-0.018523976 0.0071246326 0.67860079
-0.018523976 0.005699724 0.67860073
-0.018523976 0.0042747855 0.67860079
-0.018523976 0.0028498769 0.67860079
-0.018523976 0.0014249384 0.67860079
-0.018523976 2.9802322e-08 0.67860079
-0.018523976 -0.0014249086 0.67860073
-0.018523976 -0.0028498471 0.67860079
-0.018523976 -0.0042747259 0.67860079
-0.018523976 -0.0056996346 0.67860079
-0.018523976 -0.0071246028 0.67860079
-0.018523976 -0.0085495412 0.67860079
-0.018523976 -0.0099744499 0.67860079
-0.018523976 -0.011399329 0.67860079
-0.018523976 -0.012824267 0.67860079
-0.018523976 -0.014249206 0.67860079
-0.018523976 -0.015674114 0.67860079
-0.018523976 -0.017099023 0.67860073
-0.018523976 -0.018523991 0.67860079
-0.018523976 -0.01994887 0.67860079
-0.018523976 -0.021373808 0.67860073
-0.018523976 -0.022798717 0.67860073
-0.018523976 -0.024223626 0.67860073
-0.018523976 -0.025648534 0.67860073
-0.018523976 -0.027073503 0.67860079
-0.018523976 -0.028498411 0.67860079
-0.018523976 -0.02992335 0.67860079
-0.018523976 -0.031348258 0.67860079
-0.018523976 -0.032773167 0.67860079
-0.018523976 -0.034198105 0.67860079
-0.018523976 -0.035623014 0.67860079
-0.018523976 -0.037047893 0.67860079
-0.018523976 -0.038472861 0.67860079
-0.018523976 -0.03989777 0.67860079
-0.018523976 -0.041322678 0.67860079
-0.018523976 -0.042747647 0.67860085
-0.018523976 -0.044172555 0.67860079
-0.018523976 -0.045597434 0.67860079
-0.018523976 -0.047022372 0.67860073
-0.018523976 -0.048447311 0.67860073
-0.018523976 -0.049872249 0.67860079
-0.018523976 -0.051297128 0.67860079
-0.018523976 -0.052722067 0.67860073
-0.018523976 -0.054147035 0.67860079
-0.018523976 -0.055571914 0.67860079
-0.018523976 -0.056996852 0.67860079
-0.018523976 -0.058421731 0.67860079
-0.018523976 -0.059846669 0.67860079
-0.018523976 -0.061271608 0.67860079
-0.018523976 -0.062696546 0.67860079
-0.018523976 -0.064121455 0.67860079
-0.018523976 -0.065546334 0.67860079
-0.017006036 0.068024158 0.67766505
-0.017006036 0.066606998 0.67766511
-0.017006036 0.065189868 0.67766505
-0.017006036 0.063772649 0.67766505
-0.017006036 0.062355489 0.67766505
-0.017006036 0.060938329 0.67766505
-0.017006036 0.059521168 0.67766505
-0.017006036 0.058103979 0.67766511
-0.017006036 0.056686789 0.67766511
-0.017006036 0.055269629 0.67766511
-0.017006036 0.053852439 0.67766511
-0.017006036 0.052435309 0.67766505
-0.017006036 0.051018119 0.67766505
-0.017006036 0.049600959 0.67766505
-0.017006036 0.048183769 0.67766505
-0.017006036 0.046766609 0.67766511
-0.017006036 0.045349449 0.67766511
-0.017006036 0.043932319 0.67766505
-0.017006036 0.042515099 0.67766505
-0.017006036 0.041097939 0.67766505
-0.017006036 0.039680779 0.67766505
-0.017006036 0.038263619 0.67766505
-0.017006036 0.036846429 0.67766505
-0.017006036 0.035429239 0.67766511
-0.017006036 0.034012079 0.67766511
-0.017006036 0.032594889 0.67766511
-0.017006036 0.031177759 0.67766505
-0.017006036 0.029760599 0.67766505
-0.017006036 0.028343409 0.67766505
-0.017006036 0.026926219 0.67766505
-0.017006036 0.025509089 0.67766511
-0.017006036 0.024091899 0.67766511
-0.017006036 0.022674769 0.67766505
-0.017006036 0.02125755 0.67766505
-0.017006036 0.019840419 0.67766505
-0.017006036 0.018423229 0.67766505
-0.017006036 0.01700604 0.67766511
-0.017006036 0.01558885 0.67766505
-0.017006036 0.01417172 0.67766505
-0.017006036 0.01275456 0.67766511
-0.017006036 0.01133734 0.67766511
-0.017006036 0.0099201798 0.67766511
-0.017006036 0.0085030496 0.67766505
-0.017006036 0.0070858896 0.67766505
-0.017006036 0.0056686997 0.67766505
-0.017006036 0.0042515099 0.67766505
-0.017006036 0.0028343499 0.67766511
-0.017006036 0.0014172196 0.677665
-0.017006036 2.9802322e-08 0.67766505
-0.017006036 -0.0014171302 0.67766505
-0.017006036 -0.0028343201 0.67766505
-0.017006036 -0.0042515099 0.67766505
-0.017006036 -0.0056686699 0.67766511
-0.017006036 -0.00708583 0.67766511
-0.017006036 -0.0085030198 0.67766511
-0.017006036 -0.0099201798 0.67766511
-0.017006036 -0.01133734 0.67766505
-0.017006036 -0.0127545 0.67766505
-0.017006036 -0.01417166 0.67766511
-0.017006036 -0.01558885 0.67766505
-0.017006036 -0.01700601 0.67766511
-0.017006036 -0.0184232 0.67766505
-0.017006036 -0.01984036 0.67766505
-0.017006036 -0.02125752 0.67766505
-0.017006036 -0.02267468 0.67766505
-0.017006036 -0.02409184 0.67766505
-0.017006036 -0.025509059 0.67766505
-0.017006036 -0.026926219 0.67766511
-0.017006036 -0.02834335 0.67766511
-0.017006036 -0.02976054 0.67766511
-0.017006036 -0.031177759 0.67766511
-0.017006036 -0.032594889 0.677665
-0.017006036 -0.03401202 0.67766505
-0.017006036 -0.035429239 0.67766511
-0.017006036 -0.036846399 0.67766511
-0.017006036 -0.038263589 0.67766511
-0.017006036 -0.039680719 0.67766511
-0.017006036 -0.041097879 0.677665
-0.017006036 -0.042515069 0.677665
-0.017006036 -0.043932229 0.67766511
-0.017006036 -0.045349389 0.67766505
-0.017006036 -0.046766579 0.67766511
-0.017006036 -0.048183739 0.67766511
-0.017006036 -0.049600929 0.67766505
-0.017006036 -0.051018119 0.67766511
-0.017006036 -0.052435279 0.67766505
-0.017006036 -0.053852439 0.67766511
-0.017006036 -0.055269569 0.67766511
-0.017006036 -0.056686789 0.67766505
-0.017006036 -0.058103919 0.67766505
-0.017006036 -0.059521109 0.67766505
-0.017006036 -0.060938239 0.677665
-0.017006036 -0.062355489 0.67766505
-0.017006036 -0.063772589 0.67766505
-0.017006036 -0.065189779 0.67766505
-0.015504567 0.067656338 0.67673999
-0.015504567 0.066246808 0.67673993
-0.015504567 0.064837277 0.67674005
-0.015504567 0.063427776 0.67673999
-0.015504567 0.062018275 0.67673999
-0.015504567 0.060608804 0.67673993
-0.015504567 0.059199274 0.67674005
-0.015504567 0.057789773 0.67673999
-0.015504567 0.056380242 0.67673999
-0.015504567 0.054970711 0.67673999
-0.015504567 0.05356127 0.67673999
-0.015504567 0.052151769 0.67673999
-0.015504567 0.050742269 0.67673999
-0.015504567 0.049332708 0.67673999
-0.015504567 0.047923237 0.67673999
-0.015504567 0.046513706 0.67673993
-0.015504567 0.045104176 0.67674005
-0.015504567 0.043694705 0.67673999
-0.015504567 0.042285204 0.67673999
-0.015504567 0.040875733 0.67673999
-0.015504567 0.039466172 0.67674005
-0.015504567 0.038056672 0.67673999
-0.015504567 0.036647141 0.67673999
-0.015504567 0.03523764 0.67674005
-0.015504567 0.033828169 0.67674005
-0.015504567 0.032418668 0.67673999
-0.015504567 0.031009167 0.67673999
-0.015504567 0.029599637 0.67673993
-0.015504567 0.028190136 0.67674005
-0.015504567 0.026780635 0.67673999
-0.015504567 0.025371164 0.67673999
-0.015504567 0.023961604 0.67674005
-0.015504567 0.022552103 0.67673999
-0.015504567 0.021142632 0.67673999
-0.015504567 0.019733131 0.67673999
-0.015504567 0.0183236 0.67673999
-0.015504567 0.01691407 0.67673999
-0.015504567 0.015504599 0.67673999
-0.015504567 0.014095068 0.67674005
-0.015504567 0.012685567 0.67673999
-0.015504567 0.011276066 0.67673999
-0.015504567 0.0098665655 0.67673999
-0.015504567 0.0084570646 0.67673993
-0.015504567 0.0070475638 0.67673999
-0.015504567 0.005638063 0.67673999
-0.015504567 0.0042285025 0.67674005
-0.015504567 0.0028190017 0.67674005
-0.015504567 0.0014095306 0.67673999
-0.015504567 2.9802322e-08 0.67673999
-0.015504567 -0.0014094412 0.67673999
-0.015504567 -0.0028190017 0.67674005
-0.015504567 -0.0042285025 0.67673999
-0.015504567 -0.0056380332 0.67673999
-0.015504567 -0.0070475042 0.67674005
-0.015504567 -0.008457005 0.67673999
-0.015504567 -0.0098665357 0.67673999
-0.015504567 -0.011276007 0.67673999
-0.015504567 -0.012685567 0.67673999
-0.015504567 -0.014095038 0.67673999
-0.015504567 -0.015504569 0.67673993
-0.015504567 -0.01691407 0.67674005
-0.015504567 -0.01832357 0.67673999
-0.015504567 -0.019733042 0.67673999
-0.015504567 -0.021142542 0.67673999
-0.015504567 -0.022552073 0.67673993
-0.015504567 -0.023961604 0.67674005
-0.015504567 -0.025371104 0.67673999
-0.015504567 -0.026780576 0.67673993
-0.015504567 -0.028190106 0.67673999
-0.015504567 -0.029599607 0.67674005
-0.015504567 -0.031009108 0.67673999
-0.015504567 -0.032418638 0.67673993
-0.015504567 -0.03382811 0.67673999
-0.015504567 -0.03523764 0.67674005
-0.015504567 -0.036647141 0.67673999
-0.015504567 -0.038056672 0.67674005
-0.015504567 -0.039466172 0.67673999
-0.015504567 -0.040875643 0.67673999
-0.015504567 -0.042285144 0.67673999
-0.015504567 -0.043694645 0.67673993
-0.015504567 -0.045104206 0.67673999
-0.015504567 -0.046513647 0.67673999
-0.015504567 -0.047923207 0.67674005
-0.015504567 -0.049332708 0.67673999
-0.015504567 -0.050742209 0.67673993
-0.015504567 -0.05215171 0.67673999
-0.015504567 -0.053561181 0.67673993
-0.015504567 -0.054970711 0.67673999
-0.015504567 -0.056380212 0.67673993
-0.015504567 -0.057789773 0.67674005
-0.015504567 -0.059199274 0.67674005
-0.015504567 -0.060608745 0.67673999
-0.015504567 -0.062018245 0.67673993
-0.015504567 -0.063427746 0.67673999
-0.015504567 -0.064837277 0.67674005
-0.015504567 -0.066246778 0.67673999
-0.014019209 0.067292243 0.6758244
-0.014019209 0.065890282 0.6758244
-0.014019209 0.064488381 0.6758244
-0.014019209 0.06308648 0.67582434
-0.014019209 0.061684489 0.6758244
-0.014019209 0.060282588 0.67582434
-0.014019209 0.058880717 0.67582434
-0.014019209 0.057478756 0.6758244
-0.014019209 0.056076854 0.6758244
-0.014019209 0.054674923 0.6758244
-0.014019209 0.053273022 0.6758244
-0.014019209 0.051871091 0.67582434
-0.014019209 0.05046919 0.6758244
-0.014019209 0.049067229 0.6758244
-0.014019209 0.047665328 0.67582434
-0.014019209 0.046263427 0.6758244
-0.014019209 0.044861466 0.6758244
-0.014019209 0.043459564 0.67582434
-0.014019209 0.042057633 0.6758244
-0.014019209 0.040655732 0.67582434
-0.014019209 0.039253831 0.67582434
-0.014019209 0.03785187 0.6758244
-0.014019209 0.036449969 0.6758244
-0.014019209 0.035048038 0.6758244
-0.014019209 0.033646107 0.67582434
-0.014019209 0.032244176 0.6758244
-0.014019209 0.030842274 0.6758244
-0.014019209 0.029440343 0.6758244
-0.014019209 0.028038412 0.6758244
-0.014019209 0.026636511 0.6758244
-0.014019209 0.02523458 0.67582434
-0.014019209 0.023832649 0.6758244
-0.014019209 0.022430778 0.6758244
-0.014019209 0.021028817 0.67582434
-0.014019209 0.019626915 0.6758244
-0.014019209 0.018224984 0.6758244
-0.014019209 0.016823083 0.67582434
-0.014019209 0.015421152 0.6758244
-0.014019209 0.014019251 0.67582434
-0.014019209 0.01261732 0.67582434
-0.014019209 0.011215389 0.6758244
-0.014019209 0.0098134875 0.67582434
-0.014019209 0.0084115267 0.6758244
-0.014019209 0.0070096254 0.6758244
-0.014019209 0.0056077242 0.67582434
-0.014019209 0.0042057633 0.6758244
-0.014019209 0.0028038621 0.67582434
-0.014019209 0.0014019012 0.6758244
-0.014019209 -0 0.6758244
-0.014019209 -0.0014018714 0.6758244
-0.014019209 -0.0028038323 0.6758244
-0.014019209 -0.0042057335 0.6758244
-0.014019209 -0.0056076646 0.67582434
-0.014019209 -0.0070095956 0.6758244
-0.014019209 -0.0084114969 0.6758244
-0.014019209 -0.0098133981 0.6758244
-0.014019209 -0.011215359 0.6758244
-0.014019209 -0.01261726 0.67582434
-0.014019209 -0.014019161 0.67582434
-0.014019209 -0.015421122 0.6758244
-0.014019209 -0.016823024 0.67582434
-0.014019209 -0.018224955 0.6758244
-0.014019209 -0.019626886 0.6758244
-0.014019209 -0.021028817 0.6758244
-0.014019209 -0.022430718 0.6758244
-0.014019209 -0.023832649 0.67582434
-0.014019209 -0.02523455 0.6758244
-0.014019209 -0.026636481 0.6758244
-0.014019209 -0.028038383 0.6758244
-0.014019209 -0.029440343 0.6758244
-0.014019209 -0.030842245 0.67582434
-0.014019209 -0.032244146 0.6758244
-0.014019209 -0.033646077 0.6758244
-0.014019209 -0.035048008 0.6758244
-0.014019209 -0.036449909 0.67582434
-0.014019209 -0.03785184 0.6758244
-0.014019209 -0.039253771 0.6758244
-0.014019209 -0.040655702 0.6758244
-0.014019209 -0.042057604 0.6758244
-0.014019209 -0.043459535 0.6758244
-0.014019209 -0.044861466 0.6758244
-0.014019209 -0.046263367 0.6758244
-0.014019209 -0.047665328 0.6758244
-0.014019209 -0.049067199 0.67582434
-0.014019209 -0.0504691 0.6758244
-0.014019209 -0.051871061 0.6758244
-0.014019209 -0.053272992 0.67582434
-0.014019209 -0.054674864 0.6758244
-0.014019209 -0.056076825 0.6758244
-0.014019209 -0.057478726 0.6758244
-0.014019209 -0.058880657 0.67582434
-0.014019209 -0.060282618 0.67582434
-0.014019209 -0.061684489 0.6758244
-0.014019209 -0.06308642 0.67582434
-0.014019209 -0.064488351 0.6758244
-0.014019209 -0.065890253 0.67582434
-0.012702947 0.067749053 0.67697328
-0.012702947 0.066337645 0.67697322
-0.012702947 0.064926207 0.67697322
-0.012702947 0.063514739 0.67697328
-0.012702947 0.062103301 0.67697322
-0.012702947 0.060691893 0.67697322
-0.012702947 0.059280396 0.67697322
-0.012702947 0.057869017 0.67697322
-0.012702947 0.056457549 0.67697322
-0.012702947 0.055046082 0.67697322
-0.012702947 0.053634703 0.67697322
-0.012702947 0.052223235 0.67697322
-0.012702947 0.050811797 0.67697328
-0.012702947 0.049400359 0.67697322
-0.012702947 0.047988921 0.67697322
-0.012702947 0.046577483 0.67697328
-0.012702947 0.045166045 0.67697322
-0.012702947 0.043754637 0.67697322
-0.012702947 0.04234314 0.67697328
-0.012702947 0.040931731 0.67697328
-0.012702947 0.039520293 0.67697322
-0.012702947 0.038108826 0.67697322
-0.012702947 0.036697447 0.67697328
-0.012702947 0.03528598 0.67697322
-0.012702947 0.033874512 0.67697328
-0.012702947 0.032463104 0.67697322
-0.012702947 0.031051666 0.67697322
-0.012702947 0.029640228 0.67697328
-0.012702947 0.02822879 0.67697322
-0.012702947 0.026817352 0.67697322
-0.012702947 0.025405884 0.67697328
-0.012702947 0.023994476 0.67697322
-0.012702947 0.022583038 0.67697322
-0.012702947 0.02117157 0.67697328
-0.012702947 0.019760162 0.67697328
-0.012702947 0.018348694 0.67697322
-0.012702947 0.016937286 0.67697322
-0.012702947 0.015525848 0.67697328
-0.012702947 0.01411441 0.67697322
-0.012702947 0.012702972 0.67697322
-0.012702947 0.011291504 0.67697328
-0.012702947 0.0098800957 0.67697328
-0.012702947 0.0084686577 0.67697322
-0.012702947 0.0070572495 0.67697322
-0.012702947 0.005645752 0.67697328
-0.012702947 0.004234314 0.67697322
-0.012702947 0.0028229356 0.67697322
-0.012702947 0.001411438 0.67697322
-0.012702947 2.9802322e-08 0.67697328
-0.012702947 -0.0014114082 0.67697322
-0.012702947 -0.002822876 0.67697322
-0.012702947 -0.004234314 0.67697322
-0.012702947 -0.0056457222 0.67697322
-0.012702947 -0.0070571601 0.67697322
-0.012702947 -0.0084686279 0.67697322
-0.012702947 -0.0098800361 0.67697322
-0.012702947 -0.011291504 0.67697328
-0.012702947 -0.012702942 0.67697322
-0.012702947 -0.01411432 0.67697322
-0.012702947 -0.015525818 0.67697328
-0.012702947 -0.016937256 0.67697322
-0.012702947 -0.018348664 0.67697322
-0.012702947 -0.019760132 0.67697328
-0.012702947 -0.02117157 0.67697328
-0.012702947 -0.022582978 0.67697322
-0.012702947 -0.023994446 0.67697328
-0.012702947 -0.025405884 0.67697328
-0.012702947 -0.026817292 0.67697328
-0.012702947 -0.02822876 0.67697328
-0.012702947 -0.029640198 0.67697322
-0.012702947 -0.031051636 0.67697322
-0.012702947 -0.032463074 0.67697328
-0.012702947 -0.033874512 0.67697328
-0.012702947 -0.03528592 0.67697322
-0.012702947 -0.036697388 0.67697322
-0.012702947 -0.038108855 0.67697322
-0.012702947 -0.039520264 0.67697322
-0.012702947 -0.040931672 0.67697322
-0.012702947 -0.04234314 0.67697322
-0.012702947 -0.043754548 0.67697322
-0.012702947 -0.045166016 0.67697322
-0.012702947 -0.046577454 0.67697322
-0.012702947 -0.047988892 0.67697322
-0.012702947 -0.04940033 0.67697322
-0.012702947 -0.050811738 0.67697322
-0.012702947 -0.052223206 0.67697322
-0.012702947 -0.053634644 0.67697322
-0.012702947 -0.055046082 0.67697322
-0.012702947 -0.05645752 0.67697322
-0.012702947 -0.057868928 0.67697322
-0.012702947 -0.059280396 0.67697322
-0.012702947 -0.060691833 0.67697328
-0.012702947 -0.062103271 0.67697322
-0.012702947 -0.063514709 0.67697322
-0.012702947 -0.064926147 0.67697328
-0.012702947 -0.066337585 0.67697322
-0.011429146 0.067146271 0.67905009
-0.011429111 0.065717369 0.67904955
-0.011429146 0.064288974 0.67905003
-0.011429146 0.06286034 0.67905003
-0.011429146 0.061431706 0.67905003
-0.011429146 0.060003012 0.67905009
-0.011429146 0.058574408 0.67905003
-0.011429146 0.057145715 0.67905009
-0.011429146 0.055717081 0.67905009
-0.011429146 0.054288447 0.67905009
-0.011429146 0.052859813 0.67905003
-0.011429146 0.051431179 0.67905009
-0.011429146 0.050002545 0.67905003
-0.011429146 0.048573881 0.67905009
-0.011429146 0.047145247 0.67905009
-0.011429146 0.045716584 0.67905009
-0.011429146 0.04428795 0.67905003
-0.011429146 0.042859316 0.67905003
-0.011429146 0.041430682 0.67905003
-0.011429146 0.040002018 0.67905003
-0.011429146 0.038573354 0.67905009
-0.011429146 0.03714475 0.67905003
-0.011429146 0.035716087 0.67905009
-0.011429146 0.034287483 0.67905003
-0.011429146 0.032858819 0.67905009
-0.011429146 0.031430185 0.67905003
-0.011429146 0.030001521 0.67905009
-0.011429146 0.028572887 0.67905009
-0.011429146 0.027144223 0.67905009
-0.011429146 0.02571559 0.67905003
-0.011429146 0.024286956 0.67905003
-0.011429146 0.022858322 0.67905003
-0.011429146 0.021429658 0.67905003
-0.011429146 0.020001054 0.67905003
-0.011429146 0.01857239 0.67905003
-0.011429146 0.017143726 0.67905009
-0.011429146 0.015715092 0.67905003
-0.011429146 0.014286458 0.67905009
-0.011429146 0.012857825 0.67905003
-0.011429146 0.011429161 0.67905009
-0.011429146 0.010000497 0.67905009
-0.011429146 0.008571893 0.67905009
-0.011429146 0.0071432292 0.67905009
-0.011429146 0.0057145953 0.67905003
-0.011429146 0.0042859614 0.67905009
-0.011429146 0.0028573275 0.67905003
-0.011429146 0.0014286935 0.67905003
-0.011429146 2.9802322e-08 0.67905003
-0.011429146 -0.0014286339 0.67905009
-0.011429146 -0.0028572679 0.67905003
-0.011429146 -0.0042859316 0.67905009
-0.011429146 -0.0057145357 0.67905003
-0.011429146 -0.0071431994 0.67905009
-0.011429146 -0.0085718632 0.67905009
-0.011429146 -0.010000497 0.67905009
-0.011429146 -0.011429161 0.67905009
-0.011429146 -0.012857795 0.67905003
-0.011429146 -0.014286429 0.67905009
-0.011429146 -0.015715033 0.67905003
-0.011429146 -0.017143697 0.67905003
-0.011429146 -0.01857233 0.67905003
-0.011429146 -0.020000994 0.67905003
-0.011429146 -0.021429628 0.67905003
-0.011429146 -0.022858292 0.67905003
-0.011429146 -0.024286896 0.67904997
-0.011429146 -0.02571559 0.67905009
-0.011429146 -0.027144164 0.67905009
-0.011429146 -0.028572857 0.67905009
-0.011429146 -0.030001491 0.67905009
-0.011429146 -0.031430155 0.67905009
-0.011429146 -0.032858789 0.67905009
-0.011429146 -0.034287393 0.67905009
-0.011429146 -0.035716057 0.67905009
-0.011429146 -0.037144691 0.67905009
-0.011429146 -0.038573354 0.67905009
-0.011429146 -0.040001988 0.67905003
-0.011429146 -0.041430652 0.67905003
-0.011429146 -0.042859286 0.67905003
-0.011429146 -0.04428792 0.67905003
-0.011429146 -0.045716554 0.67905003
-0.011429146 -0.047145218 0.67905009
-0.011429146 -0.048573852 0.67905009
-0.011429146 -0.050002515 0.67905009
-0.011429146 -0.051431119 0.67904997
-0.011429146 -0.052859813 0.67905009
-0.011429146 -0.054288417 0.67905003
-0.011429146 -0.055717081 0.67905003
-0.011429146 -0.057145715 0.67905003
-0.011429146 -0.058574378 0.67905003
-0.011429146 -0.060002983 0.67905003
-0.011429146 -0.061431646 0.67905003
-0.011429146 -0.06286028 0.67905009
-0.011429146 -0.064288884 0.67905009
-0.011429146 -0.065717548 0.67905009
-0.010123877 0.067974627 0.68117762
-0.010123877 0.06652835 0.68117756
-0.010123877 0.065082043 0.68117762
-0.010123877 0.063635856 0.68117756
-0.010123877 0.062189549 0.68117762
-0.010123877 0.060743302 0.68117756
-0.010123877 0.059296995 0.68117756
-0.010123877 0.057850778 0.68117756
-0.010123877 0.056404471 0.68117762
-0.010123877 0.054958224 0.68117756
-0.010123877 0.053511918 0.68117762
-0.010123877 0.0520657 0.68117756
-0.010123877 0.050619394 0.68117756
-0.010123877 0.049173117 0.68117762
-0.010123877 0.04772687 0.68117762
-0.010123877 0.046280622 0.6811775
-0.010123877 0.044834316 0.68117756
-0.010123877 0.043388039 0.68117762
-0.010123877 0.041941792 0.68117756
-0.010123877 0.040495545 0.68117756
-0.010123877 0.039049238 0.68117756
-0.010123877 0.037602991 0.68117762
-0.010123877 0.036156714 0.68117756
-0.010123877 0.034710467 0.68117756
-0.010123877 0.03326416 0.68117756
-0.010123877 0.031817913 0.68117762
-0.010123877 0.030371666 0.68117756
-0.010123877 0.028925359 0.68117762
-0.010123877 0.027479142 0.68117756
-0.010123877 0.026032835 0.68117756
-0.010123877 0.024586588 0.68117756
-0.010123877 0.023140281 0.68117762
-0.010123877 0.021694064 0.68117762
-0.010123877 0.020247757 0.68117756
-0.010123877 0.01880151 0.68117756
-0.010123877 0.017355233 0.68117756
-0.010123877 0.015908957 0.68117762
-0.010123877 0.01446268 0.68117756
-0.010123877 0.013016462 0.68117756
-0.010123877 0.011570156 0.68117756
-0.010123877 0.010123879 0.68117756
-0.010123877 0.0086776018 0.68117756
-0.010123877 0.0072313547 0.68117762
-0.010123877 0.0057851076 0.68117756
-0.010123877 0.0043388307 0.68117762
-0.010123877 0.002892524 0.68117756
-0.010123877 0.0014462769 0.68117762
-0.010123877 -0 0.68117756
-0.010123877 -0.0014462471 0.68117762
-0.010123877 -0.0028924942 0.68117756
-0.010123877 -0.0043387711 0.68117762
-0.010123877 -0.005785048 0.68117756
-0.010123877 -0.0072313249 0.68117756
-0.010123877 -0.008677572 0.68117756
-0.010123877 -0.010123849 0.68117762
-0.010123877 -0.011570126 0.68117762
-0.010123877 -0.013016403 0.68117762
-0.010123877 -0.01446262 0.68117756
-0.010123877 -0.015908927 0.68117756
-0.010123877 -0.017355204 0.68117762
-0.010123877 -0.018801481 0.68117762
-0.010123877 -0.020247728 0.68117756
-0.010123877 -0.021694005 0.68117756
-0.010123877 -0.023140281 0.68117762
-0.010123877 -0.024586529 0.68117756
-0.010123877 -0.026032805 0.68117762
-0.010123877 -0.027479082 0.68117762
-0.010123877 -0.028925359 0.68117756
-0.010123877 -0.030371606 0.68117756
-0.010123877 -0.031817883 0.68117756
-0.010123877 -0.03326416 0.68117756
-0.010123877 -0.034710407 0.68117762
-0.010123877 -0.036156654 0.68117756
-0.010123877 -0.037602961 0.68117756
-0.010123877 -0.039049238 0.68117762
-0.010123877 -0.040495485 0.68117756
-0.010123877 -0.041941732 0.68117756
-0.010123877 -0.043388039 0.68117762
-0.010123877 -0.044834286 0.68117756
-0.010123877 -0.046280563 0.68117756
-0.010123877 -0.04772681 0.6811775
-0.010123877 -0.049173117 0.68117756
-0.010123877 -0.050619364 0.68117762
-0.010123877 -0.052065641 0.68117762
-0.010123877 -0.053511918 0.68117756
-0.010123877 -0.054958165 0.68117756
-0.010123877 -0.056404442 0.68117756
-0.010123877 -0.057850718 0.68117756
-0.010123877 -0.059296995 0.68117762
-0.010123877 -0.060743272 0.68117756
-0.010123877 -0.062189519 0.68117756
-0.010123877 -0.063635796 0.6811775
-0.010123877 -0.065082073 0.68117756
-0.0087860283 0.067359567 0.68335879
-0.0087860283 0.0658952 0.68335879
-0.0087860283 0.064430892 0.68335879
-0.0087860283 0.062966555 0.68335879
-0.0087860283 0.061502188 0.68335879
-0.0087860283 0.060037881 0.68335879
-0.0087860283 0.058573544 0.68335879
-0.0087860283 0.057109207 0.68335879
-0.0087860283 0.05564484 0.68335879
-0.0087860283 0.054180533 0.68335879
-0.0087860283 0.052716196 0.68335879
-0.0087860283 0.051251829 0.68335879
-0.0087860283 0.049787521 0.68335879
-0.0087860283 0.048323184 0.68335879
-0.0087860283 0.046858788 0.68335879
-0.0087860283 0.04539451 0.68335879
-0.0087860283 0.043930143 0.68335879
-0.0087860283 0.042465776 0.68335879
-0.0087860283 0.041001499 0.68335879
-0.0087860283 0.039537162 0.68335879
-0.0087860283 0.038072795 0.68335879
-0.0087860283 0.036608487 0.68335879
-0.0087860283 0.03514412 0.68335879
-0.0087860283 0.033679783 0.68335879
-0.0087860283 0.032215416 0.68335879
-0.0087860283 0.030751139 0.68335873
-0.0087860283 0.029286802 0.68335879
-0.0087860283 0.027822435 0.68335879
-0.0087860283 0.026358128 0.68335879
-0.0087860283 0.024893761 0.68335879
-0.0087860283 0.023429394 0.68335879
-0.0087860283 0.021965116 0.68335879
-0.0087860283 0.020500749 0.68335879
-0.0087860283 0.019036382 0.68335879
-0.0087860283 0.017572075 0.68335879
-0.0087860283 0.016107738 0.68335879
-0.0087860283 0.014643371 0.68335879
-0.0087860283 0.013179034 0.68335879
-0.0087860283 0.011714727 0.68335873
-0.0087860283 0.01025039 0.68335879
-0.0087860283 0.0087860525 0.68335879
-0.0087860283 0.0073217154 0.68335879
-0.0087860283 0.0058573782 0.68335879
-0.0087860283 0.0043930411 0.68335879
-0.0087860283 0.002928704 0.68335879
-0.0087860283 0.0014643371 0.68335879
-0.0087860283 2.9802322e-08 0.68335879
-0.0087860283 -0.0014643073 0.68335879
-0.0087860283 -0.0029286444 0.68335879
-0.0087860283 -0.0043930113 0.68335879
-0.0087860283 -0.0058573186 0.68335879
-0.0087860283 -0.0073216558 0.68335879
-0.0087860283 -0.0087860227 0.68335879
-0.0087860283 -0.01025036 0.68335879
-0.0087860283 -0.011714697 0.68335879
-0.0087860283 -0.013179034 0.68335879
-0.0087860283 -0.014643371 0.68335879
-0.0087860283 -0.016107708 0.68335879
-0.0087860283 -0.017572045 0.68335879
-0.0087860283 -0.019036353 0.68335879
-0.0087860283 -0.02050069 0.68335879
-0.0087860283 -0.021965057 0.68335879
-0.0087860283 -0.023429394 0.68335879
-0.0087860283 -0.024893731 0.68335879
-0.0087860283 -0.026358068 0.68335879
-0.0087860283 -0.027822405 0.68335879
-0.0087860283 -0.029286742 0.68335879
-0.0087860283 -0.030751079 0.68335879
-0.0087860283 -0.032215446 0.68335879
-0.0087860283 -0.033679754 0.68335873
-0.0087860283 -0.035144091 0.68335873
-0.0087860283 -0.036608428 0.68335879
-0.0087860283 -0.038072765 0.68335879
-0.0087860283 -0.039537102 0.68335879
-0.0087860283 -0.041001439 0.68335879
-0.0087860283 -0.042465776 0.68335879
-0.0087860283 -0.043930143 0.68335879
-0.0087860283 -0.04539448 0.68335879
-0.0087860283 -0.046858817 0.68335879
-0.0087860283 -0.048323154 0.68335879
-0.0087860283 -0.049787462 0.68335879
-0.0087860283 -0.051251799 0.68335879
-0.0087860283 -0.052716136 0.68335879
-0.0087860283 -0.054180473 0.68335879
-0.0087860283 -0.05564481 0.68335879
-0.0087860283 -0.057109177 0.68335879
-0.0087860283 -0.058573514 0.68335879
-0.0087860283 -0.060037822 0.68335885
-0.0087860283 -0.061502188 0.68335885
-0.0087860283 -0.062966496 0.68335879
-0.0087860283 -0.064430833 0.68335879
-0.0087860283 -0.06589517 0.68335879
-0.0074143251 0.068211794 0.68559521
-0.0074143251 0.06672892 0.68559515
-0.0074143251 0.065246075 0.68559521
-0.0074143251 0.063763231 0.68559521
-0.0074143251 0.062280357 0.68559521
-0.0074143251 0.060797483 0.68559527
-0.0074143251 0.059314638 0.68559521
-0.0074143251 0.057831764 0.68559515
-0.0074143251 0.05634886 0.68559521
-0.0074143251 0.054866016 0.68559521
-0.0074143251 0.053383172 0.68559521
-0.0074143251 0.051900297 0.68559527
-0.0074143251 0.050417423 0.68559521
-0.0074143251 0.048934579 0.68559521
-0.0074143251 0.047451675 0.68559521
-0.0074143251 0.045968831 0.68559521
-0.0074143251 0.044485986 0.68559521
-0.0074143251 0.043003112 0.68559521
-0.0074143251 0.041520208 0.68559521
-0.0074143251 0.040037334 0.68559515
-0.0074143251 0.038554519 0.68559515
-0.0074143251 0.037071675 0.68559515
-0.0074143251 0.035588771 0.68559521
-0.0074143251 0.034105927 0.68559515
-0.0074143251 0.032623053 0.68559521
-0.0074143251 0.031140178 0.68559515
-0.0074143251 0.029657334 0.68559521
-0.0074143251 0.02817446 0.68559521
-0.0074143251 0.026691586 0.68559521
-0.0074143251 0.025208741 0.68559515
-0.0074143251 0.023725867 0.68559515
-0.0074143251 0.022242993 0.68559521
-0.0074143251 0.020760119 0.68559515
-0.0074143251 0.019277245 0.68559515
-0.0074143251 0.0177944 0.68559521
-0.0074143251 0.016311526 0.68559521
-0.0074143251 0.014828682 0.68559515
-0.0074143251 0.013345808 0.68559521
-0.0074143251 0.011862963 0.68559515
-0.0074143251 0.010380089 0.68559515
-0.0074143251 0.0088971853 0.68559521
-0.0074143251 0.007414341 0.68559521
-0.0074143251 0.0059314668 0.68559515
-0.0074143251 0.0044485927 0.68559521
-0.0074143251 0.0029657483 0.68559521
-0.0074143251 0.001482904 0.68559515
-0.0074143251 -0 0.68559521
-0.0074143251 -0.0014828444 0.68559521
-0.0074143251 -0.0029656887 0.68559515
-0.0074143251 -0.0044485629 0.68559521
-0.0074143251 -0.005931437 0.68559521
-0.0074143251 -0.0074142814 0.68559515
-0.0074143251 -0.0088971853 0.68559527
-0.0074143251 -0.010380059 0.68559515
-0.0074143251 -0.011862904 0.68559515
-0.0074143251 -0.013345778 0.68559527
-0.0074143251 -0.014828652 0.68559515
-0.0074143251 -0.016311496 0.68559521
-0.0074143251 -0.017794371 0.68559521
-0.0074143251 -0.019277215 0.68559521
-0.0074143251 -0.020760089 0.68559521
-0.0074143251 -0.022242963 0.68559521
-0.0074143251 -0.023725808 0.68559521
-0.0074143251 -0.025208682 0.68559521
-0.0074143251 -0.026691586 0.68559521
-0.0074143251 -0.02817443 0.68559521
-0.0074143251 -0.029657274 0.68559515
-0.0074143251 -0.031140178 0.68559521
-0.0074143251 -0.032623023 0.68559527
-0.0074143251 -0.034105867 0.68559515
-0.0074143251 -0.035588771 0.68559527
-0.0074143251 -0.037071615 0.68559521
-0.0074143251 -0.03855446 0.68559515
-0.0074143251 -0.040037304 0.68559521
-0.0074143251 -0.041520238 0.68559521
-0.0074143251 -0.043003082 0.68559521
-0.0074143251 -0.044485927 0.68559521
-0.0074143251 -0.045968801 0.68559521
-0.0074143251 -0.047451675 0.68559521
-0.0074143251 -0.048934519 0.68559515
-0.0074143251 -0.050417364 0.68559515
-0.0074143251 -0.051900268 0.68559521
-0.0074143251 -0.053383112 0.68559515
-0.0074143251 -0.054865956 0.68559515
-0.0074143251 -0.05634883 0.68559521
-0.0074143251 -0.057831734 0.68559515
-0.0074143251 -0.059314579 0.68559515
-0.0074143251 -0.060797453 0.68559521
-0.0074143251 -0.062280327 0.68559521
-0.0074143251 -0.063763171 0.68559521
-0.0074143251 -0.065246046 0.68559521
-0.0060074674 0.067584038 0.68788892
-0.0060074674 0.06608215 0.68788892
-0.0060074674 0.064580292 0.68788892
-0.0060074674 0.063078403 0.68788892
-0.0060074674 0.061576545 0.68788892
-0.0060074674 0.060074687 0.68788892
-0.0060074674 0.058572799 0.68788892
-0.0060074674 0.057070971 0.68788898
-0.0060074674 0.055569112 0.68788886
-0.0060074674 0.054067194 0.68788892
-0.0060074674 0.052565366 0.68788892
-0.0060074674 0.051063478 0.68788898
-0.0060074674 0.04956162 0.68788892
-0.0060074674 0.048059762 0.68788892
-0.0060074674 0.046557933 0.68788892
-0.0060074674 0.045056015 0.68788892
-0.0060074674 0.043554157 0.68788892
-0.0060074674 0.042052299 0.68788898
-0.0060074674 0.040550441 0.68788898
-0.0060074674 0.039048553 0.68788898
-0.0060074674 0.037546694 0.68788898
-0.0060074674 0.036044866 0.68788886
-0.0060074674 0.034542948 0.68788898
-0.0060074674 0.03304112 0.68788892
-0.0060074674 0.031539232 0.68788892
-0.0060074674 0.030037373 0.68788892
-0.0060074674 0.028535485 0.68788892
-0.0060074674 0.027033627 0.68788892
-0.0060074674 0.025531769 0.68788892
-0.0060074674 0.024029881 0.68788892
-0.0060074674 0.022528023 0.68788892
-0.0060074674 0.021026134 0.68788892
-0.0060074674 0.019524276 0.68788892
-0.0060074674 0.018022418 0.68788892
-0.0060074674 0.01652056 0.68788892
-0.0060074674 0.015018642 0.68788892
-0.0060074674 0.013516814 0.68788892
-0.0060074674 0.012014955 0.68788892
-0.0060074674 0.010513067 0.68788892
-0.0060074674 0.0090112388 0.68788892
-0.0060074674 0.0075093806 0.68788892
-0.0060074674 0.0060074925 0.68788892
-0.0060074674 0.0045056045 0.68788892
-0.0060074674 0.0030037463 0.68788892
-0.0060074674 0.001501888 0.68788892
-0.0060074674 -0 0.68788892
-0.0060074674 -0.0015018582 0.68788892
-0.0060074674 -0.0030036867 0.68788892
-0.0060074674 -0.0045056045 0.68788898
-0.0060074674 -0.0060074329 0.68788892
-0.0060074674 -0.0075092912 0.68788892
-0.0060074674 -0.0090111494 0.68788898
-0.0060074674 -0.010513037 0.68788892
-0.0060074674 -0.012014925 0.68788892
-0.0060074674 -0.013516754 0.68788892
-0.0060074674 -0.015018642 0.68788892
-0.0060074674 -0.01652053 0.68788898
-0.0060074674 -0.018022388 0.68788892
-0.0060074674 -0.019524246 0.68788898
-0.0060074674 -0.021026134 0.68788892
-0.0060074674 -0.022527963 0.68788892
-0.0060074674 -0.024029851 0.68788892
-0.0060074674 -0.025531709 0.68788892
-0.0060074674 -0.027033597 0.68788892
-0.0060074674 -0.028535426 0.68788892
-0.0060074674 -0.030037314 0.68788892
-0.0060074674 -0.031539202 0.68788886
-0.0060074674 -0.03304106 0.68788892
-0.0060074674 -0.034542918 0.68788898
-0.0060074674 -0.036044806 0.68788892
-0.0060074674 -0.037546694 0.68788898
-0.0060074674 -0.039048523 0.68788892
-0.0060074674 -0.040550411 0.68788898
-0.0060074674 -0.042052269 0.68788892
-0.0060074674 -0.043554127 0.68788898
-0.0060074674 -0.045055956 0.68788892
-0.0060074674 -0.046557873 0.68788898
-0.0060074674 -0.048059732 0.68788892
-0.0060074674 -0.04956156 0.68788892
-0.0060074674 -0.051063448 0.68788892
-0.0060074674 -0.052565336 0.68788898
-0.0060074674 -0.054067165 0.68788892
-0.0060074674 -0.055569053 0.68788898
-0.0060074674 -0.057070941 0.68788892
-0.0060074674 -0.058572829 0.68788898
-0.0060074674 -0.060074657 0.68788892
-0.0060074674 -0.061576515 0.68788886
-0.0060074674 -0.063078403 0.68788892
-0.0060074674 -0.064580232 0.68788886
-0.0060074674 -0.06608212 0.68788898
-0.004564086 0.068461299 0.69024217
-0.004564086 0.06693998 0.69024217
-0.004564086 0.065418571 0.69024217
-0.004564086 0.063897222 0.69024217
-0.004564086 0.062375844 0.69024217
-0.004564086 0.060854495 0.69024223
-0.004564086 0.059333146 0.69024223
-0.004564086 0.057811767 0.69024217
-0.004564086 0.056290418 0.69024217
-0.004564086 0.054769039 0.69024217
-0.004564086 0.05324769 0.69024217
-0.004564086 0.051726341 0.69024223
-0.004564086 0.050204962 0.69024223
-0.004564086 0.048683584 0.69024223
-0.004564086 0.047162265 0.69024217
-0.004564086 0.045640886 0.69024217
-0.004564086 0.044119537 0.69024217
-0.004564086 0.042598158 0.69024217
-0.004564086 0.04107675 0.69024217
-0.004564086 0.03955543 0.69024223
-0.004564086 0.038034052 0.69024217
-0.004564086 0.036512733 0.69024223
-0.004564086 0.034991324 0.69024223
-0.004564086 0.033469975 0.69024217
-0.004564086 0.031948626 0.69024217
-0.004564086 0.030427247 0.69024217
-0.004564086 0.028905898 0.69024217
-0.004564086 0.02738452 0.69024217
-0.004564086 0.025863171 0.69024223
-0.004564086 0.024341792 0.69024217
-0.004564086 0.022820443 0.69024217
-0.004564086 0.021299094 0.69024217
-0.004564086 0.019777715 0.69024217
-0.004564086 0.018256366 0.69024217
-0.004564086 0.016734987 0.69024217
-0.004564086 0.015213639 0.69024217
-0.004564086 0.01369226 0.69024223
-0.004564086 0.012170881 0.69024223
-0.004564086 0.010649532 0.69024223
-0.004564086 0.0091281831 0.69024217
-0.004564086 0.0076068342 0.69024217
-0.004564086 0.0060854554 0.69024217
-0.004564086 0.0045641363 0.69024223
-0.004564086 0.0030427277 0.69024223
-0.004564086 0.0015213788 0.69024223
-0.004564086 -0 0.69024217
-0.004564086 -0.001521349 0.69024217
-0.004564086 -0.0030426681 0.69024217
-0.004564086 -0.0045640767 0.69024217
-0.004564086 -0.0060854256 0.69024217
-0.004564086 -0.0076068044 0.69024223
-0.004564086 -0.0091281533 0.69024223
-0.004564086 -0.010649502 0.69024223
-0.004564086 -0.012170911 0.69024217
-0.004564086 -0.01369226 0.69024217
-0.004564086 -0.015213609 0.69024217
-0.004564086 -0.016734958 0.69024217
-0.004564086 -0.018256336 0.69024217
-0.004564086 -0.019777685 0.69024217
-0.004564086 -0.021299064 0.69024217
-0.004564086 -0.022820413 0.69024223
-0.004564086 -0.024341792 0.69024223
-0.004564086 -0.025863141 0.69024217
-0.004564086 -0.02738449 0.69024223
-0.004564086 -0.028905869 0.69024217
-0.004564086 -0.030427217 0.69024217
-0.004564086 -0.031948596 0.69024217
-0.004564086 -0.033469915 0.69024223
-0.004564086 -0.034991324 0.69024223
-0.004564086 -0.036512673 0.69024223
-0.004564086 -0.038034052 0.69024223
-0.004564086 -0.039555401 0.69024217
-0.004564086 -0.041076779 0.69024217
-0.004564086 -0.042598128 0.69024223
-0.004564086 -0.044119447 0.69024217
-0.004564086 -0.045640856 0.69024217
-0.004564086 -0.047162235 0.69024217
-0.004564086 -0.048683554 0.69024223
-0.004564086 -0.050204933 0.69024217
-0.004564086 -0.051726282 0.69024223
-0.004564086 -0.05324766 0.69024217
-0.004564086 -0.054769009 0.69024223
-0.004564086 -0.056290358 0.69024223
-0.004564086 -0.057811737 0.69024223
-0.004564086 -0.059333086 0.69024217
-0.004564086 -0.060854465 0.69024217
-0.004564086 -0.062375844 0.69024223
-0.004564086 -0.063897163 0.69024217
-0.004564086 -0.065418541 0.69024217
-0.0030827399 0.067820311 0.69265735
-0.0030827399 0.066278905 0.69265735
-0.0030827399 0.064737558 0.69265735
-0.0030827399 0.063196212 0.69265735
-0.0030827399 0.061654806 0.69265735
-0.0030827399 0.06011343 0.69265735
-0.0030827399 0.058572114 0.69265735
-0.0030827399 0.057030708 0.69265735
-0.0030827399 0.055489302 0.69265735
-0.0030827399 0.053947985 0.69265741
-0.0030827399 0.052406609 0.69265741
-0.0030827399 0.050865233 0.69265735
-0.0030827399 0.049323827 0.69265735
-0.0030827399 0.047782511 0.69265735
-0.0030827399 0.046241134 0.69265735
-0.0030827399 0.044699728 0.69265735
-0.0030827399 0.043158382 0.69265735
-0.0030827399 0.041617006 0.69265741
-0.0030827399 0.04007563 0.69265735
-0.0030827399 0.038534254 0.69265735
-0.0030827399 0.036992908 0.69265741
-0.0030827399 0.035451531 0.69265741
-0.0030827399 0.033910155 0.69265735
-0.0030827399 0.032368779 0.69265741
-0.0030827399 0.030827403 0.69265735
-0.0030827399 0.029286057 0.69265735
-0.0030827399 0.027744681 0.69265741
-0.0030827399 0.026203275 0.69265735
-0.0030827399 0.024661958 0.69265735
-0.0030827399 0.023120582 0.69265741
-0.0030827399 0.021579176 0.69265735
-0.0030827399 0.02003783 0.69265735
-0.0030827399 0.018496454 0.69265741
-0.0030827399 0.016955078 0.69265735
-0.0030827399 0.015413731 0.69265735
-0.0030827399 0.013872355 0.69265741
-0.0030827399 0.012330979 0.69265735
-0.0030827399 0.010789633 0.69265735
-0.0030827399 0.0092482269 0.69265735
-0.0030827399 0.0077068806 0.69265735
-0.0030827399 0.0061655045 0.69265735
-0.0030827399 0.0046241283 0.69265741
-0.0030827399 0.0030827522 0.69265735
-0.0030827399 0.0015414059 0.69265735
-0.0030827399 2.9802322e-08 0.69265735
-0.0030827399 -0.0015413165 0.69265735
-0.0030827399 -0.0030827224 0.69265735
-0.0030827399 -0.0046240985 0.69265735
-0.0030827399 -0.006165415 0.69265741
-0.0030827399 -0.0077068508 0.69265741
-0.0030827399 -0.0092482269 0.69265735
-0.0030827399 -0.010789543 0.69265735
-0.0030827399 -0.012330949 0.69265741
-0.0030827399 -0.013872325 0.69265735
-0.0030827399 -0.015413702 0.69265741
-0.0030827399 -0.016955048 0.69265735
-0.0030827399 -0.018496424 0.69265735
-0.0030827399 -0.0200378 0.69265735
-0.0030827399 -0.021579176 0.69265735
-0.0030827399 -0.023120522 0.69265735
-0.0030827399 -0.024661899 0.69265741
-0.0030827399 -0.026203275 0.69265741
-0.0030827399 -0.027744621 0.69265735
-0.0030827399 -0.029286027 0.69265741
-0.0030827399 -0.030827373 0.69265735
-0.0030827399 -0.03236872 0.69265735
-0.0030827399 -0.033910155 0.69265735
-0.0030827399 -0.035451502 0.69265735
-0.0030827399 -0.036992818 0.69265741
-0.0030827399 -0.038534254 0.69265735
-0.0030827399 -0.0400756 0.69265741
-0.0030827399 -0.041616946 0.69265735
-0.0030827399 -0.043158352 0.69265741
-0.0030827399 -0.044699728 0.69265735
-0.0030827399 -0.046241045 0.69265735
-0.0030827399 -0.047782481 0.69265735
-0.0030827399 -0.049323797 0.69265735
-0.0030827399 -0.050865173 0.69265735
-0.0030827399 -0.052406579 0.69265741
-0.0030827399 -0.053947926 0.69265735
