# .PCD v0.7 - Point Cloud Data file format
VERSION 0.7
FIELDS x y z
SIZE 4 4 4
TYPE F F F
COUNT 1 1 1
WIDTH 1327
HEIGHT 1
VIEWPOINT 0 0 0 1 0 0 0
POINTS 1327
DATA ascii
-0.034763545 -0.047571152 0.72745705
-0.034997012 -0.049732596 0.72894037
-0.035233777 -0.051923454 0.73044461
-0.035473768 -0.054144174 0.7319693
-0.035716906 -0.056395084 0.73351395
-0.035963546 -0.058677346 0.73508096
-0.036213469 -0.060991049 0.73666871
-0.036467038 -0.063337505 0.7382797
-0.036724035 -0.065716684 0.73991245
-0.046662975 0.067402065 0.81952643
-0.045585651 0.063313454 0.81230175
-0.044556718 0.059408963 0.8054015
-0.043573428 0.055677176 0.79880744
-0.042632602 0.052106529 0.79249817
-0.041731343 0.048686624 0.78645414
-0.040867597 0.045408487 0.7806617
-0.040038686 0.042263061 0.77510297
-0.03924292 0.039242953 0.76976645
-0.038478166 0.036340535 0.76463789
-0.037742481 0.033548892 0.75970429
-0.037034564 0.030862123 0.75495684
-0.036352713 0.028274357 0.75038427
-0.035695363 0.025779992 0.74597597
-0.035061512 0.023374379 0.74172527
-0.034449637 0.021052569 0.73762196
-0.033858888 0.018810511 0.73366028
-0.033287928 0.016644001 0.7298314
-0.032736033 0.014549345 0.72613025
-0.032202136 0.012523085 0.72254986
-0.031685255 0.010561764 0.71908361
-0.031184822 0.0086624622 0.71572769
-0.03069984 0.0068221986 0.7124753
-0.03022982 0.005038321 0.70932323
-0.02977387 0.0033082068 0.70626551
-0.02933157 0.0016295612 0.70329946
-0.02890222 -0 0.70042014
-0.028485162 -0.0015824735 0.69762331
-0.028306006 -0.0031450987 0.69642192
-0.02846924 -0.0047448575 0.69751656
-0.028634463 -0.0063631833 0.69862449
-0.028801519 -0.0080004334 0.69974482
-0.028970635 -0.0096568167 0.70087898
-0.029141746 -0.01133287 0.70202643
-0.029314788 -0.013028771 0.70318687
-0.029490005 -0.014744997 0.70436192
-0.029667223 -0.016481757 0.70555031
-0.029846687 -0.018239617 0.70675385
-0.030028231 -0.020018786 0.70797133
-0.030212102 -0.02181983 0.70920444
-0.030398134 -0.023642987 0.71045196
-0.030586578 -0.025488794 0.7117157
-0.030777376 -0.027357668 0.71299523
-0.030970454 -0.029249877 0.71429002
-0.031166084 -0.031166047 0.71560192
-0.031364087 -0.033106536 0.71692979
-0.031564739 -0.035071909 0.71827543
-0.031767853 -0.037062466 0.71963751
-0.031973723 -0.039078981 0.72101808
-0.032182153 -0.041121632 0.72241592
-0.032393444 -0.043191284 0.72383285
-0.032607529 -0.045288235 0.72526848
-0.03282433 -0.047412902 0.72672236
-0.033044167 -0.049566209 0.72819668
-0.033266839 -0.051748365 0.7296899
-0.033492662 -0.053960383 0.73120433
-0.03372144 -0.056202382 0.73273849
-0.033953495 -0.058475494 0.73429477
-0.034188632 -0.06077978 0.73587167
-0.034427188 -0.063116521 0.73747146
-0.034669098 -0.065486073 0.73909366
-0.043872513 0.067099154 0.81812
-0.042864062 0.063035399 0.81095934
-0.041900925 0.059154242 0.80412048
-0.040979914 0.055443436 0.79758072
-0.040098723 0.051892489 0.79132366
-0.039254438 0.048490822 0.78532875
-0.038445156 0.045229614 0.77958232
-0.037668571 0.042100191 0.77406806
-0.036922567 0.039094508 0.76877099
-0.036205698 0.036205739 0.7636807
-0.035516139 0.03342697 0.75878447
-0.034852203 0.030751944 0.7540701
-0.034212783 0.028175265 0.74952978
-0.033596259 0.025691271 0.74515206
-0.033001695 0.023295313 0.74093032
-0.032427814 0.020982713 0.73685539
-0.031873424 0.018749088 0.73291886
-0.03133779 0.016590595 0.72911561
-0.030819746 0.014503449 0.7254371
-0.030318664 0.012484163 0.72187912
-0.029833505 0.010529488 0.71843421
-0.029363735 0.008636415 0.7150985
-0.028908426 0.0068019927 0.7118656
-0.028467122 0.0050236583 0.70873201
-0.02803909 0.0032987297 0.70569277
-0.027623644 0.0016249418 0.70274276
-0.027220422 -0 0.69987965
-0.026828712 -0.0015781224 0.69709826
-0.026656985 -0.0031360984 0.69587892
-0.026810355 -0.0047312081 0.6969679
-0.026965413 -0.0063447654 0.69806892
-0.027122365 -0.0079771578 0.69918334
-0.027281059 -0.0096285939 0.70031023
-0.02744172 -0.011299521 0.70145094
-0.027604187 -0.012990177 0.70260459
-0.027768685 -0.014701039 0.70377266
-0.027935058 -0.016432375 0.70495403
-0.028103536 -0.018184632 0.70615029
-0.028274057 -0.019958138 0.7073611
-0.028446559 -0.021753222 0.70858598
-0.028621282 -0.023570478 0.70982671
-0.028798062 -0.025410056 0.71108192
-0.028977141 -0.027272552 0.71235347
-0.029158359 -0.029158324 0.71364021
-0.029341962 -0.031067908 0.71494389
-0.029527785 -0.033001631 0.71626335
-0.029716088 -0.034960091 0.71760046
-0.029906696 -0.036943555 0.71895397
-0.030099874 -0.038952798 0.72032559
-0.030295568 -0.040988117 0.72171515
-0.030493706 -0.043049872 0.723122
-0.03069457 -0.045139045 0.72454828
-0.030897979 -0.047255725 0.72599268
-0.031104224 -0.049400806 0.72745711
-0.031313118 -0.051574528 0.72894037
-0.031524956 -0.053777844 0.73044455
-0.031739686 -0.0560112 0.73196924
-0.031957231 -0.058274925 0.73351395
-0.03217791 -0.060570151 0.73508096
-0.032401524 -0.062897056 0.73666877
-0.032628402 -0.065256804 0.7382797
-0.041107018 0.066798896 0.81672603
-0.040166266 0.062759817 0.80962861
-0.039267607 0.058901429 0.80284882
-0.038408089 0.055211633 0.79636419
-0.037585575 0.051680177 0.79015881
-0.036797553 0.048296809 0.78421366
-0.036041725 0.045052201 0.7785114
-0.035316486 0.041938365 0.77303988
-0.0346197 0.038947165 0.76778305
-0.033950027 0.036071956 0.76273072
-0.033305772 0.033305824 0.7578702
-0.032685373 0.030642539 0.75318968
-0.032087799 0.028076857 0.74868131
-0.031511683 0.025603294 0.74433482
-0.030955764 0.023216844 0.7401408
-0.03041924 0.020913213 0.73609304
-0.029900879 0.018688053 0.73218232
-0.029400006 0.016537517 0.72840345
-0.028915524 0.014457762 0.72474837
-0.028446857 0.012445539 0.72121251
-0.027993038 0.010497391 0.71778876
-0.027553571 0.0086105168 0.71447319
-0.027127689 0.0067819357 0.71126014
-0.026714677 0.0050090551 0.70814425
-0.026314145 0.0032892823 0.70512247
-0.025925359 0.0016203523 0.70218927
-0.025547978 2.9802322e-08 0.69934213
-0.02518134 -0.001573801 0.69657612
-0.02501737 -0.0031271577 0.69533902
-0.025160896 -0.004717648 0.69642186
-0.025305992 -0.0063264668 0.69751656
-0.025452856 -0.0079540312 0.69862461
-0.02560135 -0.0096004903 0.69974482
-0.025751675 -0.011266321 0.70087892
-0.025903773 -0.012951851 0.70202637
-0.026057592 -0.014657348 0.70318687
-0.026213337 -0.01638332 0.70436192
-0.026370864 -0.018129915 0.70555031
-0.026530389 -0.019897789 0.70675391
-0.026691761 -0.021687031 0.70797133
-0.026855204 -0.023498267 0.70920444
-0.027020562 -0.025331736 0.71045196
-0.02718807 -0.027188063 0.7117157
-0.027357666 -0.029067516 0.71299523
-0.027529292 -0.030970424 0.71429002
-0.027703186 -0.032897502 0.71560192
-0.027879188 -0.034848988 0.71692979
-0.028057545 -0.036825478 0.71827543
-0.028238093 -0.03882733 0.71963751
-0.028421087 -0.040855318 0.72101808
-0.028606361 -0.042909503 0.72241586
-0.028794173 -0.044990867 0.72383279
-0.028984359 -0.04709956 0.72526765
-0.029177185 -0.049236476 0.72672242
-0.029372593 -0.051402003 0.72819662
-0.029570524 -0.053596526 0.72968996
-0.029771253 -0.055821061 0.73120433
-0.029974611 -0.058075786 0.73273849
-0.030180886 -0.060361743 0.73429477
-0.030389896 -0.062679142 0.73587167
-0.030601947 -0.065029114 0.7374714
-0.03836637 0.066501707 0.8153463
-0.037491959 0.062486619 0.80830956
-0.036656704 0.058650732 0.80158794
-0.035857856 0.054982066 0.79515928
-0.035092909 0.051469624 0.78900349
-0.034360081 0.048104167 0.78310615
-0.033657078 0.044876099 0.77744877
-0.032982416 0.04177773 0.77201951
-0.032334272 0.038801163 0.76680368
-0.031710967 0.035939127 0.76178771
-0.031111373 0.033185482 0.7569626
-0.030533906 0.03053391 0.75231546
-0.029977608 0.027979136 0.74783874
-0.029441219 0.025515765 0.74352217
-0.028923569 0.023138881 0.73935652
-0.028423924 0.020844221 0.73533565
-0.027941138 0.018627465 0.73145044
-0.02747458 0.016484767 0.72769594
-0.027023353 0.014412463 0.72406471
-0.026586607 0.012407124 0.72055006
-0.026163848 0.010465562 0.71714795
-0.02575423 0.0085847974 0.71385157
-0.025357332 0.0067619681 0.7106576
-0.024972394 0.0049944818 0.70755988
-0.024599055 0.0032799244 0.70455539
-0.024236627 0.0016157925 0.70163882
-0.023884807 -0 0.6988076
-0.023543056 -0.0015695095 0.69605744
-0.023387082 -0.0031182766 0.69480228
-0.02352087 -0.0047041476 0.69587886
-0.023656195 -0.0063083172 0.69696796
-0.023793012 -0.0079309642 0.69806892
-0.023931498 -0.0095725954 0.69918334
-0.024071524 -0.01123336 0.70031023
-0.024213281 -0.012913734 0.701451
-0.024356635 -0.014613956 0.70260459
-0.02450178 -0.016334504 0.70377266
-0.024648581 -0.018075585 0.70495403
-0.024797237 -0.019837767 0.70615029
-0.024947695 -0.021621317 0.7073611
-0.025099905 -0.023426592 0.70858598
-0.025254073 -0.025254071 0.70982671
-0.025410054 -0.02710402 0.71108186
-0.025568066 -0.028977126 0.71235347
-0.025727963 -0.030873537 0.71364021
-0.025889967 -0.032793939 0.71494389
-0.026053928 -0.034738541 0.71626335
-0.026220078 -0.036708087 0.71760046
-0.02638826 -0.038702756 0.71895391
-0.026558714 -0.040723354 0.72032559
-0.026731383 -0.042770207 0.72171515
-0.026906213 -0.044843704 0.72312206
-0.027083445 -0.046944618 0.72454828
-0.027262924 -0.049073249 0.72599268
-0.027444905 -0.05123046 0.72745711
-0.027629219 -0.053416491 0.72894031
-0.027816139 -0.055632293 0.73044455
-0.028005496 -0.057878017 0.7319684
-0.028197557 -0.060154766 0.73351395
-0.028392272 -0.062462986 0.7350809
-0.02858958 -0.064803064 0.73666871
-0.03564981 0.066206813 0.81397706
-0.034840833 0.062215805 0.80700183
-0.034067929 0.058402181 0.80033773
-0.033328574 0.054754108 0.79396284
-0.032620471 0.051260769 0.78785753
-0.03194198 0.047913015 0.78200746
-0.031291142 0.044701666 0.7763958
-0.030666154 0.041618407 0.77100706
-0.030065781 0.038656026 0.76583052
-0.029488331 0.035807312 0.76085156
-0.028932773 0.033066034 0.75606143
-0.028397759 0.030426204 0.75144851
-0.027882056 0.027882069 0.74700201
-0.027384862 0.025428772 0.74271512
-0.026904982 0.023061424 0.73857743
-0.026441732 0.020775646 0.73458326
-0.025994167 0.018567294 0.73072422
-0.025561403 0.016432315 0.72699291
-0.02514291 0.014367372 0.7233845
-0.024737803 0.012368888 0.71989167
-0.024345636 0.010433912 0.7165103
-0.023965621 0.0085591674 0.71323371
-0.023597369 0.0067421198 0.71005857
-0.023240184 0.0049800575 0.70697886
-0.022893731 0.0032705367 0.70399165
-0.022557454 0.0016112924 0.70109224
-0.022230839 2.9802322e-08 0.6982761
-0.02191362 -0.0015652478 0.6955409
-0.021766111 -0.0031094253 0.69426912
-0.021890197 -0.0046907365 0.69533908
-0.022015784 -0.0062901974 0.69642186
-0.022142742 -0.0079081059 0.69751656
-0.022271249 -0.0095448196 0.69862455
-0.022401182 -0.011200607 0.69974482
-0.022532715 -0.012875825 0.70087892
-0.022665802 -0.014570862 0.70202643
-0.022800393 -0.016285986 0.70318693
-0.022936668 -0.018021613 0.70436192
-0.023074506 -0.019778132 0.70555037
-0.023214089 -0.021555901 0.70675391
-0.02335529 -0.023355275 0.70797133
-0.023498302 -0.025176734 0.70920438
-0.023642993 -0.027020544 0.71045196
-0.02378956 -0.028887302 0.7117157
-0.023937872 -0.030777246 0.71299446
-0.024088131 -0.032691002 0.71429002
-0.024240287 -0.034628958 0.71560192
-0.024394291 -0.036591411 0.71692973
-0.02455035 -0.038579077 0.71827543
-0.024708331 -0.040592253 0.71963745
-0.024868449 -0.042631626 0.72101808
-0.025030565 -0.044697434 0.72241592
-0.0251949 -0.04679051 0.72383285
-0.025361314 -0.048911095 0.72526765
-0.025530037 -0.051060051 0.72672236
-0.02570102 -0.053237796 0.72819662
-0.025874209 -0.055444747 0.72968996
-0.026049847 -0.057681799 0.73120433
-0.026227783 -0.059949189 0.73273849
-0.026408274 -0.062248051 0.73429477
-0.026591158 -0.064578533 0.73587167
-0.032957237 0.065914482 0.81261986
-0.032212757 0.061947614 0.8057071
-0.031501003 0.058155745 0.79909819
-0.030820182 0.054528058 0.79277635
-0.030168016 0.051053584 0.78672081
-0.029543022 0.047723323 0.78091741
-0.028943397 0.044528335 0.77534968
-0.028367497 0.041460216 0.77000219
-0.027814196 0.038511962 0.76486456
-0.027282065 0.035676569 0.7599234
-0.026769796 0.032947481 0.75516683
-0.026276523 0.030319095 0.75058657
-0.02580099 0.027785689 0.746171
-0.02534247 0.025342494 0.74191344
-0.024899958 0.022984564 0.73780459
-0.024472542 0.020707548 0.73383582
-0.024059642 0.018507451 0.73000187
-0.023660356 0.01638028 0.72629428
-0.023274193 0.014322579 0.72270858
-0.022900345 0.012330949 0.71923727
-0.022538403 0.010402381 0.7158764
-0.022187725 0.008533746 0.71262026
-0.02184771 0.0067224205 0.70946306
-0.021518039 0.0049657226 0.70640194
-0.021198092 0.0032612383 0.70343113
-0.020887593 0.0016067624 0.70054799
-0.020585991 2.9802322e-08 0.69774747
-0.02029304 -0.001560986 0.69502735
-0.020154232 -0.0031006038 0.6937384
-0.020268803 -0.0046774149 0.69480228
-0.020384753 -0.0062722266 0.69587886
-0.020502036 -0.0078853965 0.6969679
-0.020620609 -0.0095171928 0.69806898
-0.020740632 -0.011168003 0.6991834
-0.020861987 -0.012838125 0.70031023
-0.020984843 -0.014527977 0.701451
-0.021109084 -0.016237706 0.70260459
-0.021234876 -0.017967969 0.70377266
-0.021362102 -0.019718856 0.70495397
-0.021490937 -0.021490932 0.70615035
-0.021621261 -0.023284405 0.70736045
-0.02175325 -0.025099903 0.70858598
-0.021886865 -0.026937634 0.70982659
-0.022022048 -0.028798014 0.71108192
-0.022158993 -0.03068167 0.71235347
-0.022297569 -0.03258875 0.71364021
-0.022437971 -0.034519941 0.71494395
-0.02258007 -0.036475509 0.71626341
-0.022724068 -0.038456112 0.71760046
-0.022869825 -0.040461987 0.71895385
-0.023017552 -0.042493939 0.72032559
-0.0231672 -0.044552296 0.72171509
-0.023318715 -0.046637416 0.723122
-0.023472318 -0.048750162 0.72454828
-0.023627868 -0.050890803 0.72599262
-0.023785582 -0.053060114 0.72745705
-0.023945324 -0.055258423 0.72894037
-0.02410732 -0.057486653 0.73044461
-0.024271429 -0.059745044 0.7319684
-0.024437882 -0.062034607 0.73351395
-0.024606636 -0.064355791 0.73508096
-0.030288335 0.065624744 0.81127465
-0.029607082 0.061681449 0.80442184
-0.028955655 0.057911336 0.79786897
-0.028332418 0.054303825 0.79159963
-0.027735442 0.050848335 0.78559458
-0.027162975 0.047535241 0.77983594
-0.026613787 0.044356346 0.7743116
-0.026086247 0.041303247 0.76900494
-0.025579328 0.03836903 0.7639057
-0.025091736 0.035546631 0.75900096
-0.024622278 0.032829732 0.75427854
-0.024170166 0.03021276 0.74973065
-0.023734361 0.027690113 0.74534678
-0.023313895 0.025256723 0.7411173
-0.02290816 0.022908181 0.73703587
-0.022516217 0.020639896 0.7330932
-0.022137547 0.018447965 0.72928405
-0.021771317 0.016328484 0.72560012
-0.021417091 0.014278084 0.72203684
-0.021074206 0.012293309 0.71858764
-0.020742051 0.010371029 0.7152465
-0.020420277 0.0085085034 0.71200967
-0.020108262 0.0067027807 0.70887101
-0.019805711 0.0049514771 0.70582759
-0.019512059 0.0032520294 0.70287371
-0.019227054 0.0016022623 0.70000672
-0.018950192 2.9802322e-08 0.69722182
-0.018681251 -0.0015567541 0.69451642
-0.018551443 -0.0030919015 0.69321066
-0.018656665 -0.0046641827 0.69426918
-0.018763028 -0.0062543452 0.69533908
-0.01887067 -0.0078627765 0.69642186
-0.018979494 -0.0094897151 0.69751656
-0.019089643 -0.011135608 0.69862455
-0.019201012 -0.012800664 0.69974482
-0.019313756 -0.01448527 0.70087892
-0.019427763 -0.016189784 0.70202571
-0.019543193 -0.017914593 0.70318687
-0.019660002 -0.019659966 0.70436192
-0.019778147 -0.02142632 0.70555043
-0.019897791 -0.023214072 0.70675391
-0.020018822 -0.02502352 0.70797133
-0.020141402 -0.026855201 0.70920444
-0.020265423 -0.028709352 0.71045196
-0.020391053 -0.030586571 0.7117157
-0.020518176 -0.032487094 0.71299452
-0.020646969 -0.034411609 0.71429002
-0.020777389 -0.036360443 0.71560198
-0.020909391 -0.038333863 0.71692985
-0.021043159 -0.040332705 0.71827543
-0.02117857 -0.042357117 0.71963751
-0.021315815 -0.044407934 0.72101808
-0.021454768 -0.046485305 0.72241586
-0.021595629 -0.048590153 0.72383285
-0.021738268 -0.050722599 0.72526765
-0.02188289 -0.052883625 0.72672248
-0.022029445 -0.055073589 0.72819668
-0.022177892 -0.057292879 0.72968996
-0.02232844 -0.059542507 0.73120433
-0.022480959 -0.061822623 0.73273849
-0.022635665 -0.064134389 0.73429477
-0.027642796 0.065337539 0.80994129
-0.027023707 0.06141749 0.80314755
-0.026431741 0.057669252 0.7966516
-0.025865028 0.05408144 0.79043257
-0.025322227 0.050644487 0.78447598
-0.024801621 0.047348559 0.77876306
-0.024302104 0.044185668 0.77328151
-0.023822313 0.041147679 0.76801646
-0.023360996 0.038227111 0.76295406
-0.022917302 0.035417676 0.75808513
-0.022490153 0.032712966 0.7533977
-0.022078538 0.030107081 0.74888086
-0.021681812 0.027595073 0.74452722
-0.021299005 0.025171578 0.7403264
-0.020929564 0.022832245 0.73627234
-0.020572638 0.020572633 0.73235554
-0.020227762 0.018388927 0.72857094
-0.019894259 0.016277134 0.72491109
-0.019571498 0.014233828 0.72136927
-0.019259118 0.012255847 0.71794134
-0.018956481 0.010339916 0.71462029
-0.018663276 0.0084832907 0.71140277
-0.018378939 0.0066832602 0.70828247
-0.018103197 0.0049372613 0.70525658
-0.017835608 0.0032428503 0.70232016
-0.017575754 0.0015977919 0.69946861
-0.017323423 -0 0.69669956
-0.017078176 -0.001552552 0.69400835
-0.016957669 -0.0030831993 0.6926859
-0.01705358 -0.0046509504 0.69373846
-0.017150525 -0.0062365234 0.69480222
-0.017248638 -0.0078402758 0.69587892
-0.01734782 -0.009462446 0.6969673
-0.017448207 -0.011103362 0.69806892
-0.017549764 -0.012763441 0.69918334
-0.01765245 -0.014442921 0.70031023
-0.017756406 -0.01614216 0.701451
-0.017861532 -0.017861515 0.70260465
-0.017967971 -0.019601434 0.70377266
-0.018075624 -0.021362096 0.70495397
-0.01818464 -0.023144066 0.70615029
-0.018294912 -0.024947554 0.70736039
-0.018406598 -0.026773185 0.70858598
-0.018519653 -0.028621256 0.70982659
-0.01863404 -0.030492038 0.71108192
-0.018749915 -0.032386214 0.71235347
-0.018867174 -0.034303963 0.71364021
-0.018985977 -0.036245942 0.71494395
-0.019106215 -0.038212419 0.71626341
-0.019228056 -0.040204108 0.71760046
-0.019351391 -0.042221218 0.71895391
-0.01947639 -0.044264525 0.72032559
-0.019602941 -0.046334207 0.72171438
-0.019731222 -0.048431188 0.72312206
-0.019861193 -0.050555766 0.72454828
-0.01999281 -0.052708328 0.72599262
-0.020126263 -0.054889798 0.72745711
-0.020261429 -0.057100356 0.72894037
-0.020398503 -0.059341073 0.73044455
-0.020537362 -0.06161207 0.73196834
-0.020678209 -0.063914448 0.73351395
-0.025604466 0.06913206 0.81567085
-0.025020445 0.065053195 0.80862105
-0.024462342 0.061155915 0.80188417
-0.023928721 0.057428986 0.79544276
-0.023417763 0.053860873 0.78927499
-0.022928284 0.050442249 0.78336644
-0.022458848 0.047163576 0.77769977
-0.022008143 0.044016272 0.77225935
-0.021575272 0.040993065 0.76703417
-0.021159103 0.038086385 0.76201051
-0.020758592 0.035289615 0.75717592
-0.020373048 0.032596886 0.75252199
-0.020001482 0.030002236 0.7480368
-0.019643307 0.027500689 0.7437132
-0.019297734 0.025087059 0.73954177
-0.018964035 0.022756845 0.73551369
-0.018641753 0.020505935 0.73162347
-0.018330172 0.018330187 0.72786236
-0.018028904 0.016226023 0.72422564
-0.01773731 0.014189869 0.72070581
-0.017455064 0.012218595 0.71729881
-0.017181598 0.010308951 0.71399784
-0.016916629 0.0084583163 0.71079934
-0.016659707 0.0066638887 0.70769799
-0.016410416 0.004923135 0.70468879
-0.016168533 0.0032337308 0.70176899
-0.01593362 0.0015933812 0.69893336
-0.01570549 -0 0.69617963
-0.015483749 -0.0015483499 0.6935029
-0.015372834 -0.0030745268 0.69216406
-0.015459537 -0.0046378374 0.69321072
-0.015547222 -0.0062188804 0.69426918
-0.015635855 -0.0078178942 0.69533908
-0.015725559 -0.0094352961 0.6964218
-0.015816245 -0.011071354 0.6975165
-0.015908035 -0.012726426 0.69862455
-0.016000845 -0.01440075 0.69974482
-0.016094796 -0.016094774 0.70087892
-0.016189802 -0.017808735 0.70202577
-0.016285995 -0.019543201 0.70318693
-0.016383335 -0.021298319 0.70436192
-0.016481789 -0.023074478 0.70555043
-0.016581492 -0.024872214 0.70675391
-0.016682351 -0.026691765 0.70797133
-0.016784502 -0.028533608 0.70920444
-0.016887851 -0.030398101 0.71045196
-0.016992545 -0.03228581 0.7117157
-0.017098479 -0.034196973 0.71299446
-0.017205808 -0.036132157 0.71429002
-0.017314492 -0.038091898 0.71560198
-0.017424492 -0.040076315 0.71692973
-0.017535966 -0.042086303 0.71827543
-0.017648809 -0.04412201 0.71963751
-0.017763179 -0.046184242 0.72101808
-0.017878974 -0.048273236 0.72241592
-0.017996358 -0.050389767 0.72383285
-0.018115224 -0.052534103 0.72526765
-0.018235739 -0.054707199 0.72672242
-0.018357871 -0.056909382 0.72819662
-0.018481577 -0.05914104 0.72968996
-0.018607033 -0.061403185 0.73120433
-0.018734133 -0.063696057 0.73273855
-0.018863054 -0.066020638 0.73429471
-0.022941718 0.068825185 0.81429869
-0.022420703 0.064770907 0.8073107
-0.021922711 0.060896456 0.80063158
-0.021446472 0.057190657 0.79424405
-0.020990483 0.053642392 0.78812814
-0.020553382 0.050241619 0.78226566
-0.020134209 0.046979845 0.77664357
-0.0197317 0.043848246 0.771245
-0.019345058 0.040839553 0.76605928
-0.018973276 0.037946522 0.76107275
-0.018615434 0.035162479 0.75627327
-0.018270917 0.032481641 0.75165248
-0.017938921 0.029898226 0.74719971
-0.017618703 0.027406901 0.74290484
-0.017309785 0.025003016 0.7387616
-0.017011447 0.022681952 0.73476017
-0.016723284 0.020439595 0.73089522
-0.016444657 0.018271863 0.72715819
-0.016175224 0.01617524 0.72354448
-0.015914477 0.014146239 0.72004724
-0.015661947 0.01218152 0.71666026
-0.015417362 0.010278255 0.7133798
-0.015180242 0.0084335208 0.71019948
-0.01495036 0.0066446066 0.70711625
-0.014727285 0.004909128 0.70412433
-0.014510819 0.0032246113 0.70122099
-0.014300575 0.0015889704 0.69840109
-0.014096384 2.9802322e-08 0.69566244
-0.013897941 -0.0015442073 0.69300091
-0.013796907 -0.0030659735 0.6916458
-0.013874456 -0.004624784 0.69268584
-0.013952929 -0.006201297 0.69373834
-0.014032248 -0.0077956915 0.69480222
-0.014112521 -0.0094082952 0.69587886
-0.014193671 -0.011039495 0.6969673
-0.014275806 -0.012689561 0.69806892
-0.014358899 -0.014358878 0.6991834
-0.014442915 -0.016047686 0.70031023
-0.014527968 -0.017756402 0.70145106
-0.01461398 -0.019485265 0.70260465
-0.014701068 -0.02123484 0.70377266
-0.014789148 -0.023005307 0.70495403
-0.014878343 -0.024797201 0.70615029
-0.014968565 -0.026610732 0.70736039
-0.015059943 -0.028446555 0.7085861
-0.01515239 -0.03030476 0.70982593
-0.015246032 -0.032186061 0.71108186
-0.01534084 -0.034090757 0.71235347
-0.015436778 -0.036019146 0.71364021
-0.015533981 -0.037971944 0.71494395
-0.015632357 -0.039949358 0.71626341
-0.015732046 -0.041952133 0.71760046
-0.015832957 -0.04398039 0.71895391
-0.015935227 -0.046035081 0.72032559
-0.016038831 -0.048116475 0.72171509
-0.016143726 -0.0502249 0.723122
-0.016250066 -0.05236131 0.72454834
-0.016357753 -0.054525852 0.72599262
-0.016466942 -0.056719452 0.72745711
-0.016577533 -0.058942318 0.72894037
-0.016689684 -0.061195523 0.73044455
-0.016803296 -0.063479125 0.7319684
-0.016918534 -0.065794289 0.73351401
-0.020302506 0.068520963 0.81293869
-0.01984342 0.064491123 0.80601168
-0.019404637 0.06063953 0.79939091
-0.018984742 0.056954235 0.79305518
-0.018582728 0.053425342 0.78698933
-0.018197298 0.050042599 0.78117359
-0.017827617 0.046797514 0.77559555
-0.017472655 0.043681651 0.77023959
-0.017131476 0.040687263 0.76509154
-0.01680344 0.037807763 0.76014191
-0.016487731 0.035036474 0.75537825
-0.016183596 0.032367229 0.75078917
-0.015890546 0.029794782 0.74636734
-0.015607856 0.027313769 0.74210197
-0.01533511 0.024919569 0.73798656
-0.015071672 0.022607535 0.73401153
-0.014817191 0.020373672 0.73017168
-0.014571162 0.018213958 0.72645944
-0.014333113 0.016124815 0.72286749
-0.014102771 0.014102787 0.71939194
-0.013879665 0.012144715 0.71602553
-0.013663556 0.010247678 0.71276474
-0.013454027 0.0084087849 0.70960319
-0.013250873 0.0066254437 0.70653784
-0.013053718 0.0048951805 0.70356297
-0.012862388 0.003215611 0.70067602
-0.012676585 0.0015845597 0.69787246
-0.012496033 2.9802322e-08 0.69514817
-0.012320592 -0.0015400648 0.69250095
-0.012229718 -0.0030574203 0.6911298
-0.012298267 -0.0046118498 0.69216412
-0.012367629 -0.0061838329 0.69321072
-0.012437778 -0.007773608 0.69426918
-0.012508685 -0.0093815029 0.69533902
-0.012580448 -0.011007875 0.69642186
-0.012652996 -0.012652993 0.69751656
-0.012726428 -0.014317185 0.69862461
-0.012800675 -0.016000837 0.69974488
-0.012875837 -0.017704219 0.70087892
-0.012951842 -0.019427747 0.70202577
-0.013028796 -0.021171749 0.70318693
-0.013106668 -0.022936612 0.70436192
-0.013185432 -0.024722666 0.70555031
-0.013265194 -0.026530385 0.70675385
-0.01334588 -0.028359979 0.70797139
-0.013427602 -0.030212075 0.70920444
-0.013510281 -0.032086939 0.71045196
-0.013594035 -0.033985049 0.7117157
-0.013678784 -0.035906821 0.71299446
-0.013764646 -0.037852734 0.71429002
-0.013851543 -0.039823145 0.71560121
-0.013939594 -0.041818798 0.71692985
-0.014028773 -0.043839902 0.71827543
-0.014119047 -0.045886874 0.71963751
-0.014210544 -0.04796055 0.72101808
-0.01430318 -0.050061107 0.72241586
-0.014397087 -0.05218944 0.72383285
-0.014492179 -0.054345638 0.72526765
-0.014588593 -0.056530803 0.72672242
-0.014686297 -0.058745205 0.72819674
-0.014785262 -0.060989171 0.7296899
-0.014885627 -0.063263923 0.73120433
-0.014987306 -0.065569431 0.73273855
-0.017686522 0.068219483 0.81159067
-0.01728831 0.064213753 0.80472374
-0.016907634 0.060384423 0.7981593
-0.016543278 0.05671984 0.79187614
-0.016194373 0.053210139 0.78585953
-0.015859883 0.049845338 0.78009146
-0.015538857 0.046616554 0.77455556
-0.015230639 0.043516159 0.76924056
-0.014934344 0.040536106 0.76413113
-0.014649421 0.037669957 0.75921774
-0.014375167 0.034911156 0.75448847
-0.014110933 0.032253563 0.74993193
-0.013856295 0.029692084 0.74554086
-0.013610628 0.027221262 0.74130452
-0.013373575 0.024836689 0.73721653
-0.013144637 0.022533685 0.73326868
-0.012923356 0.020308167 0.72945285
-0.012709451 0.01815635 0.72576421
-0.012502463 0.016074598 0.72219479
-0.012302156 0.014059633 0.71874058
-0.012108121 0.012108147 0.71539462
-0.011920156 0.010217309 0.71215326
-0.011737936 0.0083842576 0.70901102
-0.011561165 0.0066064 0.70596272
-0.011389676 0.0048813224 0.70300549
-0.011223164 0.0032066107 0.7001341
-0.011061487 0.0015802383 0.69734609
-0.010904365 2.9802322e-08 0.69463664
-0.01075168 -0.0015359521 0.69200361
-0.010671246 -0.0030489266 0.69061667
-0.010730927 -0.0045989454 0.69164574
-0.010791244 -0.0061663985 0.69268596
-0.010852278 -0.0077516139 0.69373846
-0.010913971 -0.0093548 0.69480228
-0.010976405 -0.010976374 0.69587886
-0.011039522 -0.012616575 0.69696724
-0.011103405 -0.014275789 0.69806886
-0.011167995 -0.015954226 0.69918269
-0.011233378 -0.017652452 0.70031023
-0.011299531 -0.019370615 0.70145094
-0.011366429 -0.021109045 0.70260459
-0.011434164 -0.022868335 0.70377266
-0.011502671 -0.024648577 0.70495403
-0.011572043 -0.026450396 0.70615035
-0.011642217 -0.02827394 0.70736039
-0.01171329 -0.030119866 0.70858598
-0.011785191 -0.031988353 0.70982593
-0.011858025 -0.033880055 0.71108186
-0.011931765 -0.035795242 0.71235347
-0.012006383 -0.03773433 0.71364021
-0.012081985 -0.039697915 0.71494401
-0.0121585 -0.041686267 0.71626341
-0.012236036 -0.043700099 0.71760046
-0.012314521 -0.045739621 0.71895385
-0.012394066 -0.047805667 0.72032565
-0.012474599 -0.049898356 0.72171426
-0.012556233 -0.052018642 0.723122
-0.01263894 -0.054166883 0.72454822
-0.012722698 -0.056343377 0.72599262
-0.012807621 -0.058549076 0.72745711
-0.012893637 -0.06078425 0.72894037
-0.012980865 -0.063049912 0.73044455
-0.01306923 -0.065346152 0.73196834
-0.01509354 0.067920953 0.81025618
-0.014755086 0.063938737 0.80344689
-0.01443155 0.06013146 0.79693794
-0.014121898 0.05648762 0.79070824
-0.013825188 0.052996576 0.78473884
-0.013540755 0.049649447 0.77901649
-0.013267727 0.046437055 0.77352357
-0.013005552 0.043351859 0.76824909
-0.012753537 0.04038623 0.76317894
-0.012511048 0.037533194 0.75830042
-0.012277661 0.034786761 0.75360507
-0.012052771 0.032140732 0.74908066
-0.01183602 0.02959004 0.74471992
-0.011626928 0.027129501 0.74051332
-0.01142505 0.024754316 0.7364518
-0.011230106 0.022460222 0.73252982
-0.011041661 0.020243078 0.72873861
-0.010859476 0.018099159 0.72507334
-0.010683166 0.016024739 0.72152627
-0.010512529 0.014016747 0.71809328
-0.010347257 0.012071818 0.71476829
-0.010187064 0.010187119 0.71154547
-0.010031791 0.0083598495 0.70842159
-0.0098811472 0.0065874457 0.70539087
-0.0097349938 0.0048675239 0.70245051
-0.0095930677 0.00319767 0.69959521
-0.0094552524 0.0015758872 0.69682252
-0.0093213106 -0 0.69412786
-0.0091911396 -0.0015318096 0.69150901
-0.009121418 -0.0030404329 0.69010633
-0.0091722887 -0.0045861602 0.6911298
-0.0092237005 -0.0061491132 0.69216412
-0.0092757214 -0.0077297688 0.69321066
-0.0093283327 -0.0093283355 0.69426918
-0.009381514 -0.010945052 0.69533902
-0.0094353352 -0.012580425 0.6964218
-0.0094897468 -0.014234573 0.6975165
-0.0095448215 -0.015908003 0.69862449
-0.0096005062 -0.017600894 0.69974482
-0.0096568782 -0.019313753 0.70087892
-0.0097138816 -0.021046728 0.70202577
-0.0097715966 -0.022800386 0.70318687
-0.0098299673 -0.024574876 0.7043612
-0.0098890737 -0.026370853 0.70555037
-0.0099488953 -0.028188497 0.70675385
-0.010009411 -0.030028194 0.70797133
-0.010070701 -0.031890512 0.70920444
-0.010132711 -0.033775687 0.71045196
-0.010195526 -0.035684347 0.7117157
-0.010259088 -0.03761664 0.71299446
-0.010323484 -0.039573342 0.71429002
-0.010388657 -0.0415546 0.71560121
-0.010454696 -0.04356122 0.71692979
-0.01052158 -0.0455935 0.71827543
-0.010589285 -0.047651768 0.71963757
-0.010657907 -0.049736887 0.72101808
-0.010727384 -0.051849008 0.72241586
-0.010797814 -0.053989083 0.72383285
-0.010869134 -0.056157202 0.72526765
-0.010941445 -0.058354348 0.72672236
-0.011014679 -0.06058073 0.72819579
-0.011088946 -0.062837392 0.72968996
-0.01116422 -0.065124601 0.73120439
-0.012523086 0.067624658 0.80893165
-0.012243467 0.063666075 0.80218101
-0.011976124 0.059880644 0.79572678
-0.011720207 0.05625698 0.7895484
-0.011474942 0.052784741 0.78362721
-0.011239786 0.049455076 0.77795005
-0.011014074 0.046259135 0.77250087
-0.010797201 0.04318884 0.76726496
-0.010588748 0.040237248 0.7622326
-0.010388149 0.037397355 0.75738966
-0.010195051 0.0346632 0.75272787
-0.010009002 0.032028824 0.7482363
-0.0098295808 0.029488742 0.74390459
-0.0096565178 0.027038246 0.73972654
-0.009489405 0.024672478 0.73569208
-0.0093280151 0.022387266 0.73179579
-0.0091719879 0.020178378 0.72802895
-0.0090211285 0.018042266 0.72438687
-0.0088751512 0.015975296 0.72086263
-0.0087337913 0.013974071 0.7174499
-0.0085968934 0.012035668 0.71414495
-0.008464192 0.010157049 0.7109412
-0.008335555 0.0083355606 0.70783567
-0.0082107401 0.0065686107 0.7048223
-0.0080896355 0.0048538148 0.70189863
-0.0079720523 0.0031888187 0.6990599
-0.0078578116 0.0015715957 0.69630194
-0.0077468241 -0 0.69362241
-0.0076389038 -0.0015277863 0.69101703
-0.0075801616 -0.0030320883 0.68959886
-0.0076223188 -0.004573375 0.69061667
-0.0076649482 -0.0061319172 0.69164574
-0.0077080317 -0.0077080429 0.6926859
-0.0077516274 -0.0093019307 0.69373846
-0.0077956934 -0.010913938 0.69480228
-0.0078402897 -0.012544453 0.69587886
-0.0078853723 -0.014193654 0.69696736
-0.0079310033 -0.015861958 0.69806898
-0.0079771392 -0.017549664 0.69918275
-0.0080238413 -0.019257158 0.70031023
-0.0080710938 -0.020984828 0.701451
-0.0081188781 -0.022732824 0.70260459
-0.0081672603 -0.024501771 0.70377266
-0.0082161939 -0.026291817 0.70495397
-0.0082657449 -0.028103501 0.70615029
-0.0083158696 -0.029937118 0.70736039
-0.0083666351 -0.031793207 0.70858598
-0.0084179947 -0.033671916 0.70982587
-0.0084700175 -0.035574049 0.71108186
-0.0085226884 -0.037499815 0.71235353
-0.008575988 -0.039449543 0.71364027
-0.0086299889 -0.041423947 0.71494401
-0.0086846426 -0.043423176 0.71626335
-0.0087400256 -0.045448124 0.71760046
-0.0087960865 -0.047498852 0.71895385
-0.0088529047 -0.049576253 0.72032559
-0.0089104278 -0.051680475 0.72171432
-0.008968737 -0.053812414 0.723122
-0.0090278145 -0.055972457 0.72454834
-0.0090876408 -0.058160871 0.72599262
-0.0091483016 -0.06037879 0.72745711
-0.00920974 -0.062626213 0.72894037
-0.0092720464 -0.064904332 0.73044455
-0.0099749574 0.067331016 0.8076185
-0.009753231 0.063396037 0.80092734
-0.009541099 0.059631884 0.79452568
-0.0093380446 0.056028306 0.78839803
-0.0091434093 0.052574635 0.78252435
-0.008956763 0.049262226 0.77689183
-0.0087775858 0.046082348 0.77148461
-0.0086053964 0.043027014 0.7662884
-0.0084398706 0.040089399 0.76129317
-0.008280593 0.037262678 0.75648659
-0.0081271809 0.034540534 0.75185692
-0.0079793828 0.031917542 0.74739671
-0.0078368327 0.02938813 0.74309492
-0.0076993173 0.026947618 0.73894501
-0.0075665144 0.024591178 0.73493731
-0.0074382448 0.022314757 0.73106647
-0.0073142508 0.020114213 0.7273246
-0.0071942965 0.017985761 0.7237047
-0.0070782392 0.015926063 0.72020233
-0.0069658412 0.013931692 0.71681046
-0.0068569821 0.011999786 0.7135253
-0.0067514493 0.010127187 0.71034056
-0.0066491384 0.0083114207 0.7072531
-0.0065498827 0.0065498948 0.70425773
-0.0064535243 0.0048401654 0.70134991
-0.0063599809 0.003180027 0.69852704
-0.0062690903 0.0015673041 0.69578409
-0.0061807814 -0 0.69311911
-0.006094906 -0.0015237033 0.69052768
-0.0060474249 -0.0030237138 0.68909478
-0.0060809455 -0.0045606792 0.69010627
-0.0061148591 -0.0061148107 0.69112968
-0.0061491337 -0.0076863766 0.69216406
-0.0061838143 -0.0092757046 0.69321066
-0.0062188678 -0.010883003 0.69426852
-0.0062543424 -0.012508661 0.69533908
-0.0062902239 -0.014152974 0.6964218
-0.006326498 -0.015816242 0.69751656
-0.006363214 -0.017498821 0.69862449
-0.0064003374 -0.01920101 0.69974482
-0.0064379186 -0.020923227 0.70087892
-0.0064759208 -0.022665709 0.70202577
-0.0065143979 -0.024428993 0.70318693
-0.0065533114 -0.026213229 0.7043612
-0.0065927161 -0.028019041 0.70555043
-0.0066325739 -0.029846549 0.70675319
-0.0066729402 -0.031696409 0.70797133
-0.0067138011 -0.033568978 0.70920444
-0.0067551406 -0.035464495 0.71045196
-0.0067970175 -0.037383586 0.7117157
-0.0068393918 -0.039326489 0.71299452
-0.006882323 -0.041293949 0.71429002
-0.0069257715 -0.043286055 0.71560121
-0.006969797 -0.045303643 0.71692979
-0.0070143864 -0.047347099 0.71827537
-0.0070595234 -0.049416631 0.71963751
-0.0071052718 -0.051513225 0.72101808
-0.0071515902 -0.053636909 0.72241592
-0.0071985433 -0.055788696 0.72383279
-0.0072460896 -0.057968706 0.72526765
-0.0072942963 -0.060177922 0.72672242
-0.0073431199 -0.062416464 0.72819585
-0.0073926309 -0.064685524 0.72968996
-0.0074488679 0.067039818 0.80631685
-0.0072839921 0.063127935 0.79968274
-0.0071262214 0.05938521 0.79333454
-0.0069751744 0.055801421 0.7872569
-0.0068303975 0.052366406 0.78143156
-0.0066914777 0.049070895 0.77584183
-0.0065581258 0.045906901 0.7704761
-0.0064299563 0.042866379 0.76531899
-0.0063067283 0.039942592 0.76036072
-0.0061881347 0.037128836 0.75558889
-0.006073893 0.034418762 0.75099218
-0.0059638182 0.031807065 0.74656308
-0.0058576618 0.029288352 0.74229163
-0.0057551954 0.026857615 0.73816872
-0.0056562745 0.024510533 0.7341885
-0.0055606747 0.022242725 0.73034185
-0.0054682745 0.020050377 0.72662389
-0.0053788736 0.017929614 0.72302675
-0.0052923695 0.015877157 0.71954608
-0.005208584 0.013889581 0.71617478
-0.005127429 0.011964053 0.7129094
-0.0050487639 0.010097533 0.70974416
-0.0049724588 0.0082874894 0.70667386
-0.0048984424 0.0065312684 0.70369571
-0.0048265811 0.0048266053 0.70080423
-0.0047568139 0.0031712353 0.69799697
-0.0046890192 0.0015630126 0.69526911
-0.0046231449 -0 0.69261855
-0.0045590959 -0.00151968 0.69004142
-0.0045230947 -0.0030153692 0.68859291
-0.004548097 -0.0045481026 0.68959886
-0.0045733913 -0.0060978234 0.69061661
-0.0045989691 -0.0076649189 0.6916458
-0.0046248189 -0.0092496276 0.6926859
-0.0046509765 -0.010852247 0.69373846
-0.0046774163 -0.012473077 0.69480228
-0.0047041741 -0.014112502 0.69587886
-0.0047312239 -0.015770733 0.6969673
-0.004758602 -0.017448187 0.69806892
-0.0047862832 -0.019145131 0.69918275
-0.0048143049 -0.020861983 0.70031023
-0.0048426562 -0.022599012 0.70145094
-0.004871327 -0.024356604 0.70260465
-0.0049003563 -0.026135206 0.70377266
-0.0049297158 -0.027935058 0.70495403
-0.0049594473 -0.029756665 0.70615029
-0.004989522 -0.031600296 0.70736039
-0.0050199809 -0.033466518 0.70858598
-0.0050507965 -0.035355598 0.70982599
-0.0050820108 -0.037268072 0.71108186
-0.0051136133 -0.039204359 0.71235347
-0.0051455926 -0.041164726 0.71364021
-0.0051779938 -0.043149918 0.71494389
-0.0052107857 -0.045160115 0.71626335
-0.0052440153 -0.04719609 0.71760041
-0.0052776523 -0.049258053 0.71895385
-0.0053117424 -0.051346838 0.72032559
-0.0053462568 -0.053462565 0.72171438
-0.0053812424 -0.055606157 0.723122
-0.005416689 -0.057778001 0.72454828
-0.0054525845 -0.059978426 0.72599262
-0.0054889801 -0.062208414 0.72745705
-0.0055258442 -0.064468175 0.72894037
-0.0049445303 0.066751212 0.80502635
-0.0048355469 0.062862128 0.79844868
-0.0047312649 0.059140831 0.79215467
-0.0046313624 0.055576354 0.786125
-0.004535614 0.052159607 0.78034604
-0.0044437232 0.048880965 0.77479994
-0.0043555018 0.045732766 0.76947534
-0.0042707152 0.042707175 0.76435804
-0.0041891481 0.039796919 0.75943506
-0.0041106562 0.036995918 0.75469756
-0.0040350514 0.034297973 0.75013447
-0.003962161 0.031697303 0.74573511
-0.0038918734 0.02918908 0.74149287
-0.0038240205 0.026768118 0.73739767
-0.0037585082 0.024430335 0.73344362
-0.0036951881 0.02217114 0.72962189
-0.0036339804 0.019986928 0.72592771
-0.0035747671 0.017873853 0.72235382
-0.0035174396 0.01582852 0.71889377
-0.0034619344 0.013847768 0.71554375
-0.0034081414 0.011928499 0.71229708
-0.0033560065 0.010068029 0.70915049
-0.003305431 0.0082636178 0.70609796
-0.0032563682 0.0065127611 0.70313674
-0.0032087304 0.0048131049 0.70026153
-0.0031624762 0.0031625032 0.69746989
-0.0031175367 0.0015587807 0.69475752
-0.0030738467 -0 0.69212061
-0.0030313742 -0.0015156567 0.68955719
-0.0030071263 -0.0030071139 0.68809372
-0.0030237124 -0.0045355558 0.68909478
-0.0030404727 -0.0060809255 0.69010627
-0.0030574296 -0.0076435506 0.6911298
-0.0030745668 -0.0092236996 0.69216406
-0.0030919071 -0.01082164 0.69321072
-0.0031094339 -0.012437731 0.69426852
-0.0031271712 -0.014072269 0.69533902
-0.003145112 -0.015725553 0.69642186
-0.003163249 -0.017397881 0.6975165
-0.003181607 -0.019089609 0.69862455
-0.0032001687 -0.020801097 0.69974488
-0.0032189593 -0.022532701 0.70087898
-0.0032379604 -0.024284691 0.70202577
-0.003257199 -0.026057571 0.70318687
-0.0032766557 -0.027851582 0.70436126
-0.003296358 -0.029667199 0.70555037
-0.0033162986 -0.03150481 0.70675385
-0.0033364701 -0.033364683 0.70797133
-0.0033569005 -0.035247415 0.70920444
-0.0033775703 -0.037153274 0.71045196
-0.0033985088 -0.039082795 0.7117157
-0.0034196959 -0.041036338 0.71299452
-0.0034411615 -0.043014497 0.71428996
-0.0034628857 -0.045017481 0.71560121
-0.0034848985 -0.047046095 0.71692979
-0.0035071932 -0.049100697 0.71827537
-0.0035297617 -0.051181525 0.71963751
-0.0035526359 -0.053289533 0.72101808
-0.0035757951 -0.055424809 0.72241586
-0.0035992716 -0.057588279 0.72383279
-0.0036230448 -0.05978021 0.72526765
-0.0036471481 -0.062001497 0.72672242
-0.00367156 -0.064252287 0.72819579
-0.002461679 0.066465348 0.80374849
-0.0024076358 0.062598526 0.79722488
-0.0023559262 0.058898151 0.79098302
-0.0023063798 0.055353105 0.78500223
-0.0022588854 0.051954359 0.7792691
-0.0022133074 0.048692793 0.77376741
-0.0021695225 0.045559943 0.76848215
-0.0021274458 0.042548925 0.76340306
-0.0020869703 0.039652437 0.75851715
-0.0020479972 0.036863983 0.75381267
-0.0020104616 0.03417787 0.7492817
-0.001974269 0.031588316 0.74491286
-0.0019393641 0.029090464 0.74069953
-0.0019056646 0.026679337 0.73663163
-0.0018731236 0.024350613 0.73270357
-0.0018416753 0.022100121 0.72890747
-0.0018112585 0.019923866 0.72523576
-0.0017818369 0.017818391 0.72168434
-0.0017533493 0.015780151 0.71824551
-0.0017257647 0.013806134 0.71491581
-0.0016990283 0.011893213 0.71168846
-0.0016731138 0.010038704 0.70856023
-0.001647972 0.0082398951 0.70552534
-0.0016235803 0.0064943433 0.70258105
-0.0015999002 0.0047996938 0.69972259
-0.0015768956 0.003153801 0.69694579
-0.0015545483 0.0015545487 0.6942482
-0.0015328205 -0 0.69162536
-0.0015116966 -0.0015116632 0.68907547
-0.0014994506 -0.0029989183 0.68759727
-0.0015076983 -0.0045230687 0.68859285
-0.0015160323 -0.0060640872 0.6895988
-0.0015244638 -0.0076223016 0.69061661
-0.0015329896 -0.0091979504 0.6916458
-0.0015416063 -0.010791212 0.6926859
-0.0015503255 -0.012402594 0.6937384
-0.0015591386 -0.014032215 0.69480222
-0.0015680579 -0.015680581 0.69587892
-0.0015770745 -0.017347813 0.6969673
-0.0015862007 -0.019034386 0.69806892
-0.0015954279 -0.020740569 0.69918269
-0.0016047682 -0.022466749 0.70031023
-0.0016142188 -0.024213254 0.701451
-0.0016237756 -0.025980383 0.70260465
-0.0016334519 -0.027768672 0.70377266
-0.0016432386 -0.029578298 0.70495403
-0.0016531491 -0.0314098 0.70615029
-0.0016631739 -0.033263445 0.70736045
-0.0016733269 -0.035139829 0.70858598
-0.0016835988 -0.037039191 0.70982599
-0.0016940036 -0.038962066 0.71108192
-0.0017045378 -0.040908903 0.71235347
-0.0017151976 -0.042879909 0.71364027
-0.0017259979 -0.04487592 0.71494395
-0.0017369286 -0.046897054 0.71626341
-0.0017480052 -0.048944116 0.71760041
-0.0017592172 -0.051017284 0.71895391
-0.0017705809 -0.053117394 0.72032559
-0.0017820855 -0.055244625 0.72171432
-0.0017937474 -0.057399929 0.723122
-0.0018055629 -0.059583575 0.72454828
-0.0018175282 -0.06179595 0.72599262
-0.0018296603 -0.064038098 0.72745711
0 0.06618163 0.80247998
0 0.06233716 0.79601133
0 0.058657497 0.78982091
0 0.055131942 0.78388977
0 0.051750779 0.77820063
0 0.048505813 0.7727415
0 0.04538849 0.76749635
0 0.042391896 0.76245511
0 0.039508849 0.75760484
0 0.036732972 0.7529341
0 0.034058601 0.74843502
0 0.031480074 0.74409634
0 0.028992593 0.73991144
0 0.026591182 0.73587155
0 0.024271429 0.7319684
0 0.022029489 0.72819662
0 0.019861192 0.72454828
0 0.017763257 0.72101891
0 0.01573211 0.71760124
0 0.013764769 0.71429157
0 0.011858165 0.71108413
0 0.010009527 0.70797354
0 0.0082163215 0.70495677
0 0.0064760149 0.70202839
0 0.004786402 0.69918597
0 0.0031451583 0.69642437
0 0.0015504062 0.6937415
0 2.9802322e-08 0.69113272
0 -0.0015076995 0.68859631
0 -0.0029907227 0.68710417
0 -0.0045107007 0.68809366
0 -0.0060473979 0.68909478
0 -0.0076011419 0.69010633
0 -0.0091722608 0.6911298
0 -0.010760963 0.69216406
0 -0.012367606 0.6932106
0 -0.013992429 0.69426847
0 -0.015635818 0.69533896
0 -0.017298043 0.69642121
0 -0.01897946 0.6975165
0 -0.020680398 0.69862449
0 -0.022401154 0.69974482
0 -0.024142176 0.70087898
0 -0.025903672 0.70202577
0 -0.027686149 0.70318687
0 -0.029489875 0.7043612
0 -0.031315356 0.70555037
0 -0.033162832 0.70675319
0 -0.035032928 0.70797133
0 -0.036925912 0.70920444
0 -0.038842022 0.71045196
0 -0.040782094 0.7117157
0 -0.042746156 0.71299446
0 -0.044735104 0.71429008
0 -0.046748936 0.71560121
0 -0.048788548 0.71692979
0 -0.050854266 0.71827537
0 -0.052946389 0.71963751
0 -0.05506584 0.72101814
0 -0.057212681 0.7224158
0 -0.059387952 0.72383285
0 -0.061591774 0.72526765
0 -0.063825101 0.72672248
0 -0.06608808 0.72819585
0.0024407508 0.065900266 0.80122226
0.0023876249 0.062078267 0.79480934
0.0023367507 0.058418781 0.78866833
0.0022880104 0.054912269 0.78278482
0.0022412511 0.051548779 0.77714056
0.002196375 0.048320293 0.77172351
0.0021532606 0.045218498 0.76651913
0.002111797 0.04223597 0.76151401
0.0020719091 0.039366305 0.75669909
0.0020335002 0.036603034 0.7520628
0.0019964809 0.033940166 0.74759412
0.0019607933 0.031372696 0.74328625
0.0019263515 0.028895289 0.73912877
0.0018931064 0.026503474 0.73511577
0.0018609818 0.02419275 0.73123789
0.0018299365 0.021959275 0.72749043
0.0017999031 0.019798964 0.72386509
0.0017708462 0.01770848 0.7203576
0.0017427127 0.015684396 0.71696162
0.0017154528 0.013723642 0.71367103
0.0016890387 0.011823297 0.7104826
0.0016634198 0.0099804997 0.70739013
0.0016385722 0.0081928372 0.70439076
0.0016144505 0.0064578056 0.70147896
0.0015910339 0.0047731102 0.69865233
0.0015682817 0.003136605 0.69590592
0.0015461762 0.0015461743 0.69323754
0.0015246852 -0 0.69064331
0.0015037785 -0.0015037656 0.68811971
0.0014912976 -0.0029825568 0.68661308
0.0014994506 -0.0044983327 0.68759727
0.0015076983 -0.0060307682 0.68859279
0.0015160323 -0.0075801313 0.6895988
0.0015244638 -0.0091467798 0.69061667
0.0015329896 -0.010730922 0.6916458
0.0015416063 -0.012332827 0.6926859
0.0015503255 -0.013952911 0.6937384
0.0015591386 -0.015591383 0.69480228
0.0015680579 -0.017248601 0.69587886
0.0015770745 -0.018924832 0.69696724
0.0015862007 -0.020620584 0.69806886
0.0015954279 -0.022335976 0.69918275
0.0016047682 -0.024071515 0.70031023
0.0016142132 -0.025827408 0.70145035
0.0016237756 -0.027604163 0.70260465
0.0016334519 -0.029402077 0.70377266
0.0016432386 -0.031221539 0.70495403
0.0016531491 -0.033062965 0.70615035
0.0016631739 -0.034926623 0.70736045
0.0016733269 -0.03681317 0.70858598
0.0016835988 -0.038722754 0.70982593
0.0016940036 -0.04065606 0.71108186
0.0017045378 -0.042613417 0.71235341
0.0017151976 -0.044595122 0.71364021
0.0017259979 -0.046601921 0.71494395
0.0017369286 -0.048633993 0.71626341
0.0017480052 -0.050692111 0.71760046
0.0017592172 -0.052776515 0.71895391
0.0017705809 -0.05488798 0.72032559
0.0017820855 -0.057026714 0.72171432
0.0017937474 -0.059193641 0.72312206
0.0018055561 -0.06138891 0.72454751
0.0018175282 -0.063613474 0.72599262
0.0018296603 -0.065867752 0.72745717
0.0048608398 0.065621346 0.79997528
0.0047554751 0.061821193 0.79361588
0.0046545588 0.058182031 0.78752506
0.0045578587 0.054694355 0.78168863
0.0044650948 0.051348597 0.77608985
0.004376011 0.048136145 0.77071321
0.0042904317 0.045049578 0.76554799
0.0042081173 0.042081207 0.76057988
0.0041289194 0.039224744 0.75579995
0.0040526479 0.03647384 0.7511965
0.003979126 0.033822596 0.74675906
0.0039082407 0.031265944 0.74248075
0.0038398211 0.02879867 0.73835129
0.0037737708 0.026416391 0.73436481
0.0037099395 0.024114639 0.7305122
0.0036482459 0.021889508 0.7267887
0.0035885707 0.019737184 0.72318697
0.0035308036 0.017654032 0.71970034
0.0034748791 0.015636951 0.7163251
0.0034206861 0.013682753 0.71305424
0.0033681698 0.011788636 0.70988458
0.0033172297 0.0099517107 0.70681006
0.0032678191 0.0081695616 0.70382786
0.0032198585 0.0064397454 0.70093322
0.0031732749 0.0047599375 0.69812167
0.0031280301 0.0031280518 0.69539088
0.0030840475 0.0015420616 0.69273633
0.0030412944 -0 0.69015586
0.0029997008 -0.0014998317 0.68764549
0.0029745039 -0.0029744804 0.68612474
0.0029907215 -0.0044860542 0.68710357
0.0030071263 -0.0060142279 0.68809372
0.0030237124 -0.0075592697 0.68909478
0.0030404727 -0.0091213882 0.69010633
0.0030574296 -0.010701001 0.6911298
0.0030745668 -0.012298256 0.69216406
0.0030919071 -0.013913572 0.69321066
0.0031094339 -0.015547156 0.69426852
0.0031271712 -0.017199427 0.69533908
0.0031451015 -0.018870592 0.69642121
0.003163249 -0.020561099 0.69751656
0.003181607 -0.022271246 0.69862455
0.0032001687 -0.024001271 0.69974488
0.0032189593 -0.02575165 0.70087898
0.0032379604 -0.027522653 0.70202577
0.003257199 -0.029314786 0.70318693
0.0032766557 -0.031128198 0.7043612
0.003296358 -0.032963604 0.70555043
0.003316287 -0.034821004 0.70675319
0.0033364701 -0.036701143 0.70797139
0.0033569005 -0.038604349 0.70920444
0.0033775703 -0.040530831 0.71045196
0.0033985088 -0.042481333 0.7117157
0.0034196959 -0.044456035 0.71299446
0.0034411615 -0.046455681 0.71429002
0.0034628857 -0.048480392 0.71560121
0.0034848985 -0.050531 0.71692979
0.0035071801 -0.052607715 0.71827459
0.0035297617 -0.054711282 0.71963751
0.0035526359 -0.056842178 0.72101814
0.0035757951 -0.059000611 0.72241586
0.0035992716 -0.061187595 0.72383279
0.0036230448 -0.063403249 0.72526765
0.0036471481 -0.065648615 0.72672236
0.0072605275 0.065344751 0.79873866
0.0071037961 0.061566263 0.79243219
0.0069536883 0.057947427 0.78639233
0.0068097608 0.054478109 0.78060114
0.0066717016 0.051149726 0.77504611
0.0065390989 0.047953397 0.76971054
0.0064116935 0.04488188 0.76458418
0.006289158 0.041927755 0.75965375
