# .PCD v0.7 - Point Cloud Data file format
VERSION 0.7
FIELDS x y z
SIZE 4 4 4
TYPE F F F
COUNT 1 1 1
WIDTH 660
HEIGHT 1
VIEWPOINT 0 0 0 1 0 0 0
POINTS 660
DATA ascii
0.045414861 0.0055048168 0.67272055
0.049919281 0.009706527 0.67398059
0.049919281 0.009706527 0.67398059
0.040314727 0.0055606663 0.6744051
0.046584006 0.01270476 0.67699718
0.055626608 0.019968569 0.67877001
0.045890138 -0 0.67970473
0.027241897 0.0071689487 0.67967057
0.030267697 0.010089248 0.68058014
0.030267697 0.010089248 0.68058014
0.02463194 0.0086936355 0.68149984
0.0317926 0.011560977 0.68103874
0.039121319 0.015938342 0.68149984
0.042019196 0.017387271 0.68149978
0.042019196 0.017387271 0.68149978
0.049394432 0.021791667 0.68196332
0.014569564 0.0043708682 0.68246776
0.015985958 0.0043598115 0.68202263
0.024762763 0.010196418 0.68242872
0.050982159 0.023306161 0.68242872
0.041101824 -0.0014679134 0.68379146
0.035119083 2.9802322e-08 0.6832329
0.035119083 2.9802322e-08 0.6832329
0.05125453 0.024895072 0.68336815
0.039751582 0.020611942 0.68431753
0.04912848 -0.0044662058 0.68630457
0.010417845 0.0089296103 0.68624687
0.025300482 0.016370893 0.68624687
0.05804228 0.032741785 0.68624687
0.05804228 0.032741785 0.68624687
0.046391558 -0.0044894814 0.68724132
0.0074789813 0.0029915869 0.68715614
0.045014378 0.02850911 0.68772143
0.048015334 0.030009598 0.68772137
0.025578152 0.019559801 0.68821853
0.054653432 -0.0075907409 0.68985456
0.040831093 -0.0045367777 0.68914384
0 0.0030311048 0.68953896
0.010590312 0.013616145 0.68922096
0.031770937 0.02420643 0.68922096
0.060683344 0.039444208 0.6897257
0.060683344 0.039444208 0.6897257
0.019843763 -0.0015264153 0.69085556
-0.0045638802 0.0076064765 0.69023395
0.018306321 0.019831866 0.69074494
0.028904576 0.024340719 0.69023395
0.042714749 0.032036096 0.69074488
0.042714749 0.032036096 0.69074488
0.041402001 -0.006133616 0.69169617
0.041402001 -0.006133616 0.69169617
0.0092043877 0.01687476 0.69177556
0.0092043877 0.01687476 0.69177556
0.063157648 -0.010782987 0.69254398
0.030813228 -0.0046219528 0.69257182
0.0138856 -0.0015428066 0.69283533
0.0015383644 0.013845295 0.69229454
0.010858263 -0.0015511513 0.69384158
-0.0030900775 0.0015450716 0.69310021
-0.015514248 0.0077571571 0.69387114
0.0124114 0.021719992 0.69387114
0.047958449 0.038676172 0.69334263
0.052748445 0.041888446 0.69387114
0.052748445 0.041888446 0.69387114
0.0031205013 0.018723011 0.69493651
0.0062410026 0.020283252 0.69493651
0.029770577 -0.006267488 0.69573581
-0.0047142007 2.9802322e-08 0.69628239
0.014163184 0.026752681 0.69655842
0.020457931 0.029900074 0.69655836
0.026752681 0.033047467 0.69655836
0.039342176 0.039342195 0.69655842
0.033197448 -0.0079041123 0.69742072
0.023762463 -0.0063366294 0.69782311
0 -0.001581043 0.6974501
0.039569218 0.041152 0.69765466
0.055590548 -0.012706369 0.69832247
0.038174916 -0.0095437169 0.69860262
-0.026974196 0.0031734407 0.69813132
-0.015873516 0.014286131 0.69820786
-0.015873516 0.014286131 0.69820786
-0.0047758832 0.020695508 0.6987642
-0.0031747031 0.020635575 0.69820786
0.011143728 0.02865532 0.6987642
0.060731027 -0.014383674 0.69951558
0.040031388 0.04483515 0.6998862
0.04643641 0.048037678 0.6998862
0.016063174 -0.0064252615 0.70049727
-0.033693384 0.0032089353 0.70027149
0.041754603 0.046572477 0.70045245
0.054602172 0.052996278 0.70045239
0.054602172 0.052996278 0.70045239
0.048317138 -0.012884557 0.7010107
-0.019384928 0.017769545 0.70159495
0.029077392 0.042000711 0.70159489
0.052010324 -0.014627874 0.70279133
-0.014591219 -0.0016212165 0.70229936
-0.040504619 0.0081009567 0.70217121
-0.040504619 0.0081009567 0.70217121
-0.032499634 0.012999833 0.70275021
0.027543142 0.042124838 0.70217121
0.027543142 0.042124838 0.70217121
0.058716998 -0.016310275 0.70348006
0.0081454953 -0.0065163672 0.70324725
-0.0016326394 -0.0048979521 0.70367461
-0.042306554 0.0032543838 0.70301497
-0.045770828 0.0081733763 0.70392001
-0.027706817 0.016298175 0.70333338
-0.01307738 0.024520099 0.70392001
0.039315235 -0.013105035 0.70433795
-0.047547281 0.0081978142 0.70451015
-0.0016395614 0.031151682 0.70451009
0.060663771 0.062303334 0.70451015
-0.042756468 0.011511385 0.70510381
-0.037936695 0.014844805 0.70570034
-0.0082471082 0.02968961 0.70570034
-0.0082471082 0.02968961 0.70570034
0.046045426 0.055912316 0.70510375
0.049334385 0.057556808 0.70510387
0.062490221 0.064134717 0.70510381
-0.0099370759 -0.004968524 0.70651603
-0.044803988 0.013275266 0.70690572
0.0099263955 0.039705604 0.70630121
0.014934663 0.043144584 0.70690572
0.019852791 0.044668794 0.70630121
0.048259221 -0.01664111 0.70747352
0.021651743 -0.011658609 0.70764339
0.036617793 0.054926723 0.70751387
-0.016755044 -0.0050265193 0.70884889
-0.033464052 -0.001673162 0.70857096
-0.033464052 -0.001673162 0.70857096
-0.061772019 0.0066780746 0.70812577
-0.043539803 0.016746074 0.70874059
-0.0066984314 0.0351668 0.70874059
-0.0066984314 0.0351668 0.70874059
0.0033492157 0.040190607 0.70874065
-0.062142387 0.0033590794 0.70933408
-0.01511765 0.031915069 0.70936
0.057491224 -0.020291001 0.71070945
0.057491224 -0.020291001 0.71070945
0.005066555 -0.010133088 0.71046001
-0.042252395 0.020281166 0.71061015
0.011830672 0.04732269 0.71061021
0.052392971 0.067603856 0.71061021
0 -0.010223269 0.71227407
-0.010235202 0.039234966 0.71251392
0.013646935 0.051175982 0.71251392
0.027464792 0.060079217 0.71380341
0.037763953 0.065228641 0.7138027
-0.069094427 0.013818949 0.71510839
0.019061027 0.058915943 0.7157675
0.019061027 0.058915943 0.7157675
0.036389232 0.067580014 0.7157675
0 0.050411105 0.71643078
0.031432699 -0.019208848 0.71738994
0.031432699 -0.019208848 0.71738994
-0.022672741 -0.0087202489 0.71712387
-0.076973729 0.01399526 0.71776915
-0.06103456 0.020926148 0.71709824
-0.013995223 0.045484483 0.71776915
0.008719191 0.055802852 0.71709746
0.008719191 0.055802852 0.71709746
0.024491642 0.064727932 0.71776915
-0.036935177 -0.0070352554 0.71890569
-0.080614284 0.0017524958 0.7181412
-0.054405101 0.026325077 0.71844518
-0.04387508 0.031590074 0.71844518
-0.04387508 0.031590074 0.71844518
-0.051223055 0.03002736 0.71981031
-0.0052989372 0.052989393 0.71981031
0.017606396 0.063383073 0.71912557
-0.031877026 -0.0088546872 0.72036964
-0.060266364 -0.0035450459 0.7205621
0.049758974 -0.024879485 0.7211132
0.021344539 -0.019565821 0.72130704
-0.065777175 0.024888694 0.7211923
-0.030221943 0.042666286 0.72119236
-0.010701271 0.053506374 0.72189057
0.0088888071 0.062221676 0.7211923
-0.017845487 -0.012491822 0.72201157
-0.046440352 -0.0071446598 0.72220707
-0.059049096 0.03041926 0.72259319
-0.03041923 0.04473418 0.72259319
-0.019683031 0.050102264 0.72259325
0.0071762702 -0.01794067 0.72316068
0.068744302 -0.03075403 0.72497046
0.068744302 -0.03075403 0.72497046
-0.041425698 0.041425735 0.72401166
-0.0018011173 0.061238021 0.7240116
0.0036141085 0.065053999 0.72472829
0.0036141085 0.065053999 0.72472829
0.038145501 -0.025430351 0.72586274
0.029041581 -0.023596257 0.72569942
-0.056245808 -0.0072574914 0.7256127
-0.076331198 -0.0036348104 0.72597826
0.027312821 -0.023671091 0.72639418
-0.083676137 0.023647636 0.7261759
-0.083676137 0.023647636 0.7261759
-0.065485671 0.032742858 0.7261759
-0.0091254767 0.062053263 0.72690606
-0.087897196 0.023805529 0.72764194
-0.058598131 0.038455039 0.72764194
-0.043948598 0.045779824 0.72764194
-0.0055025304 -0.01834175 0.72800231
-0.0055025304 -0.01834175 0.72800231
-0.082679801 0.027559966 0.72838283
-0.075330481 0.031234652 0.72838277
-0.075330481 0.031234652 0.72838277
-0.045933224 0.045933217 0.72838283
-0.005511987 0.06614387 0.72838277
-0.020355688 -0.01665467 0.72997475
-0.068429202 -0.0073977709 0.72984445
-0.049942642 0.046243221 0.72987938
-0.029496118 0.055305243 0.7291286
-0.029496118 0.055305243 0.7291286
-0.018435074 0.060835749 0.72912854
-0.081663229 0.031551749 0.73063445
-0.051967513 0.046399564 0.73063451
0.044650026 -0.029766679 0.73116982
-0.024212694 -0.016762614 0.73142302
-0.035475731 -0.014937162 0.73198175
-0.083972029 -0.005598098 0.73184913
-0.063533589 0.042978644 0.73216176
-0.041109972 0.054190457 0.73216176
-0.039375551 0.056250811 0.73293322
-0.037372701 0.056059062 0.73216176
-0.022423621 0.063533634 0.73216176
-0.030103263 0.062088013 0.7337091
-0.026340354 0.063969463 0.7337091
0.0019054265 -0.024770528 0.7366029
-0.057084072 -0.013319612 0.7362861
-0.068674549 -0.011445731 0.73686844
-0.068674549 -0.011445731 0.73686844
-0.091566801 0.036245197 0.73687029
-0.055129774 0.053228796 0.73607183
0.03835598 -0.032602578 0.73809636
-0.082893603 0.044338465 0.73929858
-0.081251554 0.046429515 0.7401197
-0.07183224 0.052418143 0.74094671
-0.070138924 0.054552525 0.74177861
0.029255429 -0.033156157 0.7420271
-0.056702316 0.062568098 0.74261737
0.035375156 -0.035375178 0.74382865
0.037213076 -0.035254449 0.74301946
-0.078490034 0.052980781 0.7434622
-0.094866768 0.047433406 0.74516904
-0.020139145 -0.028194785 0.74969852
-0.090569802 0.056354582 0.74954736
-0.074468501 0.064405233 0.74954736
-0.0020243621 -0.03238979 0.75095963
-0.022231031 -0.028294057 0.7505542
-0.079074442 0.064881623 0.75134444
-0.08165025 -0.018371284 0.75299901
0.034775112 -0.040911853 0.75352269
-0.028595867 -0.028595835 0.7531566
-0.065899193 -0.022652835 0.7551831
0.028947711 -0.041353822 0.75619024
-0.060203884 -0.02491194 0.75719243
0.03543593 -0.0437738 0.75821495
0.012530843 -0.039680988 0.75869864
0.0020866755 -0.037560135 0.75848156
-0.020906912 -0.033451051 0.75896633
-0.062505864 -0.025002331 0.75810176
0.010480489 -0.039825857 0.759619
-0.077586934 -0.023066372 0.7597211
0.073744491 -0.052674592 0.76093322
0.073744491 -0.052674592 0.76093322
0.052583672 -0.048376948 0.76049393
0.0084150732 -0.03997156 0.76054484
0.0063345134 -0.040118575 0.76147866
0.070044577 -0.053064048 0.76281357
0.078895219 -0.05543986 0.76398933
0.017238889 -0.045252085 0.76671231
-0.017257776 -0.038829982 0.76699728
0.0043220995 -0.043220967 0.76745933
0.03683605 -0.049837023 0.76815665
0.065676048 -0.056919277 0.77085763
0.076690979 -0.059161603 0.77109528
-0.015344671 -0.041649789 0.77120692
-0.050474398 -0.035112619 0.77150184
0.059792068 -0.057577521 0.77391392
0.013289991 -0.048729956 0.77397156
-0.060172457 -0.035657763 0.77561456
-0.084860854 -0.031264514 0.77616626
0.024890333 -0.054306149 0.77973652
-0.036321342 -0.04313156 0.78062093
0.0095094675 -0.059434116 0.79357117
-0.054865476 -0.047709078 0.7945475
0.016797053 -0.062389046 0.79625237
0.016797053 -0.062389046 0.79625237
-0.068209268 -0.048720896 0.80065429
-0.070946306 -0.048928499 0.80190718
0 -0.06426844 0.80497789
-0.0024825516 -0.064546317 0.80626804
-0.0075126169 -0.065109313 0.80888188
-0.05036784 -0.057922989 0.81059432
-0.04147115 -0.064798683 0.81947321
0.055465866 0.012479842 0.67398059
0.051100284 0.0014000535 0.67559624
0.037263595 0.0070310682 0.67634177
0.030833695 0.0028683394 0.67971683
0.040702302 0.012853697 0.67899454
0.05277396 0.0185422 0.67877007
0.03329647 0.0014476776 0.68134713
0.02300063 0.0057501793 0.68012393
0.037189573 0.014973721 0.68150061
0.01762821 0.0029380322 0.68392366
0.013162849 0.0051198453 0.68314159
0.041113447 0.020556748 0.68384159
0.053236958 0.024795771 0.68266296
0.057946287 -0.0059432089 0.6859498
0.04303563 -0.0029679835 0.6857307
0.033169877 0.01769115 0.68455654
0.033169877 0.01769115 0.68455654
0.057064872 0.031126872 0.68551862
0.0090028746 0.010503381 0.68772137
0.015174245 2.9802322e-08 0.68976688
0.00075577333 0.0030270964 0.68929815
0.046771232 0.030931443 0.68871975
0.051297095 0.033192277 0.68871832
-0.0015195421 0.0030391216 0.69002253
0.0030595912 0.013005406 0.69126022
0.010649054 0.015212953 0.69023395
0.022946756 0.022946745 0.69125879
0.055072557 0.039011866 0.69125998
-0.0046411403 0.012376428 0.69334263
0.0093085496 0.020168543 0.69387108
0.012892122 0.021144569 0.69334364
0.035382379 0.030767292 0.69229454
0.053842753 0.039997488 0.69229454
0.037629269 -0.0078393817 0.69585812
0.0093322936 -0.0015553534 0.69434881
-0.020457931 0.0094421506 0.69655842
-0.014244918 0.014244944 0.6976546
-0.0070725828 0.015714347 0.69628656
0.0015827686 0.022158772 0.69765466
0.014927505 0.026714414 0.69628656
0.04321333 0.04085733 0.69628656
0.059267253 0.050575703 0.69737965
0.022239657 -0.006354183 0.69835216
0.0063458895 -0.0031729639 0.69810176
-0.024015497 0.0016010404 0.69985938
-0.031157348 0.0031955391 0.69946373
-0.036615107 0.0047759116 0.69876426
-0.028572328 0.0079367757 0.69820786
-0.025545562 0.011176199 0.69932389
-0.0048037665 0.022417605 0.69988614
0.028572328 0.036509126 0.69820786
0.031308748 0.038739502 0.6987654
0.05079525 0.047620595 0.69820786
0.059297889 -0.014423788 0.70005399
-0.037045285 0.0080533028 0.70102191
-0.016154107 0.019384921 0.70159489
-0.016154107 0.019384921 0.70159489
0.049037118 -0.014711112 0.70390767
0.0032499635 0.030874699 0.70275021
0.0032499635 0.030874699 0.70275021
0.027543142 0.042124838 0.70217121
0.026930789 0.044070587 0.70362663
0.032499634 0.045499504 0.70275021
0.042997256 0.050300106 0.70246065
0.050225731 0.053466141 0.70217115
0.05670647 0.056706518 0.70217115
0.0098934909 -0.0082445741 0.70563924
-0.016502973 -0.0033005774 0.70580602
-0.011453325 -0.0032723546 0.70410305
-0.04294372 0.0016517043 0.70597315
-0.049374934 0.0032916665 0.70526695
-0.03770991 0.013116509 0.70451009
-0.016444795 0.024667203 0.70510381
0.011545951 0.039586127 0.70570034
0.036944233 0.05090265 0.70480692
0.047833227 0.057729751 0.7057004
0.050826404 0.05738467 0.70451009
0.061028596 0.064327449 0.7057004
0.061028596 0.064327449 0.7057004
-0.058999635 0.0066477209 0.70720977
-0.058999635 0.0066477209 0.70720977
0.026631122 0.049933374 0.70751387
0.041485175 0.056419849 0.70690572
0.033649199 -0.015142113 0.70968843
0.02521948 -0.013450384 0.70954829
-0.0016827356 -0.0084136724 0.70972168
-0.06739606 0.0067396462 0.70998317
-0.048415903 0.013356119 0.70812571
-0.023444509 0.026793748 0.70874059
-0.013396863 0.031817555 0.70874059
-0.0033492157 0.036841393 0.70874059
0.038398687 0.056763291 0.708125
0.052829679 0.065409794 0.7090503
0.055197537 -0.020381063 0.71161556
0.013520187 -0.011830151 0.71060145
-0.04244839 -0.0016979277 0.71155649
-0.055625349 0.0016856194 0.71006948
-0.022107478 0.032310963 0.71187514
-0.011830672 0.035492033 0.71061021
-0.0017005752 0.042514414 0.71187514
0.0085028764 0.047616124 0.71187514
0.035492014 0.059153348 0.71061021
0.017062733 -0.013650149 0.71256292
-0.063108645 0.0017056465 0.71248645
-0.041197188 0.025748253 0.71380341
-0.020598594 0.036047578 0.71380335
-0.013646935 0.037529111 0.71251392
-0.008555958 0.041068614 0.71315664
-0.0068234676 0.040940821 0.71251392
-0.003433099 0.044630319 0.71380341
0.013646935 0.051175982 0.71251392
0.03752907 0.063117087 0.71251392
0.046615563 -0.020718008 0.7150048
-0.027716693 -0.0069291294 0.71570385
-0.064105429 2.9802322e-08 0.71573836
-0.074043199 0.010331631 0.71445346
-0.067155704 0.013775527 0.71445423
-0.062184982 0.017273635 0.71510845
-0.062184982 0.017273635 0.71510845
-0.053717434 0.022526681 0.7157675
-0.022385154 0.036160648 0.71445352
0.03292359 0.065847218 0.7157675
0.0052275406 -0.013940126 0.71693754
-0.076641485 0.0017418563 0.71685767
-0.076729797 0.013081744 0.71709996
-0.06103456 0.020926148 0.71709824
-0.047083806 0.02790153 0.71709824
-0.038486864 0.033238679 0.71776921
-0.0087192236 0.047083825 0.71709824
-0.0034988057 0.050732702 0.71776915
-0.0034988057 0.050732702 0.71776915
0.010496418 0.057730287 0.71776921
0.017383151 0.059102714 0.71643072
0.017494028 0.06122914 0.71776921
0.01918222 0.061034352 0.7170974
-0.056373235 -0.0035232902 0.71924913
-0.082485154 0.012285054 0.71844518
-0.072418801 0.019429445 0.71981031
-0.05791511 0.024570078 0.71844518
-0.021127677 0.044016004 0.71912557
0.039189033 -0.02315715 0.72162181
0.019626627 -0.019626588 0.72197425
-0.031877026 -0.0088546872 0.72036964
-0.040702011 -0.0070785582 0.72021347
-0.070880868 0.021264285 0.72049952
-0.065777175 0.024888694 0.7211923
0.012444329 0.063999444 0.72119236
0.01417612 0.063792557 0.72049868
0.0071762702 -0.01794067 0.72316068
-0.084100232 0.017893672 0.72259319
-0.05744724 0.032314092 0.72330052
-0.055470362 0.032208622 0.72259319
-0.016104298 0.051891655 0.72259325
0.02343069 -0.02162832 0.72416174
-0.014421416 -0.014421374 0.72419989
-0.048951827 0.039886713 0.72544968
-0.025298761 0.050597548 0.72472823
-0.0090055875 0.057635814 0.72401166
-0.0072282171 0.059632808 0.72472835
-0.0018011173 0.061238021 0.7240116
-0.05493575 0.040286243 0.72764194
-0.047295205 0.04183805 0.7261759
-0.016425857 0.058403045 0.72690606
-0.014552372 0.058209509 0.7261759
0.042210475 -0.027528524 0.72813034
-0.066366002 -0.0073739588 0.72912771
-0.077617466 -0.0055440962 0.72967511
-0.082679801 0.027559966 0.72838283
-0.082679801 0.027559966 0.72838283
-0.056957196 0.040421247 0.72838277
-0.042543735 0.049942672 0.72987938
-0.012948042 0.064740211 0.72987854
-0.0018373289 0.067981184 0.72838277
-0.035475731 -0.014937162 0.73198175
-0.052031066 -0.011149496 0.73090845
-0.052031066 -0.011149496 0.73090845
0.030922314 -0.028112575 0.73283017
-0.073126025 0.039375544 0.73293322
-0.056059051 0.046715915 0.73216176
-0.0489178 0.052680731 0.73370916
-0.041109972 0.054190457 0.73216176
0.073981114 -0.037939012 0.73557985
0.066123098 -0.035895407 0.73464799
0.045420539 -0.032172859 0.73504525
0.0037982638 -0.024688721 0.73584306
-0.060622633 0.049255908 0.73527879
-0.028318997 0.064189762 0.73449123
-0.028318997 0.064189762 0.73449123
-0.059343148 0.053600281 0.7376734
-0.038152833 0.062952191 0.73687023
-0.04610407 0.061472118 0.73848313
0.0097362185 -0.02920866 0.7416507
-0.021440884 -0.023390025 0.74188334
-0.081828743 0.048707634 0.74177861
-0.065775067 0.054167688 0.7401197
-0.050298586 0.06190598 0.7401197
0.027398132 -0.033269167 0.7428295
-0.047184933 -0.019660354 0.74391943
-0.076489985 -0.013728976 0.74334526
-0.093670718 -0.0097573698 0.74216121
0.00098700658 -0.029661253 0.74529302
0.0039345003 -0.02950874 0.7440657
-0.071149483 -0.015810966 0.74516702
-0.090913981 0.049409807 0.74516904
-0.071150072 0.05929175 0.74516904
-0.067953549 -0.017987698 0.74785405
-0.071666814 0.061713099 0.74690175
-0.030183762 -0.026159227 0.74949771
-0.030183762 -0.026159227 0.74949771
-0.05241539 -0.022175699 0.74994749
-0.087184638 0.06082651 0.75134444
0.055324215 -0.045078993 0.75393921
-0.079663366 0.067407459 0.75316727
0.020585245 -0.039111942 0.75508344
-0.024796158 -0.03099519 0.75602764
0.010480489 -0.039825857 0.759619
0.0020866755 -0.037560135 0.75848156
-0.018747959 -0.033329666 0.7580508
-0.043988977 -0.029325932 0.75945187
-0.043988977 -0.029325932 0.75945187
-0.062505864 -0.025002331 0.75810176
0.073744491 -0.052674592 0.76093322
-0.0042193518 -0.037974119 0.76125795
-0.031941742 -0.034071207 0.76364481
-0.087248854 -0.023408204 0.76347238
0.077049047 -0.055646509 0.76494873
0.044826914 -0.049096137 0.7642684
-0.055474177 -0.029870689 0.76414847
0.069524311 -0.056488514 0.76885778
0.069524311 -0.056488514 0.76885778
0.026501847 -0.050795197 0.77318549
-0.074765362 -0.030785739 0.7720381
-0.033232141 -0.039878547 0.7740292
-0.062643908 -0.035796493 0.77666146
0.027046505 -0.054093003 0.77866441
0.070407435 -0.063593805 0.78075653
0.070407435 -0.063593805 0.78075653
-0.050092962 -0.040985167 0.78145015
0.052815001 -0.062000185 0.78378606
0.0045936354 -0.052826792 0.78384799
0.0045936354 -0.052826792 0.78384799
-0.080500133 -0.036800027 0.78423262
0.032639459 -0.060616136 0.78802127
0.016437398 -0.058704942 0.79005027
-0.047121815 -0.047121823 0.79100293
-0.075870395 -0.042677075 0.79279655
0.0047944109 -0.059930086 0.79596585
0.0047944109 -0.059930086 0.79596585
-0.017048275 -0.058451235 0.80058455
-0.064218752 -0.051869005 0.80474722
-0.069758438 -0.052318841 0.80733293
-0.027882256 -0.063368738 0.81256902
-0.043236636 -0.061039925 0.81360483
-0.071380004 -0.056084245 0.8143236
0.034247883 0.0094216978 0.67886227
0.057943922 -0.0059432192 0.6859504
0.014140487 0.0022278428 0.6862843
0.037511978 0.024757951 0.68772137
0.037511978 0.024757951 0.68772137
0.025850542 -0.0022872016 0.69019282
0.0062849782 0.013529781 0.69055653
0.062124781 -0.01080478 0.69291979
-0.006419973 0.010270963 0.69255632
0.014842421 0.024999648 0.69520527
0.026484653 0.029994167 0.69467092
0.046054713 0.037932083 0.69347686
0.045209303 -0.010579323 0.69807458
0.045209303 -0.010579323 0.69807458
0.018262198 -0.0055641308 0.69829977
-0.021575674 0.0023697987 0.69774127
-0.021750838 0.010283031 0.69751966
-0.024018833 0.012810051 0.6998862
-0.002385657 0.021462873 0.6984877
-0.002385657 0.021462873 0.6984877
0.018033035 0.030220201 0.69754899
-0.013671775 0.019299686 0.70073724
0.029724047 0.042329241 0.70159817
0.046076227 0.053416491 0.70348001
0.050154641 -0.016581111 0.70674956
0.0098903794 -0.0082446039 0.70564008
-0.030384509 -0.001664713 0.70754743
-0.062323488 0.0049857944 0.70720977
-0.062323488 0.0049857944 0.70720977
-0.038485155 0.013996139 0.7053293
-0.018884465 0.022988319 0.70480692
-0.005818001 0.033238545 0.70720983
-0.005818001 0.033238545 0.70720983
0.021314299 0.042628646 0.70451015
0.050687484 0.061491296 0.70720977
0.054033741 0.062114075 0.70653069
-0.022416502 -0.00507465 0.7107861
-0.028909778 0.028909802 0.71187514
0.066264503 -0.024096608 0.71436346
-0.0060274601 -0.010330543 0.71443278
-0.042191483 -0.0034440756 0.71446717
-0.073530212 0.012110665 0.71543801
-0.054124322 0.021306098 0.71510983
0.018425306 0.057580918 0.71510983
0.057747837 -0.024500579 0.71784633
0.035272326 -0.021163374 0.71948487
0.018461546 -0.017583698 0.71885163
0.018461546 -0.017583698 0.71885163
-0.034141503 -0.0070030689 0.71793514
-0.062205303 0.021905601 0.71810955
-0.046584159 0.030765027 0.71878749
-0.038242932 0.031289697 0.71643072
0.0053119217 -0.015935719 0.7203328
-0.058281079 -0.005379647 0.72305846
-0.082943782 1.4901161e-08 0.72191012
-0.034290936 0.042149097 0.72217339
-0.01787426 0.050644409 0.72235906
-0.01344366 0.053768799 0.72294641
0.053920314 -0.029245675 0.72723937
-0.046229742 -0.0090643615 0.72543097
-0.076910049 0.02929908 0.72764194
-0.076910049 0.02929908 0.72764194
-0.066259138 0.030119788 0.7247299
-0.033460364 0.049888432 0.72690797
-0.0064313747 -0.01837115 0.72835708
-0.07385689 -0.0061602099 0.72949994
-0.067981161 0.034909278 0.72838271
-0.069290623 0.03774076 0.73063648
0.066430755 -0.038511485 0.73903513
-0.037420869 -0.01824075 0.73828566
-0.050717719 -0.015310526 0.73761559
-0.074060537 -0.011541665 0.73879766
-0.089815788 -0.0076438785 0.7372725
-0.06994734 0.047057699 0.7368719
-0.074090347 0.048109561 0.73889089
-0.048193954 0.061688274 0.73929858
0.026463129 -0.03332606 0.74323344
0.0068485513 -0.029358059 0.74285316
-0.073175028 -0.013659015 0.7421391
-0.065387122 0.057581671 0.74220097
0.065310657 -0.044211462 0.7491793
0.077162102 -0.046097875 0.74853265
-0.021185089 -0.028244421 0.75012636
-0.045639526 -0.024340108 0.75144029
-0.038067911 -0.024042875 0.7484504
-0.086013973 0.060714439 0.75089353
-0.086013973 0.060714439 0.75089353
0.042193905 -0.043224871 0.75505984
0.013295881 -0.036824375 0.75354755
0.013295881 -0.036824375 0.75354755
0.072354712 -0.049614608 0.75613999
-0.057918485 -0.024822176 0.75628966
0.04678759 -0.048914254 0.76331401
0.030499758 -0.04417482 0.76052022
0.037114426 -0.046660602 0.76261723
-0.013677898 -0.035767913 0.76057225
0.073314756 -0.056064188 0.7668879
-0.010665896 -0.038397193 0.76409507
-0.081540421 -0.025749594 0.76561862
0.0056110839 -0.049396843 0.77763063
-0.062643908 -0.035796493 0.77666146
-0.018339869 -0.048142135 0.78332478
-0.0057274736 -0.050381646 0.78303421
-0.029774264 -0.045806557 0.7830646
0.022079978 -0.058111399 0.78718424
0.039156668 -0.059886634 0.78463441
-0.021912212 -0.048432365 0.78499317
0.02255794 -0.061744243 0.79325867
-0.013613468 -0.061867237 0.80531919
-0.033245277 -0.063933194 0.8152945
