# .PCD v0.7 - Point Cloud Data file format
VERSION 0.7
FIELDS x y z
SIZE 4 4 4
TYPE F F F
COUNT 1 1 1
WIDTH 1349
HEIGHT 1
VIEWPOINT 0 0 0 1 0 0 0
POINTS 1349
DATA ascii
0.054492492 0.076289505 0.76971054
0.054156266 0.073652565 0.76808715
0.053823914 0.071047574 0.76648247
0.053495862 0.06847474 0.76489842
0.053171545 0.065932751 0.76333249
0.052851137 0.063421369 0.76178539
0.0525348 0.060940415 0.76025802
0.052221999 0.058488667 0.75874764
0.051913124 0.056066185 0.75725633
0.051607661 0.053671956 0.75578141
0.051305994 0.051306009 0.75432479
0.051007614 0.048967332 0.75288403
0.050712679 0.046655685 0.75146008
0.050421353 0.0443708 0.75005341
0.050133143 0.042111844 0.74866182
0.049848415 0.039878756 0.74728703
0.049566705 0.037670702 0.74592674
0.049288355 0.035487622 0.74458277
0.049012922 0.033328831 0.74325287
0.048740543 0.031193942 0.7419377
0.048471376 0.029082865 0.74063802
0.04820497 0.026994795 0.73935175
0.047941662 0.024929672 0.73808044
0.047681034 0.022886872 0.73682195
0.047423217 0.020866215 0.73557717
0.047168363 0.018867373 0.73434657
0.046916053 0.016889811 0.73312831
0.046666604 0.014933348 0.73192382
0.046419617 0.012997508 0.73073131
0.046175405 0.011082113 0.72955215
0.045933578 0.0091867447 0.72838449
0.045694266 0.0073111057 0.727229
0.045457609 0.0054549277 0.72608632
0.045223225 0.0036178827 0.72495461
0.044991411 0.0017996728 0.72383529
0.044761792 2.9802322e-08 0.72272658
0.044534668 -0.0017813742 0.72162992
0.044309679 -0.0035447478 0.72054362
0.044086948 -0.0052903891 0.71946824
0.043866608 -0.0070186257 0.71840429
0.043648303 -0.0087296367 0.71735018
0.043432314 -0.01042375 0.71630734
0.0432183 -0.012101084 0.71527398
0.043006532 -0.013762057 0.71425152
0.042796679 -0.015406787 0.71323824
0.042588864 -0.017035514 0.7122348
0.042383213 -0.018648624 0.71124184
0.042179383 -0.020246089 0.71025765
0.041977655 -0.021828383 0.70928359
0.0417777 -0.023395479 0.70831811
0.041579641 -0.024947762 0.70736182
0.041383594 -0.026485473 0.70641524
0.041189246 -0.02800867 0.70547682
0.040996857 -0.02951771 0.70454794
0.040806115 -0.031012595 0.70362687
0.04061728 -0.0324938 0.70271516
0.040430047 -0.033961207 0.70181113
0.040244531 -0.035415143 0.70091534
0.040232878 -0.037014246 0.70085907
0.041038871 -0.039397299 0.70475072
0.04187781 -0.041877806 0.70880151
0.04275177 -0.044461787 0.71302134
0.04366298 -0.047156006 0.71742105
0.044613883 -0.049967527 0.72201246
0.045607124 -0.052904248 0.72680831
0.046645787 -0.055974931 0.73182333
0.047732662 -0.059188515 0.73707128
0.048871398 -0.062555373 0.74256957
0.050065793 -0.066086829 0.74833661
0.051320031 -0.069795251 0.75439262
0.052638728 -0.073694199 0.76075983
0.056672193 0.076289505 0.76971054
0.056322515 0.073652565 0.76808715
0.055976868 0.071047574 0.76648247
0.055635698 0.06847474 0.76489842
0.055298407 0.065932751 0.76333249
0.054965179 0.063421369 0.76178539
0.054636195 0.060940415 0.76025802
0.054310877 0.058488667 0.75874764
0.053989653 0.056066185 0.75725633
0.053671967 0.053671956 0.75578141
0.053358231 0.051306009 0.75432479
0.053047914 0.048967332 0.75288403
0.052741185 0.046655685 0.75146008
0.052438207 0.0443708 0.75005341
0.052138466 0.042111844 0.74866182
0.051842358 0.039878756 0.74728703
0.051549371 0.037670702 0.74592674
0.051259894 0.035487622 0.74458277
0.050973434 0.033328831 0.74325287
0.050690163 0.031193942 0.7419377
0.05041023 0.029082865 0.74063802
0.050133161 0.026994795 0.73935175
0.049859334 0.024929672 0.73808044
0.04958827 0.022886872 0.73682195
0.049320146 0.020866215 0.73557717
0.049055099 0.018867373 0.73434657
0.04879269 0.016889811 0.73312831
0.048533272 0.014933348 0.73192382
0.048276398 0.012997508 0.73073131
0.048022427 0.011082113 0.72955215
0.047770921 0.0091867447 0.72838449
0.047522038 0.0073111057 0.727229
0.047275919 0.0054549277 0.72608632
0.047032155 0.0036178827 0.72495461
0.046791065 0.0017996728 0.72383529
0.046552259 2.9802322e-08 0.72272658
0.046316061 -0.0017813742 0.72162992
0.046082068 -0.0035447478 0.72054362
0.045850426 -0.0052903891 0.71946824
0.045621276 -0.0070186257 0.71840429
0.045394234 -0.0087296367 0.71735018
0.045169607 -0.01042375 0.71630734
0.044947028 -0.012101084 0.71527398
0.044726793 -0.013762057 0.71425152
0.044508547 -0.015406787 0.71323824
0.04429242 -0.017035514 0.7122348
0.044078544 -0.018648624 0.71124184
0.04386656 -0.020246089 0.71025765
0.043656759 -0.021828383 0.70928359
0.04344881 -0.023395479 0.70831811
0.043242823 -0.024947762 0.70736182
0.043038938 -0.026485473 0.70641524
0.042836815 -0.02800867 0.70547682
0.042636734 -0.02951771 0.70454794
0.042438362 -0.031012595 0.70362687
0.042241972 -0.0324938 0.70271516
0.042047247 -0.033961207 0.70181113
0.041854311 -0.035415143 0.70091534
0.041842196 -0.037014246 0.70085907
0.042680424 -0.039397299 0.70475072
0.043552924 -0.041877806 0.70880151
0.044461839 -0.044461787 0.71302134
0.045409501 -0.047156006 0.71742105
0.046398439 -0.049967527 0.72201246
0.047431413 -0.052904248 0.72680831
0.048511617 -0.055974931 0.73182333
0.049641971 -0.059188515 0.73707128
0.050826255 -0.062555373 0.74256957
0.052068423 -0.066086829 0.74833661
0.053372834 -0.069795251 0.75439262
0.054744281 -0.073694199 0.76075983
0.05885189 0.076289505 0.76971054
0.058488764 0.073652565 0.76808715
0.058129828 0.071047574 0.76648247
0.057775531 0.06847474 0.76489842
0.057425272 0.065932751 0.76333249
0.057079226 0.063421369 0.76178539
0.056737583 0.060940415 0.76025802
0.056399755 0.058488667 0.75874764
0.056066174 0.056066185 0.75725633
0.055736277 0.053671956 0.75578141
0.055410471 0.051306009 0.75432479
0.055088218 0.048967332 0.75288403
0.054769695 0.046655685 0.75146008
0.054455061 0.0443708 0.75005341
0.05414379 0.042111844 0.74866182
0.053836294 0.039878756 0.74728703
0.053532042 0.037670702 0.74592674
0.053231426 0.035487622 0.74458277
0.052933954 0.033328831 0.74325287
0.052639786 0.031193942 0.7419377
0.052349083 0.029082865 0.74063802
0.05206136 0.026994795 0.73935175
0.051777001 0.024929672 0.73808044
0.051495515 0.022886872 0.73682195
0.051217079 0.020866215 0.73557717
0.050941836 0.018867373 0.73434657
0.050669335 0.016889811 0.73312831
0.050399933 0.014933348 0.73192382
0.050133187 0.012997508 0.73073131
0.04986944 0.011082113 0.72955215
0.049608264 0.0091867447 0.72838449
0.049349807 0.0073111057 0.727229
0.049094222 0.0054549277 0.72608632
0.048841082 0.0036178827 0.72495461
0.048590723 0.0017996728 0.72383529
0.048342735 2.9802322e-08 0.72272658
0.048097443 -0.0017813742 0.72162992
0.047854457 -0.0035447478 0.72054362
0.047613908 -0.0052903891 0.71946824
0.04737594 -0.0070186257 0.71840429
0.047140166 -0.0087296367 0.71735018
0.046906896 -0.01042375 0.71630734
0.04667576 -0.012101084 0.71527398
0.046447057 -0.013762057 0.71425152
0.046220418 -0.015406787 0.71323824
0.045995977 -0.017035514 0.7122348
0.045773868 -0.018648624 0.71124184
0.045553733 -0.020246089 0.71025765
0.04533587 -0.021828383 0.70928359
0.045119915 -0.023395479 0.70831811
0.044906013 -0.024947762 0.70736182
0.044694282 -0.026485473 0.70641524
0.044484384 -0.02800867 0.70547682
0.044276606 -0.02951771 0.70454794
0.044070601 -0.031012595 0.70362687
0.04386666 -0.0324938 0.70271516
0.043664452 -0.033961207 0.70181113
0.043464091 -0.035415143 0.70091534
0.04345151 -0.037014246 0.70085907
0.044321977 -0.039397299 0.70475072
0.045228038 -0.041877806 0.70880151
0.046171911 -0.044461787 0.71302134
0.047156021 -0.047156006 0.71742105
0.048182994 -0.049967527 0.72201246
0.049255699 -0.052904248 0.72680831
0.050377451 -0.055974931 0.73182333
0.051551279 -0.059188515 0.73707128
0.052781109 -0.062555373 0.74256957
0.054071058 -0.066086829 0.74833661
0.055425636 -0.069795251 0.75439262
0.05684983 -0.073694199 0.76075983
0.061031591 0.076289505 0.76971054
0.060655016 0.073652565 0.76808715
0.060282782 0.071047574 0.76648247
0.059915364 0.06847474 0.76489842
0.059552133 0.065932751 0.76333249
0.059193276 0.063421369 0.76178539
0.058838978 0.060940415 0.76025802
0.058488637 0.058488667 0.75874764
0.058142703 0.056066185 0.75725633
0.05780058 0.053671956 0.75578141
0.057462711 0.051306009 0.75432479
0.057128523 0.048967332 0.75288403
0.056798197 0.046655685 0.75146008
0.056471918 0.0443708 0.75005341
0.056149121 0.042111844 0.74866182
0.055830229 0.039878756 0.74728703
0.055514708 0.037670702 0.74592674
0.055202961 0.035487622 0.74458277
0.05489447 0.033328831 0.74325287
0.054589406 0.031193942 0.7419377
0.05428794 0.029082865 0.74063802
0.053989559 0.026994795 0.73935175
0.053694665 0.024929672 0.73808044
0.053402755 0.022886872 0.73682195
0.053114008 0.020866215 0.73557717
0.052828573 0.018867373 0.73434657
0.052545976 0.016889811 0.73312831
0.052266598 0.014933348 0.73192382
0.051989973 0.012997508 0.73073131
0.051716458 0.011082113 0.72955215
0.051445607 0.0091867447 0.72838449
0.05117758 0.0073111057 0.727229
0.050912526 0.0054549277 0.72608632
0.050650012 0.0036178827 0.72495461
0.050390378 0.0017996728 0.72383529
0.050133202 2.9802322e-08 0.72272658
0.049878836 -0.0017813742 0.72162992
0.049626842 -0.0035447478 0.72054362
0.049377382 -0.0052903891 0.71946824
0.049130604 -0.0070186257 0.71840429
0.048886102 -0.0087296367 0.71735018
0.048644189 -0.01042375 0.71630734
0.048404492 -0.012101084 0.71527398
0.048167314 -0.013762057 0.71425152
0.047932278 -0.015406787 0.71323824
0.04769953 -0.017035514 0.7122348
0.047469195 -0.018648624 0.71124184
0.047240909 -0.020246089 0.71025765
0.047014974 -0.021828383 0.70928359
0.046791025 -0.023395479 0.70831811
0.046569198 -0.024947762 0.70736182
0.04634963 -0.026485473 0.70641524
0.046131957 -0.02800867 0.70547682
0.045916479 -0.02951771 0.70454794
0.045702849 -0.031012595 0.70362687
0.045491353 -0.0324938 0.70271516
0.045281649 -0.033961207 0.70181113
0.045073871 -0.035415143 0.70091534
0.045060825 -0.037014246 0.70085907
0.045963533 -0.039397299 0.70475072
0.046903148 -0.041877806 0.70880151
0.047881979 -0.044461787 0.71302134
0.048902541 -0.047156006 0.71742105
0.049967553 -0.049967527 0.72201246
0.051079981 -0.052904248 0.72680831
0.052243281 -0.055974931 0.73182333
0.053460583 -0.059188515 0.73707128
0.054735966 -0.062555373 0.74256957
0.056073688 -0.066086829 0.74833661
0.057478435 -0.069795251 0.75439262
0.058955379 -0.073694199 0.76075983
0.063211292 0.076289505 0.76971054
0.062821262 0.073652565 0.76808715
0.062435742 0.071047574 0.76648247
0.0620552 0.06847474 0.76489842
0.061678991 0.065932751 0.76333249
0.061307319 0.063421369 0.76178539
0.06094037 0.060940415 0.76025802
0.060577516 0.058488667 0.75874764
0.060219225 0.056066185 0.75725633
0.059864886 0.053671956 0.75578141
0.059514951 0.051306009 0.75432479
0.059168831 0.048967332 0.75288403
0.058826707 0.046655685 0.75146008
0.058488768 0.0443708 0.75005341
0.058154445 0.042111844 0.74866182
0.057824165 0.039878756 0.74728703
0.057497375 0.037670702 0.74592674
0.057174493 0.035487622 0.74458277
0.056854986 0.033328831 0.74325287
0.056539033 0.031193942 0.7419377
0.056226794 0.029082865 0.74063802
0.055917758 0.026994795 0.73935175
0.055612333 0.024929672 0.73808044
0.05531 0.022886872 0.73682195
0.055010937 0.020866215 0.73557717
0.054715306 0.018867373 0.73434657
0.054422621 0.016889811 0.73312831
0.054133262 0.014933348 0.73192382
0.053846754 0.012997508 0.73073131
0.053563472 0.011082113 0.72955215
0.05328295 0.0091867447 0.72838449
0.053005353 0.0073111057 0.727229
0.052730829 0.0054549277 0.72608632
0.052458938 0.0036178827 0.72495461
0.052190032 0.0017996728 0.72383529
0.051923677 2.9802322e-08 0.72272658
0.051660221 -0.0017813742 0.72162992
0.051399231 -0.0035447478 0.72054362
0.051140863 -0.0052903891 0.71946824
0.050885268 -0.0070186257 0.71840429
0.05063203 -0.0087296367 0.71735018
0.050381485 -0.01042375 0.71630734
0.050133225 -0.012101084 0.71527398
0.049887579 -0.013762057 0.71425152
0.04964415 -0.015406787 0.71323824
0.049403086 -0.017035514 0.7122348
0.049164522 -0.018648624 0.71124184
0.048928086 -0.020246089 0.71025765
0.048694078 -0.021828383 0.70928359
0.048462134 -0.023395479 0.70831811
0.048232384 -0.024947762 0.70736182
0.048004974 -0.026485473 0.70641524
0.047779527 -0.02800867 0.70547682
0.047556352 -0.02951771 0.70454794
0.047335096 -0.031012595 0.70362687
0.047116045 -0.0324938 0.70271516
0.046898853 -0.033961207 0.70181113
0.04668365 -0.035415143 0.70091534
0.046670139 -0.037014246 0.70085907
0.047605086 -0.039397299 0.70475072
0.048578262 -0.041877806 0.70880151
0.049592052 -0.044461787 0.71302134
0.050649058 -0.047156006 0.71742105
0.051752105 -0.049967527 0.72201246
0.052904267 -0.052904248 0.72680831
0.054109111 -0.055974931 0.73182333
0.055369891 -0.059188515 0.73707128
0.05669082 -0.062555373 0.74256957
0.058076322 -0.066086829 0.74833661
0.059531238 -0.069795251 0.75439262
0.061060924 -0.073694199 0.76075983
0.065390989 0.076289505 0.76971054
0.06498751 0.073652565 0.76808715
0.064588696 0.071047574 0.76648247
0.064195029 0.06847474 0.76489842
0.063805856 0.065932751 0.76333249
0.063421361 0.063421369 0.76178539
0.063041762 0.060940415 0.76025802
0.062666394 0.058488667 0.75874764
0.062295754 0.056066185 0.75725633
0.061929192 0.053671956 0.75578141
0.061567191 0.051306009 0.75432479
0.061209131 0.048967332 0.75288403
0.060855214 0.046655685 0.75146008
0.060505625 0.0443708 0.75005341
0.060159773 0.042111844 0.74866182
0.059818104 0.039878756 0.74728703
0.059480041 0.037670702 0.74592674
0.059146032 0.035487622 0.74458277
0.058815505 0.033328831 0.74325287
0.058488652 0.031193942 0.7419377
0.058165647 0.029082865 0.74063802
0.057845958 0.026994795 0.73935175
0.057529997 0.024929672 0.73808044
0.05721724 0.022886872 0.73682195
0.056907859 0.020866215 0.73557717
0.056602038 0.018867373 0.73434657
0.056299258 0.016889811 0.73312831
0.055999927 0.014933348 0.73192382
0.055703543 0.012997508 0.73073131
0.055410493 0.011082113 0.72955215
0.055120293 0.0091867447 0.72838449
0.054833122 0.0073111057 0.727229
0.054549135 0.0054549277 0.72608632
0.054267868 0.0036178827 0.72495461
0.053989694 0.0017996728 0.72383529
0.053714145 2.9802322e-08 0.72272658
0.053441606 -0.0017813742 0.72162992
0.053171616 -0.0035447478 0.72054362
0.052904338 -0.0052903891 0.71946824
0.052639935 -0.0070186257 0.71840429
0.052377962 -0.0087296367 0.71735018
0.052118778 -0.01042375 0.71630734
0.051861953 -0.012101084 0.71527398
0.05160784 -0.013762057 0.71425152
0.051356018 -0.015406787 0.71323824
0.051106639 -0.017035514 0.7122348
0.050859857 -0.018648624 0.71124184
0.050615262 -0.020246089 0.71025765
0.050373189 -0.021828383 0.70928359
0.050133239 -0.023395479 0.70831811
0.04989557 -0.024947762 0.70736182
0.049660318 -0.026485473 0.70641524
0.049427096 -0.02800867 0.70547682
0.049196228 -0.02951771 0.70454794
0.048967339 -0.031012595 0.70362687
0.048740733 -0.0324938 0.70271516
0.048516054 -0.033961207 0.70181113
0.048293434 -0.035415143 0.70091534
0.048279453 -0.037014246 0.70085907
0.049246646 -0.039397299 0.70475072
0.050253373 -0.041877806 0.70880151
0.05130212 -0.044461787 0.71302134
0.052395575 -0.047156006 0.71742105
0.053536661 -0.049967527 0.72201246
0.054728549 -0.052904248 0.72680831
0.055974945 -0.055974931 0.73182333
0.057279196 -0.059188515 0.73707128
0.058645681 -0.062555373 0.74256957
0.060078952 -0.066086829 0.74833661
0.061584041 -0.069795251 0.75439262
0.063166477 -0.073694199 0.76075983
0.067570686 0.076289505 0.76971054
0.067153767 0.073652565 0.76808715
0.066741653 0.071047574 0.76648247
0.066334873 0.06847474 0.76489842
0.065932713 0.065932751 0.76333249
0.065535411 0.063421369 0.76178539
0.065143153 0.060940415 0.76025802
0.064755276 0.058488667 0.75874764
0.064372279 0.056066185 0.75725633
0.063993499 0.053671956 0.75578141
0.063619427 0.051306009 0.75432479
0.063249439 0.048967332 0.75288403
0.06288372 0.046655685 0.75146008
0.062522478 0.0443708 0.75005341
0.062165096 0.042111844 0.74866182
0.061812039 0.039878756 0.74728703
0.061462712 0.037670702 0.74592674
0.061117563 0.035487622 0.74458277
0.060776021 0.033328831 0.74325287
0.060438272 0.031193942 0.7419377
0.060104501 0.029082865 0.74063802
0.059774157 0.026994795 0.73935175
0.059447665 0.024929672 0.73808044
0.059124477 0.022886872 0.73682195
0.058804788 0.020866215 0.73557717
0.058488771 0.018867373 0.73434657
0.058175903 0.016889811 0.73312831
0.057866588 0.014933348 0.73192382
0.057560325 0.012997508 0.73073131
0.057257507 0.011082113 0.72955215
0.056957636 0.0091867447 0.72838449
0.056660894 0.0073111057 0.727229
0.056367438 0.0054549277 0.72608632
0.056076795 0.0036178827 0.72495461
0.055789348 0.0017996728 0.72383529
0.05550462 2.9802322e-08 0.72272658
0.055222996 -0.0017813742 0.72162992
0.054944005 -0.0035447478 0.72054362
0.054667819 -0.0052903891 0.71946824
0.054394599 -0.0070186257 0.71840429
0.054123897 -0.0087296367 0.71735018
0.053856071 -0.01042375 0.71630734
0.053590689 -0.012101084 0.71527398
0.053328101 -0.013762057 0.71425152
0.053067882 -0.015406787 0.71323824
0.052810196 -0.017035514 0.7122348
0.052555185 -0.018648624 0.71124184
0.052302435 -0.020246089 0.71025765
0.052052293 -0.021828383 0.70928359
0.051804349 -0.023395479 0.70831811
0.051558755 -0.024947762 0.70736182
0.051315658 -0.026485473 0.70641524
0.051074665 -0.02800867 0.70547682
0.050836105 -0.02951771 0.70454794
0.050599586 -0.031012595 0.70362687
0.050365426 -0.0324938 0.70271516
0.050133258 -0.033961207 0.70181113
0.049903214 -0.035415143 0.70091534
0.049888771 -0.037014246 0.70085907
0.050888196 -0.039397299 0.70475072
0.051928487 -0.041877806 0.70880151
0.053012192 -0.044461787 0.71302134
0.054142099 -0.047156006 0.71742105
0.055321217 -0.049967527 0.72201246
0.056552839 -0.052904248 0.72680831
0.057840776 -0.055974931 0.73182333
0.059188504 -0.059188515 0.73707128
0.06060053 -0.062555373 0.74256957
0.062081587 -0.066086829 0.74833661
0.063636839 -0.069795251 0.75439262
0.065272026 -0.073694199 0.76075983
0.069750383 0.076289505 0.76971054
0.069320016 0.073652565 0.76808715
0.06889461 0.071047574 0.76648247
0.068474703 0.06847474 0.76489842
0.068059579 0.065932751 0.76333249
0.067649454 0.063421369 0.76178539
0.067244545 0.060940415 0.76025802
0.066844158 0.058488667 0.75874764
0.0664488 0.056066185 0.75725633
0.066057801 0.053671956 0.75578141
0.065671667 0.051306009 0.75432479
0.065289736 0.048967332 0.75288403
0.06491223 0.046655685 0.75146008
0.064539328 0.0443708 0.75005341
0.06417042 0.042111844 0.74866182
0.063805975 0.039878756 0.74728703
0.063445382 0.037670702 0.74592674
0.063089103 0.035487622 0.74458277
0.062736541 0.033328831 0.74325287
0.062387895 0.031193942 0.7419377
0.062043361 0.029082865 0.74063802
0.061702356 0.026994795 0.73935175
0.061365329 0.024929672 0.73808044
0.061031722 0.022886872 0.73682195
0.060701717 0.020866215 0.73557717
0.060375508 0.018867373 0.73434657
0.060052544 0.016889811 0.73312831
0.059733257 0.014933348 0.73192382
0.05941711 0.012997508 0.73073131
0.059104521 0.011082113 0.72955215
0.058794979 0.0091867447 0.72838449
0.05848866 0.0073111057 0.727229
0.058185741 0.0054549277 0.72608632
0.057885725 0.0036178827 0.72495461
0.057589006 0.0017996728 0.72383529
0.057295095 2.9802322e-08 0.72272658
0.057004381 -0.0017813742 0.72162992
0.05671639 -0.0035447478 0.72054362
0.056431293 -0.0052903891 0.71946824
0.056149263 -0.0070186257 0.71840429
0.055869825 -0.0087296367 0.71735018
0.055593364 -0.01042375 0.71630734
0.055319417 -0.012101084 0.71527398
0.055048361 -0.013762057 0.71425152
0.054779749 -0.015406787 0.71323824
0.054513749 -0.017035514 0.7122348
0.054250509 -0.018648624 0.71124184
0.053989612 -0.020246089 0.71025765
0.053731397 -0.021828383 0.70928359
0.053475458 -0.023395479 0.70831811
0.053221941 -0.024947762 0.70736182
0.052971002 -0.026485473 0.70641524
0.052722238 -0.02800867 0.70547682
0.052475974 -0.02951771 0.70454794
0.052231826 -0.031012595 0.70362687
0.051990118 -0.0324938 0.70271516
0.051750459 -0.033961207 0.70181113
0.051513001 -0.035415143 0.70091534
0.051498085 -0.037014246 0.70085907
0.052529749 -0.039397299 0.70475072
0.053603597 -0.041877806 0.70880151
0.054722264 -0.044461787 0.71302134
0.055888619 -0.047156006 0.71742105
0.057105772 -0.049967527 0.72201246
0.058377121 -0.052904248 0.72680831
0.059706602 -0.055974931 0.73182333
0.061097808 -0.059188515 0.73707128
0.062555388 -0.062555373 0.74256957
0.064084217 -0.066086829 0.74833661
0.065689646 -0.069795251 0.75439262
0.067377575 -0.073694199 0.76075983
0.071930088 0.076289505 0.76971054
0.071486272 0.073652565 0.76808715
0.071047567 0.071047574 0.76648247
0.070614539 0.06847474 0.76489842
0.070186436 0.065932751 0.76333249
0.069763504 0.063421369 0.76178539
0.069345936 0.060940415 0.76025802
0.06893304 0.058488667 0.75874764
0.068525329 0.056066185 0.75725633
0.068122111 0.053671956 0.75578141
0.067723908 0.051306009 0.75432479
0.067330047 0.048967332 0.75288403
0.066940732 0.046655685 0.75146008
0.066556185 0.0443708 0.75005341
0.066175751 0.042111844 0.74866182
0.065799914 0.039878756 0.74728703
0.065428048 0.037670702 0.74592674
0.06506063 0.035487622 0.74458277
0.06469705 0.033328831 0.74325287
0.064337514 0.031193942 0.7419377
0.063982211 0.029082865 0.74063802
0.063630559 0.026994795 0.73935175
0.063283004 0.024929672 0.73808044
0.062938958 0.022886872 0.73682195
0.062598646 0.020866215 0.73557717
0.062262245 0.018867373 0.73434657
0.061929189 0.016889811 0.73312831
0.061599918 0.014933348 0.73192382
0.061273895 0.012997508 0.73073131
0.060951538 0.011082113 0.72955215
0.060632322 0.0091867447 0.72838449
0.060316432 0.0073111057 0.727229
0.060004052 0.0054549277 0.72608632
0.059694655 0.0036178827 0.72495461
0.05938866 0.0017996728 0.72383529
0.059085563 2.9802322e-08 0.72272658
0.058785766 -0.0017813742 0.72162992
0.058488779 -0.0035447478 0.72054362
0.058194775 -0.0052903891 0.71946824
0.057903927 -0.0070186257 0.71840429
0.057615757 -0.0087296367 0.71735018
0.057330657 -0.01042375 0.71630734
0.057048153 -0.012101084 0.71527398
0.056768626 -0.013762057 0.71425152
0.056491621 -0.015406787 0.71323824
0.056217305 -0.017035514 0.7122348
0.055945836 -0.018648624 0.71124184
0.055676788 -0.020246089 0.71025765
0.055410508 -0.021828383 0.70928359
0.055146564 -0.023395479 0.70831811
0.054885127 -0.024947762 0.70736182
0.054626346 -0.026485473 0.70641524
0.054369804 -0.02800867 0.70547682
0.05411585 -0.02951771 0.70454794
0.053864069 -0.031012595 0.70362687
0.05361481 -0.0324938 0.70271516
0.053367659 -0.033961207 0.70181113
0.053122781 -0.035415143 0.70091534
0.053107399 -0.037014246 0.70085907
0.054171309 -0.039397299 0.70475072
0.055278711 -0.041877806 0.70880151
0.056432333 -0.044461787 0.71302134
0.057635136 -0.047156006 0.71742105
0.058890324 -0.049967527 0.72201246
0.060201406 -0.052904248 0.72680831
0.061572433 -0.055974931 0.73182333
0.063007116 -0.059188515 0.73707128
0.064510241 -0.062555373 0.74256957
0.066086851 -0.066086829 0.74833661
0.067742445 -0.069795251 0.75439262
0.069483124 -0.073694199 0.76075983
0.074109785 0.076289505 0.76971054
0.073652521 0.073652565 0.76808715
0.073200524 0.071047574 0.76648247
0.072754376 0.06847474 0.76489842
0.072313301 0.065932751 0.76333249
0.071877547 0.063421369 0.76178539
0.071447328 0.060940415 0.76025802
0.071021922 0.058488667 0.75874764
0.070601851 0.056066185 0.75725633
0.070186421 0.053671956 0.75578141
0.069776148 0.051306009 0.75432479
0.069370352 0.048967332 0.75288403
0.068969242 0.046655685 0.75146008
0.068573043 0.0443708 0.75005341
0.068181075 0.042111844 0.74866182
0.067793854 0.039878756 0.74728703
0.067410715 0.037670702 0.74592674
0.067032166 0.035487622 0.74458277
0.066657566 0.033328831 0.74325287
0.066287138 0.031193942 0.7419377
0.065921068 0.029082865 0.74063802
0.065558754 0.026994795 0.73935175
0.065200664 0.024929672 0.73808044
0.064846203 0.022886872 0.73682195
0.064495578 0.020866215 0.73557717
0.064148977 0.018867373 0.73434657
0.063805826 0.016889811 0.73312831
0.063466579 0.014933348 0.73192382
0.063130677 0.012997508 0.73073131
0.06279856 0.011082113 0.72955215
0.062469669 0.0091867447 0.72838449
0.062144201 0.0073111057 0.727229
0.061822355 0.0054549277 0.72608632
0.061503582 0.0036178827 0.72495461
0.061188314 0.0017996728 0.72383529
0.060876038 2.9802322e-08 0.72272658
0.060567155 -0.0017813742 0.72162992
0.060261164 -0.0035447478 0.72054362
0.059958249 -0.0052903891 0.71946824
0.059658587 -0.0070186257 0.71840429
0.059361693 -0.0087296367 0.71735018
0.059067946 -0.01042375 0.71630734
0.058776882 -0.012101084 0.71527398
0.058488883 -0.013762057 0.71425152
0.058203485 -0.015406787 0.71323824
0.057920858 -0.017035514 0.7122348
0.057641171 -0.018648624 0.71124184
0.057363961 -0.020246089 0.71025765
0.057089612 -0.021828383 0.70928359
0.056817673 -0.023395479 0.70831811
0.056548312 -0.024947762 0.70736182
0.05628169 -0.026485473 0.70641524
0.056017376 -0.02800867 0.70547682
0.055755727 -0.02951771 0.70454794
0.055496316 -0.031012595 0.70362687
0.055239502 -0.0324938 0.70271516
0.054984864 -0.033961207 0.70181113
0.054732561 -0.035415143 0.70091534
0.054716714 -0.037014246 0.70085907
0.055812858 -0.039397299 0.70475072
0.056953821 -0.041877806 0.70880151
0.058142405 -0.044461787 0.71302134
0.059381653 -0.047156006 0.71742105
0.06067488 -0.049967527 0.72201246
0.062025692 -0.052904248 0.72680831
0.063438267 -0.055974931 0.73182333
0.064916424 -0.059188515 0.73707128
0.066465102 -0.062555373 0.74256957
0.068089478 -0.066086829 0.74833661
0.069795243 -0.069795251 0.75439262
0.071588673 -0.073694199 0.76075983
0.076289482 0.076289505 0.76971054
0.07581877 0.073652565 0.76808715
0.075353481 0.071047574 0.76648247
0.074894205 0.06847474 0.76489842
0.074440166 0.065932751 0.76333249
0.073991589 0.063421369 0.76178539
0.073548719 0.060940415 0.76025802
0.073110797 0.058488667 0.75874764
0.07267838 0.056066185 0.75725633
0.072250724 0.053671956 0.75578141
0.071828388 0.051306009 0.75432479
0.071410656 0.048967332 0.75288403
0.070997745 0.046655685 0.75146008
0.070589893 0.0443708 0.75005341
0.070186399 0.042111844 0.74866182
0.069787785 0.039878756 0.74728703
0.069393381 0.037670702 0.74592674
0.069003701 0.035487622 0.74458277
0.068618089 0.033328831 0.74325287
0.068236761 0.031193942 0.7419377
0.067859925 0.029082865 0.74063802
0.067486957 0.026994795 0.73935175
0.067118332 0.024929672 0.73808044
0.066753447 0.022886872 0.73682195
0.066392504 0.020866215 0.73557717
0.06603571 0.018867373 0.73434657
0.065682471 0.016889811 0.73312831
0.065333247 0.014933348 0.73192382
0.064987466 0.012997508 0.73073131
0.064645573 0.011082113 0.72955215
0.064307012 0.0091867447 0.72838449
0.063971974 0.0073111057 0.727229
0.063640654 0.0054549277 0.72608632
0.063312516 0.0036178827 0.72495461
0.062987976 0.0017996728 0.72383529
0.062666506 2.9802322e-08 0.72272658
0.062348541 -0.0017813742 0.72162992
0.062033553 -0.0035447478 0.72054362
0.061721731 -0.0052903891 0.71946824
0.061413251 -0.0070186257 0.71840429
0.061107621 -0.0087296367 0.71735018
0.060805239 -0.01042375 0.71630734
0.060505614 -0.012101084 0.71527398
0.060209148 -0.013762057 0.71425152
0.059915353 -0.015406787 0.71323824
0.059624411 -0.017035514 0.7122348
0.059336498 -0.018648624 0.71124184
0.059051137 -0.020246089 0.71025765
0.058768716 -0.021828383 0.70928359
0.058488782 -0.023395479 0.70831811
0.058211498 -0.024947762 0.70736182
0.057937033 -0.026485473 0.70641524
0.057664946 -0.02800867 0.70547682
0.0573956 -0.02951771 0.70454794
0.057128564 -0.031012595 0.70362687
0.056864191 -0.0324938 0.70271516
0.056602061 -0.033961207 0.70181113
0.056342345 -0.035415143 0.70091534
0.056326032 -0.037014246 0.70085907
0.057454418 -0.039397299 0.70475072
0.058628935 -0.041877806 0.70880151
0.059852473 -0.044461787 0.71302134
0.061128173 -0.047156006 0.71742105
0.062459439 -0.049967527 0.72201246
0.063849978 -0.052904248 0.72680831
0.065304101 -0.055974931 0.73182333
0.066825725 -0.059188515 0.73707128
0.068419956 -0.062555373 0.74256957
0.070092112 -0.066086829 0.74833661
0.071848042 -0.069795251 0.75439262
0.073694222 -0.073694199 0.76075983
0.078469187 0.076289505 0.76971054
0.077985018 0.073652565 0.76808715
0.077506438 0.071047574 0.76648247
0.077034041 0.06847474 0.76489842
0.076567024 0.065932751 0.76333249
0.076105639 0.063421369 0.76178539
0.075650111 0.060940415 0.76025802
0.075199679 0.058488667 0.75874764
0.074754901 0.056066185 0.75725633
0.074315026 0.053671956 0.75578141
0.073880628 0.051306009 0.75432479
0.073450953 0.048967332 0.75288403
0.073026255 0.046655685 0.75146008
0.07260675 0.0443708 0.75005341
0.072191723 0.042111844 0.74866182
0.071781725 0.039878756 0.74728703
0.071376048 0.037670702 0.74592674
0.070975237 0.035487622 0.74458277
0.070578605 0.033328831 0.74325287
0.070186377 0.031193942 0.7419377
0.069798782 0.029082865 0.74063802
0.069415152 0.026994795 0.73935175
0.069035999 0.024929672 0.73808044
0.068660684 0.022886872 0.73682195
0.068289436 0.020866215 0.73557717
0.067922443 0.018867373 0.73434657
0.067559116 0.016889811 0.73312831
0.067199908 0.014933348 0.73192382
0.066844247 0.012997508 0.73073131
0.066492587 0.011082113 0.72955215
0.066144355 0.0091867447 0.72838449
0.06579975 0.0073111057 0.727229
0.065458961 0.0054549277 0.72608632
0.065121435 0.0036178827 0.72495461
0.064787626 0.0017996728 0.72383529
0.064456977 2.9802322e-08 0.72272658
0.064129926 -0.0017813742 0.72162992
0.063805938 -0.0035447478 0.72054362
0.063485205 -0.0052903891 0.71946824
0.063167915 -0.0070186257 0.71840429
0.062853552 -0.0087296367 0.71735018
0.062542535 -0.01042375 0.71630734
0.06223435 -0.012101084 0.71527398
0.061929408 -0.013762057 0.71425152
0.06162722 -0.015406787 0.71323824
0.061327964 -0.017035514 0.7122348
0.061031826 -0.018648624 0.71124184
0.060738314 -0.020246089 0.71025765
0.060447827 -0.021828383 0.70928359
0.060159888 -0.023395479 0.70831811
0.059874684 -0.024947762 0.70736182
0.059592381 -0.026485473 0.70641524
0.059312519 -0.02800867 0.70547682
0.059035473 -0.02951771 0.70454794
0.058760807 -0.031012595 0.70362687
0.058488883 -0.0324938 0.70271516
0.058219265 -0.033961207 0.70181113
0.057952125 -0.035415143 0.70091534
0.057935346 -0.037014246 0.70085907
0.059095971 -0.039397299 0.70475072
0.060304046 -0.041877806 0.70880151
0.061562546 -0.044461787 0.71302134
0.062874697 -0.047156006 0.71742105
0.064243995 -0.049967527 0.72201246
0.06567426 -0.052904248 0.72680831
0.067169927 -0.055974931 0.73182333
0.068735033 -0.059188515 0.73707128
0.070374817 -0.062555373 0.74256957
0.072094746 -0.066086829 0.74833661
0.073900849 -0.069795251 0.75439262
0.075799771 -0.073694199 0.76075983
0.080648884 0.076289505 0.76971054
0.080151267 0.073652565 0.76808715
0.079659395 0.071047574 0.76648247
0.079173878 0.06847474 0.76489842
0.078693882 0.065932751 0.76333249
0.078219682 0.063421369 0.76178539
0.077751502 0.060940415 0.76025802
0.077288561 0.058488667 0.75874764
0.07683143 0.056066185 0.75725633
0.076379336 0.053671956 0.75578141
0.075932868 0.051306009 0.75432479
0.075491264 0.048967332 0.75288403
0.075054765 0.046655685 0.75146008
0.074623607 0.0443708 0.75005341
0.074197046 0.042111844 0.74866182
0.073775664 0.039878756 0.74728703
0.073358715 0.037670702 0.74592674
0.072946772 0.035487622 0.74458277
0.072539121 0.033328831 0.74325287
0.072136007 0.031193942 0.7419377
0.071737632 0.029082865 0.74063802
0.071343355 0.026994795 0.73935175
0.070953667 0.024929672 0.73808044
0.070567928 0.022886872 0.73682195
0.070186362 0.020866215 0.73557717
0.069809183 0.018867373 0.73434657
0.06943576 0.016889811 0.73312831
0.069066577 0.014933348 0.73192382
0.068701036 0.012997508 0.73073131
0.068339609 0.011082113 0.72955215
0.067981698 0.0091867447 0.72838449
0.067627512 0.0073111057 0.727229
0.067277268 0.0054549277 0.72608632
0.066930369 0.0036178827 0.72495461
0.066587292 0.0017996728 0.72383529
0.066247448 2.9802322e-08 0.72272658
0.065911315 -0.0017813742 0.72162992
0.065578327 -0.0035447478 0.72054362
0.065248683 -0.0052903891 0.71946824
0.064922579 -0.0070186257 0.71840429
0.064599492 -0.0087296367 0.71735018
0.064279824 -0.01042375 0.71630734
0.063963078 -0.012101084 0.71527398
0.063649669 -0.013762057 0.71425152
0.063339084 -0.015406787 0.71323824
0.063031517 -0.017035514 0.7122348
0.062727153 -0.018648624 0.71124184
0.062425487 -0.020246089 0.71025765
0.062126931 -0.021828383 0.70928359
0.061830997 -0.023395479 0.70831811
0.061537869 -0.024947762 0.70736182
0.061247725 -0.026485473 0.70641524
0.060960084 -0.02800867 0.70547682
0.060675349 -0.02951771 0.70454794
0.060393054 -0.031012595 0.70362687
0.060113575 -0.0324938 0.70271516
0.05983647 -0.033961207 0.70181113
0.059561905 -0.035415143 0.70091534
0.059544664 -0.037014246 0.70085907
0.060737528 -0.039397299 0.70475072
0.06197916 -0.041877806 0.70880151
0.063272618 -0.044461787 0.71302134
0.06462121 -0.047156006 0.71742105
0.066028543 -0.049967527 0.72201246
0.067498542 -0.052904248 0.72680831
0.069035761 -0.055974931 0.73182333
0.070644341 -0.059188515 0.73707128
0.07232967 -0.062555373 0.74256957
0.074097373 -0.066086829 0.74833661
0.075953647 -0.069795251 0.75439262
0.07790532 -0.073694199 0.76075983
0.082828581 0.076289505 0.76971054
0.082317524 0.073652565 0.76808715
0.081812352 0.071047574 0.76648247
0.081313714 0.06847474 0.76489842
0.080820747 0.065932751 0.76333249
0.080333732 0.063421369 0.76178539
0.079852901 0.060940415 0.76025802
0.079377435 0.058488667 0.75874764
0.078907952 0.056066185 0.75725633
0.078443646 0.053671956 0.75578141
0.077985108 0.051306009 0.75432479
0.077531569 0.048967332 0.75288403
0.077083275 0.046655685 0.75146008
0.076640457 0.0443708 0.75005341
0.076202378 0.042111844 0.74866182
0.075769596 0.039878756 0.74728703
0.075341389 0.037670702 0.74592674
0.074918307 0.035487622 0.74458277
0.074499637 0.033328831 0.74325287
0.074085623 0.031193942 0.7419377
0.073676489 0.029082865 0.74063802
0.07327155 0.026994795 0.73935175
0.072871327 0.024929672 0.73808044
0.072475165 0.022886872 0.73682195
0.072083294 0.020866215 0.73557717
0.071695916 0.018867373 0.73434657
0.071312398 0.016889811 0.73312831
0.070933245 0.014933348 0.73192382
0.070557818 0.012997508 0.73073131
0.070186622 0.011082113 0.72955215
0.069819041 0.0091867447 0.72838449
0.069455288 0.0073111057 0.727229
0.069095567 0.0054549277 0.72608632
0.068739302 0.0036178827 0.72495461
0.068386942 0.0017996728 0.72383529
0.068037927 2.9802322e-08 0.72272658
0.067692697 -0.0017813742 0.72162992
0.067350715 -0.0035447478 0.72054362
0.067012161 -0.0052903891 0.71946824
0.06667725 -0.0070186257 0.71840429
0.066345416 -0.0087296367 0.71735018
0.066017114 -0.01042375 0.71630734
0.065691806 -0.012101084 0.71527398
0.065369926 -0.013762057 0.71425152
0.065050952 -0.015406787 0.71323824
0.064735077 -0.017035514 0.7122348
0.064422481 -0.018648624 0.71124184
0.064112663 -0.020246089 0.71025765
0.063806035 -0.021828383 0.70928359
0.063502111 -0.023395479 0.70831811
0.063201055 -0.024947762 0.70736182
0.062903069 -0.026485473 0.70641524
0.062607653 -0.02800867 0.70547682
0.062315222 -0.02951771 0.70454794
0.062025294 -0.031012595 0.70362687
0.061738268 -0.0324938 0.70271516
0.061453667 -0.033961207 0.70181113
0.061171688 -0.035415143 0.70091534
0.061153978 -0.037014246 0.70085907
0.062379081 -0.039397299 0.70475072
0.063654274 -0.041877806 0.70880151
0.06498269 -0.044461787 0.71302134
0.06636773 -0.047156006 0.71742105
0.067813106 -0.049967527 0.72201246
0.069322832 -0.052904248 0.72680831
0.070901595 -0.055974931 0.73182333
0.07255365 -0.059188515 0.73707128
0.074284524 -0.062555373 0.74256957
0.076100007 -0.066086829 0.74833661
0.078006454 -0.069795251 0.75439262
0.080010869 -0.073694199 0.76075983
0.083453543 0.06847474 0.76489842
0.082947612 0.065932751 0.76333249
0.082447775 0.063421369 0.76178539
0.081954286 0.060940415 0.76025802
0.081466317 0.058488667 0.75874764
0.080984481 0.056066185 0.75725633
0.080507956 0.053671956 0.75578141
0.080037348 0.051306009 0.75432479
0.079571873 0.048967332 0.75288403
0.079111777 0.046655685 0.75146008
0.078657307 0.0443708 0.75005341
0.078207701 0.042111844 0.74866182
0.077763535 0.039878756 0.74728703
0.077324055 0.037670702 0.74592674
0.076889835 0.035487622 0.74458277
0.07646016 0.033328831 0.74325287
0.076035246 0.031193942 0.7419377
0.075615346 0.029082865 0.74063802
0.075199746 0.026994795 0.73935175
0.074788995 0.024929672 0.73808044
0.074382409 0.022886872 0.73682195
0.07398022 0.020866215 0.73557717
0.073582649 0.018867373 0.73434657
0.073189043 0.016889811 0.73312831
0.072799906 0.014933348 0.73192382
0.072414599 0.012997508 0.73073131
0.072033636 0.011082113 0.72955215
0.071656384 0.0091867447 0.72838449
0.071283057 0.0073111057 0.727229
0.070913874 0.0054549277 0.72608632
0.070548229 0.0036178827 0.72495461
0.0701866 0.0017996728 0.72383529
0.069828391 2.9802322e-08 0.72272658
0.069474086 -0.0017813742 0.72162992
0.069123097 -0.0035447478 0.72054362
0.068775639 -0.0052903891 0.71946824
0.068431914 -0.0070186257 0.71840429
0.068091348 -0.0087296367 0.71735018
0.06775441 -0.01042375 0.71630734
0.067420542 -0.012101084 0.71527398
0.067090191 -0.013762057 0.71425152
0.06676282 -0.015406787 0.71323824
0.06643863 -0.017035514 0.7122348
0.066117808 -0.018648624 0.71124184
0.06579984 -0.020246089 0.71025765
0.065485142 -0.021828383 0.70928359
0.065173209 -0.023395479 0.70831811
0.064864241 -0.024947762 0.70736182
0.064558409 -0.026485473 0.70641524
0.06425523 -0.02800867 0.70547682
0.063955098 -0.02951771 0.70454794
0.063657537 -0.031012595 0.70362687
0.063362956 -0.0324938 0.70271516
0.063070871 -0.033961207 0.70181113
0.062781468 -0.035415143 0.70091534
0.062763296 -0.037014246 0.70085907
0.064020634 -0.039397299 0.70475072
0.06532938 -0.041877806 0.70880151
0.066692762 -0.044461787 0.71302134
0.068114251 -0.047156006 0.71742105
0.069597661 -0.049967527 0.72201246
0.071147114 -0.052904248 0.72680831
0.072767422 -0.055974931 0.73182333
0.07446295 -0.059188515 0.73707128
0.076239377 -0.062555373 0.74256957
0.078102633 -0.066086829 0.74833661
0.080059253 -0.069795251 0.75439262
0.082116418 -0.073694199 0.76075983
0.083555199 0.058488667 0.75874764
0.083061002 0.056066185 0.75725633
0.082572259 0.053671956 0.75578141
0.082089588 0.051306009 0.75432479
0.081612177 0.048967332 0.75288403
0.081140287 0.046655685 0.75146008
0.080674164 0.0443708 0.75005341
0.080213025 0.042111844 0.74866182
0.079757467 0.039878756 0.74728703
0.079306729 0.037670702 0.74592674
0.078861378 0.035487622 0.74458277
0.078420669 0.033328831 0.74325287
0.077984869 0.031193942 0.7419377
0.077554196 0.029082865 0.74063802
0.077127948 0.026994795 0.73935175
0.076706663 0.024929672 0.73808044
0.076289654 0.022886872 0.73682195
0.075877152 0.020866215 0.73557717
0.075469382 0.018867373 0.73434657
0.07506568 0.016889811 0.73312831
0.074666567 0.014933348 0.73192382
0.074271388 0.012997508 0.73073131
0.07388065 0.011082113 0.72955215
0.073493727 0.0091867447 0.72838449
0.073110826 0.0073111057 0.727229
0.07273218 0.0054549277 0.72608632
0.072357155 0.0036178827 0.72495461
0.071986258 0.0017996728 0.72383529
0.07161887 2.9802322e-08 0.72272658
0.071255475 -0.0017813742 0.72162992
0.070895486 -0.0035447478 0.72054362
0.070539124 -0.0052903891 0.71946824
0.070186578 -0.0070186257 0.71840429
0.069837287 -0.0087296367 0.71735018
0.069491707 -0.01042375 0.71630734
0.069149271 -0.012101084 0.71527398
0.068810456 -0.013762057 0.71425152
0.068474688 -0.015406787 0.71323824
0.068142183 -0.017035514 0.7122348
0.067813136 -0.018648624 0.71124184
0.067487016 -0.020246089 0.71025765
0.06716425 -0.021828383 0.70928359
0.066844322 -0.023395479 0.70831811
0.066527426 -0.024947762 0.70736182
0.066213749 -0.026485473 0.70641524
0.065902792 -0.02800867 0.70547682
0.065594971 -0.02951771 0.70454794
0.065289788 -0.031012595 0.70362687
0.064987652 -0.0324938 0.70271516
0.064688072 -0.033961207 0.70181113
0.064391248 -0.035415143 0.70091534
0.064372607 -0.037014246 0.70085907
0.06566219 -0.039397299 0.70475072
0.067004494 -0.041877806 0.70880151
0.068402834 -0.044461787 0.71302134
0.069860771 -0.047156006 0.71742105
0.071382217 -0.049967527 0.72201246
0.072971404 -0.052904248 0.72680831
0.074633256 -0.055974931 0.73182333
0.076372258 -0.059188515 0.73707128
0.078194238 -0.062555373 0.74256957
0.080105267 -0.066086829 0.74833661
0.082112052 -0.069795251 0.75439262
0.083652481 0.048967332 0.75288403
0.08316879 0.046655685 0.75146008
0.082691014 0.0443708 0.75005341
0.082218349 0.042111844 0.74866182
0.081751406 0.039878756 0.74728703
0.081289396 0.037670702 0.74592674
0.080832906 0.035487622 0.74458277
0.080381185 0.033328831 0.74325287
0.079934485 0.031193942 0.7419377
0.079493053 0.029082865 0.74063802
0.079056144 0.026994795 0.73935175
0.07862433 0.024929672 0.73808044
0.078196891 0.022886872 0.73682195
0.077774078 0.020866215 0.73557717
0.077356115 0.018867373 0.73434657
0.076942325 0.016889811 0.73312831
0.076533236 0.014933348 0.73192382
0.07612817 0.012997508 0.73073131
0.075727671 0.011082113 0.72955215
0.07533107 0.0091867447 0.72838449
0.074938595 0.0073111057 0.727229
0.074550487 0.0054549277 0.72608632
0.074166082 0.0036178827 0.72495461
0.073785909 0.0017996728 0.72383529
0.073409334 2.9802322e-08 0.72272658
0.073036857 -0.0017813742 0.72162992
0.072667874 -0.0035447478 0.72054362
0.072302595 -0.0052903891 0.71946824
0.071941242 -0.0070186257 0.71840429
0.071583211 -0.0087296367 0.71735018
0.071228996 -0.01042375 0.71630734
0.070878007 -0.012101084 0.71527398
0.07053072 -0.013762057 0.71425152
0.070186555 -0.015406787 0.71323824
0.069845743 -0.017035514 0.7122348
0.069508463 -0.018648624 0.71124184
0.069174193 -0.020246089 0.71025765
0.068843357 -0.021828383 0.70928359
0.068515427 -0.023395479 0.70831811
0.068190612 -0.024947762 0.70736182
0.067869097 -0.026485473 0.70641524
0.067550361 -0.02800867 0.70547682
0.067234844 -0.02951771 0.70454794
0.066922031 -0.031012595 0.70362687
0.066612333 -0.0324938 0.70271516
0.066305272 -0.033961207 0.70181113
0.066001028 -0.035415143 0.70091534
0.065981925 -0.037014246 0.70085907
0.067303739 -0.039397299 0.70475072
0.068679608 -0.041877806 0.70880151
0.070112899 -0.044461787 0.71302134
0.071607292 -0.047156006 0.71742105
0.073166765 -0.049967527 0.72201246
0.074795686 -0.052904248 0.72680831
0.07649909 -0.055974931 0.73182333
0.078281567 -0.059188515 0.73707128
0.080149092 -0.062555373 0.74256957
0.082107902 -0.066086829 0.74833661
0.083745345 0.039878756 0.74728703
0.083272062 0.037670702 0.74592674
0.082804441 0.035487622 0.74458277
0.082341701 0.033328831 0.74325287
0.081884116 0.031193942 0.7419377
0.08143191 0.029082865 0.74063802
0.080984339 0.026994795 0.73935175
0.080541998 0.024929672 0.73808044
0.080104135 0.022886872 0.73682195
0.079671003 0.020866215 0.73557717
0.079242855 0.018867373 0.73434657
0.078818962 0.016889811 0.73312831
0.078399897 0.014933348 0.73192382
0.077984951 0.012997508 0.73073131
0.077574685 0.011082113 0.72955215
0.077168413 0.0091867447 0.72838449
0.076766372 0.0073111057 0.727229
0.076368786 0.0054549277 0.72608632
0.075975016 0.0036178827 0.72495461
0.075585566 0.0017996728 0.72383529
0.075199813 2.9802322e-08 0.72272658
0.074818246 -0.0017813742 0.72162992
0.074440263 -0.0035447478 0.72054362
0.07406608 -0.0052903891 0.71946824
0.073695906 -0.0070186257 0.71840429
0.073329143 -0.0087296367 0.71735018
0.072966293 -0.01042375 0.71630734
0.072606735 -0.012101084 0.71527398
0.072250977 -0.013762057 0.71425152
0.071898423 -0.015406787 0.71323824
0.071549296 -0.017035514 0.7122348
0.071203798 -0.018648624 0.71124184
0.070861362 -0.020246089 0.71025765
0.070522465 -0.021828383 0.70928359
0.070186533 -0.023395479 0.70831811
0.069853798 -0.024947762 0.70736182
0.069524437 -0.026485473 0.70641524
0.069197938 -0.02800867 0.70547682
0.068874717 -0.02951771 0.70454794
0.068554275 -0.031012595 0.70362687
0.068237029 -0.0324938 0.70271516
0.067922473 -0.033961207 0.70181113
0.067610808 -0.035415143 0.70091534
0.067591242 -0.037014246 0.70085907
0.068945296 -0.039397299 0.70475072
0.070354722 -0.041877806 0.70880151
0.071822971 -0.044461787 0.71302134
0.073353805 -0.047156006 0.71742105
0.074951321 -0.049967527 0.72201246
0.076619968 -0.052904248 0.72680831
0.078364916 -0.055974931 0.73182333
0.080190875 -0.059188515 0.73707128
0.082103945 -0.062555373 0.74256957
0.083833732 0.031193942 0.7419377
0.083370768 0.029082865 0.74063802
0.082912542 0.026994795 0.73935175
0.082459666 0.024929672 0.73808044
0.082011372 0.022886872 0.73682195
0.081567936 0.020866215 0.73557717
0.081129588 0.018867373 0.73434657
0.080695607 0.016889811 0.73312831
0.080266565 0.014933348 0.73192382
0.07984174 0.012997508 0.73073131
0.079421699 0.011082113 0.72955215
0.079005755 0.0091867447 0.72838449
0.078594141 0.0073111057 0.727229
0.078187093 0.0054549277 0.72608632
0.077783942 0.0036178827 0.72495461
0.077385224 0.0017996728 0.72383529
0.076990277 2.9802322e-08 0.72272658
0.076599635 -0.0017813742 0.72162992
0.076212645 -0.0035447478 0.72054362
0.075829551 -0.0052903891 0.71946824
0.075450569 -0.0070186257 0.71840429
0.075075082 -0.0087296367 0.71735018
0.074703582 -0.01042375 0.71630734
0.074335471 -0.012101084 0.71527398
0.073971242 -0.013762057 0.71425152
0.073610291 -0.015406787 0.71323824
0.073252849 -0.017035514 0.7122348
0.072899126 -0.018648624 0.71124184
0.072548538 -0.020246089 0.71025765
0.072201565 -0.021828383 0.70928359
0.071857646 -0.023395479 0.70831811
0.071516983 -0.024947762 0.70736182
0.071179785 -0.026485473 0.70641524
0.070845507 -0.02800867 0.70547682
0.070514597 -0.02951771 0.70454794
0.070186518 -0.031012595 0.70362687
0.069861718 -0.0324938 0.70271516
0.069539681 -0.033961207 0.70181113
0.069220595 -0.035415143 0.70091534
0.069200553 -0.037014246 0.70085907
0.070586853 -0.039397299 0.70475072
0.072029829 -0.041877806 0.70880151
0.073533043 -0.044461787 0.71302134
0.075100325 -0.047156006 0.71742105
0.076735877 -0.049967527 0.72201246
0.078444257 -0.052904248 0.72680831
0.08023075 -0.055974931 0.73182333
0.082100175 -0.059188515 0.73707128
0.083918616 0.022886872 0.73682195
0.083464861 0.020866215 0.73557717
0.083016329 0.018867373 0.73434657
0.082572252 0.016889811 0.73312831
0.082133226 0.014933348 0.73192382
0.081698522 0.012997508 0.73073131
0.08126872 0.011082113 0.72955215
0.080843098 0.0091867447 0.72838449
0.08042191 0.0073111057 0.727229
0.0800054 0.0054549277 0.72608632
0.079592869 0.0036178827 0.72495461
0.079184882 0.0017996728 0.72383529
0.078780755 2.9802322e-08 0.72272658
0.078381024 -0.0017813742 0.72162992
0.077985033 -0.0035447478 0.72054362
0.077593036 -0.0052903891 0.71946824
0.077205233 -0.0070186257 0.71840429
0.076821014 -0.0087296367 0.71735018
0.076440871 -0.01042375 0.71630734
0.076064199 -0.012101084 0.71527398
0.075691499 -0.013762057 0.71425152
0.075322159 -0.015406787 0.71323824
0.074956402 -0.017035514 0.7122348
0.074594453 -0.018648624 0.71124184
0.074235715 -0.020246089 0.71025765
0.073880672 -0.021828383 0.70928359
0.073528752 -0.023395479 0.70831811
0.073180169 -0.024947762 0.70736182
0.072835132 -0.026485473 0.70641524
0.072493076 -0.02800867 0.70547682
0.07215447 -0.02951771 0.70454794
0.071818762 -0.031012595 0.70362687
0.071486413 -0.0324938 0.70271516
0.071156882 -0.033961207 0.70181113
0.070830375 -0.035415143 0.70091534
0.070809871 -0.037014246 0.70085907
0.072228409 -0.039397299 0.70475072
0.073704943 -0.041877806 0.70880151
0.075243115 -0.044461787 0.71302134
0.076846853 -0.047156006 0.71742105
0.07852044 -0.049967527 0.72201246
0.080268539 -0.052904248 0.72680831
0.082096584 -0.055974931 0.73182333
0.083555311 0.012997508 0.73073131
0.083115734 0.011082113 0.72955215
0.082680441 0.0091867447 0.72838449
0.082249686 0.0073111057 0.727229
0.081823699 0.0054549277 0.72608632
0.081401803 0.0036178827 0.72495461
0.08098454 0.0017996728 0.72383529
0.080571219 2.9802322e-08 0.72272658
0.080162406 -0.0017813742 0.72162992
0.079757422 -0.0035447478 0.72054362
0.079356506 -0.0052903891 0.71946824
0.078959897 -0.0070186257 0.71840429
0.078566939 -0.0087296367 0.71735018
0.078178167 -0.01042375 0.71630734
0.077792935 -0.012101084 0.71527398
0.077411763 -0.013762057 0.71425152
0.077034026 -0.015406787 0.71323824
0.076659963 -0.017035514 0.7122348
0.07628978 -0.018648624 0.71124184
0.075922891 -0.020246089 0.71025765
0.07555978 -0.021828383 0.70928359
0.075199857 -0.023395479 0.70831811
