# .PCD v0.7 - Point Cloud Data file format
VERSION 0.7
FIELDS x y z
SIZE 4 4 4
TYPE F F F
COUNT 1 1 1
WIDTH 726
HEIGHT 1
VIEWPOINT 0 0 0 1 0 0 0
POINTS 726
DATA ascii
0.038746733 0.044487029 0.67982513
0.040027663 0.044316381 0.67916065
0.043315928 0.036096632 0.6808874
0.04191035 0.037574798 0.68104672
0.043834653 0.030684263 0.68297458
0.037790451 0.040697426 0.68204796
0.045526382 0.02643469 0.6838724
0.045389693 0.027819544 0.68334013
0.035477102 0.036955297 0.68503362
0.049111154 0.016370386 0.68624127
0.031320117 0.038777351 0.68662953
0.026758071 0.046083361 0.68604118
0.047960509 0.014987677 0.68751466
0.046363369 0.017947137 0.68713152
0.041995946 0.022497833 0.68764609
0.031416196 0.037400246 0.68718183
0.05133364 0.0075490773 0.68884814
0.024124328 0.043725342 0.68860155
0.051186133 0.045164227 0.68832445
0.022568384 0.04664135 0.68821394
0.049871475 0.009067595 0.68902236
0.045752361 0.01067555 0.69069088
0.044132002 0.013696194 0.69029427
0.025927762 0.036603928 0.69070095
0.035315584 0.021496475 0.691944
0.02141434 0.041299105 0.69123608
0.018333191 0.045832992 0.69101524
0.04767843 0.0046140552 0.69225228
0.037048105 0.01698041 0.69293511
0.013833345 0.049185246 0.6921345
0.052636296 -0.0046443641 0.69347292
0.054235414 -0.0046487153 0.69364882
0.034027342 0.02010712 0.69330049
0.054235414 0.024793386 0.69364882
0.054235414 0.026342899 0.69364882
0.048133519 2.9802322e-08 0.69402432
0.046626631 0.0015542507 0.69420862
0.03576567 0.015550315 0.69430619
0.026507631 0.026507646 0.69481844
0.026423234 0.027977586 0.69421911
0.020221168 0.03577593 0.69435996
0.03776484 0.0078677237 0.69654006
0.012586018 0.040904582 0.6965059
0.041095003 0.001580596 0.69739008
0.018986993 0.030062735 0.69759202
0.017365843 0.033152997 0.69716513
0.033359036 0.0095311999 0.69834954
0.033359036 0.0095311999 0.69834954
0.0063593397 0.044515431 0.69850755
0.04800253 -0.012800664 0.69974482
0.046449471 -0.011211902 0.69994056
0.057468772 0.0095781386 0.69929469
0.057468772 0.0111745 0.69929469
0.057468772 0.012770861 0.69929463
0.0095821749 0.038328707 0.69937605
0.0063801389 0.043065965 0.6991353
0.057468969 0.054276258 0.69929528
0.057468969 0.057468981 0.69929528
0.028963728 0.0096545815 0.70083261
0.03391099 0.0016148388 0.70152223
0.016169418 0.024254173 0.70177972
0.039023042 -0.0081297457 0.70286834
0.053875424 -0.02938661 0.70366848
-0.001629897 0.044007212 0.70334351
0.01968915 0.013126135 0.70465511
0.013136545 0.021346897 0.70481277
0.0065514259 0.031119317 0.70430434
0.0016374536 0.037661433 0.7042557
-0.0016353626 0.042519391 0.70400327
0.056012299 -0.03624323 0.70545882
0.026319824 0.0032899976 0.70516527
0.01486316 0.016514629 0.70594668
-0.006583944 0.046087652 0.70528567
0.061176144 -0.044642031 0.70618176
0.061176144 -0.044642031 0.70618176
0.039684046 -0.016534984 0.70619297
0.02984941 -0.0049749017 0.70677215
0.041575838 -0.021619409 0.70734346
0.018376404 0.0066823363 0.70825469
0.016723499 0.0083617866 0.70846808
-0.0016746435 0.031818211 0.70874494
0.038594075 -0.021814018 0.70915043
0.021820784 2.9802322e-08 0.70921308
0.05574007 -0.047294617 0.71048915
0.054108802 -0.045654297 0.71070725
0.033783913 -0.018581152 0.71050155
0.013499909 0.0084374547 0.7102955
0.0033732788 0.021926314 0.71019292
0 0.02535373 0.71062839
0.059402347 -0.054310709 0.71146894
0.059402347 -0.054310709 0.71146894
0.045900002 -0.037399977 0.71180576
0.045900002 -0.037399977 0.71180576
0.030576684 -0.016987026 0.71164936
0.064558893 -0.016989172 0.71167517
0.028909156 -0.015304863 0.71187073
0.0288087 -0.013557047 0.71115744
0.064558893 -0.011892378 0.71167517
0.064558893 0.013591379 0.71167517
0.064558893 0.013591379 0.71167517
0.0050896555 0.016965538 0.71138948
0.064558893 0.018688112 0.71167517
0.064558893 0.027182698 0.71167517
-0.0051048119 0.028927296 0.7119993
0.064558893 0.028881639 0.71167517
0.064558893 0.028881639 0.71167517
0.064558893 0.03058055 0.71167517
0.064558893 0.03058055 0.71167517
0.064558893 0.032279491 0.71167511
-0.0084672254 0.035562366 0.71101451
-0.016966553 0.045809716 0.71140194
0.053400222 -0.053400218 0.71453232
0.053400222 -0.053400218 0.71453232
0.037867665 -0.032703906 0.71437168
0.0051614228 0.010322839 0.71427721
0.0051614228 0.010322839 0.71427721
-0.003447576 0.020685494 0.71467716
-0.022440922 0.04488185 0.7149713
0.065885596 -0.072820902 0.71588957
0.048390862 -0.048390806 0.71521521
0.048390862 -0.048390806 0.71521521
0.022517832 -0.015589267 0.71568549
0.057327282 -0.062538832 0.71629494
0.024396358 -0.020911127 0.71694762
0.015657969 -0.0086988807 0.71660691
0.012161853 -0.003474772 0.71632123
0.0069478163 0.0034738779 0.71626651
-0.0017403316 0.013922662 0.71667415
-0.019149784 0.036558688 0.71674144
-0.01568939 0.031378806 0.71702838
-0.01568939 0.031378806 0.71702838
-0.027908517 0.047095627 0.71715105
0.047385614 -0.054405719 0.71844757
0.026297802 -0.026297748 0.7182259
0.068456821 -0.0017552972 0.71848142
-0.024541153 0.040317625 0.71819615
0.058155496 -0.070491493 0.71932453
0.044132404 -0.052958876 0.7196877
0.024749836 -0.028285503 0.71999532
0.014135307 -0.014135301 0.71988285
0.0035319647 2.9802322e-08 0.71977043
0.0035319647 2.9802322e-08 0.71977043
-0.0017655138 0.0070620477 0.71971399
-0.031693637 0.047540456 0.71913981
0.02483988 -0.030162692 0.72077179
0.0088643301 -0.0088643134 0.72060144
-0.035680868 0.046385139 0.72195071
-0.035680868 0.046385139 0.72195071
0.046518777 -0.062621415 0.72257113
-0.028624663 0.035780847 0.72255397
-0.01077017 0.010770202 0.72327662
0.052283619 -0.073918223 0.72422481
0.010861723 -0.02172339 0.72511852
0.072622642 0.027233511 0.72575581
0.072622642 0.043573588 0.72575575
-0.041630704 0.047060788 0.72508764
0.045617338 -0.071163028 0.72685754
0.043679811 -0.067339659 0.72629005
0.040132411 -0.063847005 0.72679806
-0.034617051 0.034617066 0.72652638
-0.043652575 0.047290325 0.72615308
0.042065244 -0.067670166 0.72736824
0.027482463 -0.049468428 0.72775936
0.027482463 -0.049468428 0.72775936
0.010983958 -0.02745986 0.72757775
0.0073121572 -0.021936446 0.72726142
-0.02751041 0.02200833 0.72798425
-0.038349368 0.03834936 0.72703457
0.0073952628 -0.027732223 0.72976935
-0.02771868 0.018479109 0.72966021
-0.040679198 0.035132051 0.7297982
0.03517608 -0.064798057 0.73007804
0.025972942 -0.05380106 0.73054129
0.025972942 -0.05380106 0.73054129
0.025972942 -0.05380106 0.73054129
0.0037063169 -0.024091065 0.73029363
-0.024149302 0.01114583 0.73083442
-0.03541011 0.024227977 0.73156488
-0.03541011 0.024227977 0.73156488
0.016860049 -0.046833485 0.73272955
0.0018695444 -0.026173592 0.73227149
-0.0074938312 -0.014987648 0.73274392
-0.056211088 0.048716307 0.73277348
0.026272571 -0.06005156 0.73312473
0.077084363 -0.060163349 0.7335465
0.077084363 -0.060163349 0.7335465
0.077084363 -0.058283269 0.7335465
0.077084363 -0.054523051 0.7335465
0.077084363 -0.048882753 0.7335465
0.077084363 -0.030081689 0.7335465
0.077084363 -0.022561252 0.7335465
0.077084363 -0.020681143 0.7335465
0.077084363 -0.013160706 0.7335465
0.077084363 -0.0075203776 0.7335465
0.077084363 -0.003760159 0.7335465
-0.018796204 -0.0018796027 0.73348784
0.077084363 0.0037602186 0.7335465
0.077084363 0.018801033 0.7335465
0.077084668 0.033842057 0.73354739
-0.046924625 0.03566274 0.73316967
0.077084668 0.05264321 0.73354739
0.077084668 0.062043786 0.73354739
0.077084668 0.062043786 0.73354739
0.030186186 -0.067918897 0.73433477
0.018855752 -0.052796096 0.73420662
0.0094844913 -0.043628633 0.73557347
-0.043569725 0.026520729 0.73526412
0.0019060565 -0.036215067 0.73667896
-0.0019032162 -0.030451447 0.73633611
-0.009524866 -0.020954698 0.73654819
-0.019015927 -0.0076063275 0.73614013
-0.055333894 0.038161337 0.73692143
-0.061040837 0.045780659 0.73685634
0.013402347 -0.053609341 0.73771274
-0.034426074 0.0095628202 0.73746395
-0.045875251 0.024849087 0.73733228
-0.055551242 0.036395669 0.73782611
0.023016576 -0.067131668 0.73812646
-0.0057685436 -0.030765533 0.73870581
-0.067536004 0.048240006 0.73952091
-0.023237275 -0.011618644 0.74034649
-0.03299072 2.9802322e-08 0.74085242
-0.058222979 0.032993048 0.74086875
-0.062010288 0.03875646 0.74051332
0.0097109694 -0.056323618 0.74104106
0.081874996 -0.035089284 0.74191153
0.081874996 -0.031190455 0.74191153
0.081874996 -0.029241055 0.74191153
-0.025305098 -0.011679262 0.74156642
-0.029153757 -0.0058307052 0.74120891
-0.05845537 0.031176239 0.74180377
0.0098283123 -0.062901169 0.74387395
-0.011765492 -0.033335507 0.74330091
-0.033389043 -0.0058921576 0.74368072
-0.045146953 0.0098145604 0.74354184
-0.045146953 0.0098145604 0.74354184
-0.051020637 0.017661005 0.74347198
-0.0039498252 -0.047397882 0.74499059
-0.039428383 -0 0.74456894
-0.05712064 0.023636162 0.74435866
-0.073017143 0.043415606 0.74481237
0.011874834 -0.069269836 0.74550074
-0.0039658686 -0.049573362 0.74595892
-0.045513149 0.0059364736 0.74546385
-0.029867465 -0.017920434 0.7469523
-0.035830237 -0.0099528134 0.74688041
-0.041789621 -0.0019899607 0.7468096
-0.055756591 0.015930474 0.74696958
-0.077787489 0.043880135 0.74736118
-0.0060298713 -0.054268837 0.74922085
-0.08054217 0.042284667 0.74965507
0 -0.064604104 0.75029778
0.087032661 -0.054648399 0.75091785
0.087032661 -0.052624404 0.75091779
-0.012105981 -0.048423916 0.7501511
-0.012105981 -0.048423916 0.7501511
0.087032661 -0.034408242 0.75091779
0.087032661 -0.032384247 0.75091785
0.087032661 -0.014168084 0.75091785
0.087032661 0.0040480494 0.75091779
0.087032661 0.010120094 0.75091785
0.087032661 0.012144119 0.75091779
0.087032661 0.014168113 0.75091779
0.087032661 0.022264212 0.75091779
-0.083003826 0.042514145 0.75097436
-0.036576245 -0.020320147 0.75188333
-0.060886316 0.012177259 0.75158513
-0.022430275 -0.040782303 0.75274068
-0.08189363 0.034804821 0.75373346
-0.091954641 0.049042463 0.75326222
-0.022619333 -0.045238644 0.75481522
-0.034935717 -0.028770566 0.75466311
-0.051478356 -0.0082365274 0.75515705
-0.055741876 -0.0041290224 0.75580645
-0.086576067 0.03710404 0.75542271
-0.014501901 -0.060079277 0.75667393
-0.012466765 -0.06441164 0.75740951
-0.043566056 -0.022820294 0.75702083
-0.068667442 0.0083233416 0.7577762
-0.081102081 0.024954528 0.75762033
-0.091322556 0.039434761 0.75713408
-0.01041962 -0.068769455 0.75814939
-0.041971475 -0.031478554 0.75991786
-0.02738007 -0.052653939 0.76083344
0.092600435 -0.025254637 0.76063991
-0.062981822 -0.0041987896 0.76001686
-0.096965864 0.037943155 0.76105011
-0.061595272 -0.012743801 0.76298398
-0.069859132 2.9802322e-08 0.76213527
-0.027618378 -0.057361245 0.76304626
-0.070163384 -0.0021261573 0.76324821
-0.087352298 0.019174904 0.7637769
-0.042706188 -0.040570855 0.7643522
-0.091861054 0.02349937 0.76447225
-0.10051032 0.034216315 0.76473945
-0.019268369 -0.072791636 0.76503068
-0.074944094 -0 0.7650705
-0.027983844 -0.064578116 0.7664398
-0.025910202 -0.069093853 0.76723409
-0.060710955 -0.026018947 0.76832831
-0.060710955 -0.026018947 0.76832831
-0.045703072 -0.047879368 0.76930463
-0.069766797 -0.01744172 0.76977253
-0.074001245 -0.010882527 0.76932526
-0.08930137 0.0087123513 0.76951534
-0.059250899 -0.035111636 0.77149451
-0.033109512 -0.072840929 0.77304244
-0.042174522 -0.064371645 0.77454042
-0.071036443 -0.026638657 0.77456182
-0.062373422 -0.040097177 0.77549541
-0.087036043 -0.008926779 0.77598679
-0.044660017 -0.064757049 0.77614462
-0.06294819 -0.044962972 0.77797323
-0.087435752 -0.011209697 0.77722394
-0.049492493 -0.062990427 0.77815545
-0.087839134 -0.013513684 0.77847254
-0.065897323 -0.047718734 0.780891
-0.079848781 -0.031939507 0.78198612
-0.053040266 -0.07379514 0.78496826
-0.062334016 -0.062334001 0.78527832
-0.074068405 -0.048607349 0.78599906
-0.076495081 -0.046360642 0.78640884
-0.067467846 -0.060488403 0.78742826
-0.086273775 -0.03730756 0.7880615
-0.077228867 -0.051485896 0.78909302
-0.082152694 -0.04694438 0.78993213
-0.075137533 -0.056353182 0.79003203
-0.069115408 -0.073881954 0.79428607
0.040835135 0.044634085 0.67855471
0.044984795 0.031924725 0.68176353
0.041266523 0.037647948 0.68138629
0.048305638 0.036595196 0.68329477
0.048305638 0.036595196 0.68329477
0.036370423 0.042189717 0.68220949
0.027878746 0.049888313 0.68371665
0.043188587 0.016669899 0.68952769
0.022638155 0.045276314 0.68877536
0.0289675 0.032777846 0.69063371
0.022957701 0.039026901 0.69134688
0.022957701 0.039026901 0.69134688
0.04940195 0.00077070296 0.69295204
0.050815653 -0 0.69247609
0.044760205 0.0069443583 0.69290912
0.054235414 0.034865648 0.69364882
0.054235414 0.041063964 0.69364882
0.054235589 0.05733481 0.69364941
0.053142045 -0.0093779862 0.69526851
0.037343528 0.013224617 0.69442105
0.026592569 0.025028348 0.69542152
0.034686841 0.011036754 0.69691902
0.026721161 0.022790343 0.6963346
0.015802916 0.034766436 0.69735563
0.017309867 0.034619749 0.69655073
0.042910673 -0.0031785369 0.69844115
0.042910673 -0.0031785369 0.69844115
0.057468772 -0.0031926632 0.69929463
0.023972612 0.019178092 0.69951427
0.057468969 0.049487203 0.69929528
0.057138756 -0.027363017 0.70089245
0.054539341 -0.022457391 0.70022941
0.032116413 0.0064232945 0.70043725
0.011259945 0.032974243 0.70076835
0.011259945 0.032974243 0.70076835
0.057022795 -0.032584429 0.70326209
0.050210238 -0.021055877 0.70211083
0.050210238 -0.021055877 0.70211083
0.024371624 0.01137343 0.70272529
0.014713784 0.021253258 0.70394319
0.0032497398 0.038996905 0.70273674
0.0032497398 0.038996905 0.70273674
-0.0032522895 0.047158211 0.70289057
-0.0048834588 0.048834622 0.70309275
0.047863297 -0.026407331 0.70582557
0.04682339 -0.023001835 0.70492399
0.060903605 0.013168395 0.70529258
0.060903605 0.013168395 0.70529258
0.01486316 0.016514629 0.70594668
0.0081808055 0.029450923 0.70409966
0.051230241 -0.031399131 0.70608258
0.041434541 -0.01988858 0.70666122
0.038070507 -0.014897138 0.70640266
0.02323488 0.0033192933 0.70693314
0.013315748 0.014980257 0.70751667
0.00082986668 0.031605422 0.70739287
0.059773281 0.064754397 0.70702183
0.062016532 -0.051959783 0.70892346
0.040973656 -0.023414552 0.70848262
0.030053694 -0.0083482265 0.70814204
0.02512446 -0.00334993 0.70878363
0.021243494 0.0011177063 0.70905346
-0.013358755 0.048425496 0.70816559
0.062445551 -0.055694669 0.7103231
0.030470656 -0.015235364 0.71093833
0.030470656 -0.015235364 0.71093833
0.00339675 0.018682152 0.71160954
0 0.02535373 0.71062839
0.064558893 0.028881639 0.71167517
0.064559132 0.040774226 0.71167588
0.064559132 0.042473137 0.71167588
-0.018683266 0.047557443 0.71162212
0.01522028 0.057498842 0.71073651
0.054869197 -0.053154528 0.71357566
0.049365714 -0.042556643 0.71207929
0.032466557 -0.022213966 0.71286386
0.011119189 0.005132854 0.71312708
0.001712134 0.017121375 0.71327037
-0.006813752 0.030661911 0.71222067
-0.006813752 0.030661911 0.71222067
0.058583144 -0.060306162 0.71458614
0.048562784 -0.050297141 0.71595633
0.049139313 -0.048279136 0.71473372
0.032927696 -0.029461592 0.71579361
0.024137788 -0.015517145 0.71471816
0.017316902 -0.0086584389 0.71563107
0.017194916 -0.0051584542 0.71415854
0.013834764 -0.0034587085 0.71534801
-0.0068980549 0.02500394 0.71476477
0.059210308 -0.066176206 0.71681273
0.053034138 -0.057383358 0.71650016
0.043658625 -0.047151268 0.71740001
0.026110167 -0.022628784 0.71671593
0.0069726254 0.0017431676 0.71701515
-0.0034845001 0.015680254 0.71690577
-0.020876512 0.039141923 0.71659899
0.037102822 -0.044170052 0.71986932
0.038616937 -0.043006778 0.71848285
0.029033709 -0.031675383 0.71901757
0.068456821 -0.026329517 0.71848142
0.068456821 -0.026329517 0.71848142
0.019371005 -0.019371003 0.71916914
0.019301379 -0.017546684 0.71840507
0.068456821 -0.0017552972 0.71848142
0.049801674 -0.064030707 0.72129732
0.051335305 -0.063726574 0.72027749
0.046180099 -0.058613181 0.72099876
0.032835208 -0.040824756 0.72085786
0.030061355 -0.035366297 0.72005206
0.012382236 -0.012382209 0.72012162
0.055354036 -0.07321015 0.72214019
0.032380003 -0.046771109 0.72374266
0.032380003 -0.046771109 0.72374266
0.02149592 -0.030452549 0.72282982
0.01434301 -0.021514505 0.72301692
-0.0071902187 0.0053926706 0.72358161
0.067979202 0.071557075 0.72254002
0.014502853 -0.027192831 0.7254287
0.010902192 -0.02362141 0.72593272
-0.01449985 0.010874897 0.72538334
0.072622642 0.023602396 0.72575581
0.072622642 0.029049098 0.72575575
-0.032635551 0.034448683 0.72545642
-0.036076523 0.041488022 0.72433865
0.072622642 0.04902029 0.72575581
-0.045354649 0.050797224 0.72558922
0.040132411 -0.063847005 0.72679806
0.030958705 -0.05099079 0.72642386
0.025488529 -0.043694615 0.72636455
0.0018275445 -0.014620334 0.7272017
-0.0036678128 -0.0091695189 0.72796965
-0.031133756 0.027471006 0.7276668
-0.029159069 0.027336627 0.72658575
-0.032757334 0.032757372 0.72627312
-0.012888005 0.0009188503 0.72884327
-0.012888005 0.0009188503 0.72884327
-0.011013226 -0 0.72816658
-0.038784765 0.033244133 0.72953731
-0.046213705 0.042516649 0.7297371
0.024238391 -0.054070204 0.73166162
0.0074233762 -0.029693514 0.73061776
-0.0074367519 -0.011155128 0.7310214
-0.027930237 0.014896184 0.73136276
-0.037246834 0.027002186 0.73140204
-0.040989865 0.031674027 0.73150277
0.035718042 -0.073315948 0.73352116
0.018711137 -0.048648983 0.73246098
0.015062366 -0.047069848 0.73387104
0.011280145 -0.041360497 0.73353654
0.0093751689 -0.03750065 0.73293412
-0.0018739852 -0.022487819 0.73280764
0.077084363 -0.022561252 0.7335465
-0.0037380536 -0.018690288 0.73220903
0.077084363 0.007520467 0.73354644
0.077084363 0.0094005167 0.7335465
-0.030057069 0.013149977 0.73336065
-0.037461136 0.024349779 0.73269546
0.077084668 0.054523289 0.73354739
0.020796843 -0.056718618 0.73481584
0.0018986436 -0.034175545 0.73578411
-0.017093766 -0.0094965696 0.73586428
-0.039840139 0.020868659 0.73560381
-0.060803253 0.047502548 0.73596013
-0.058604363 0.047261596 0.7347967
0.0249044 -0.068966001 0.73784584
0.019151719 -0.061285496 0.73777926
-0.024810359 -0.0019084811 0.73697257
-0.045875251 0.024849087 0.73733228
-0.049430665 0.032320082 0.73609024
0.015358597 -0.057594717 0.73834091
-0.0095997863 -0.024959445 0.73835689
-0.011533754 -0.023067474 0.73863876
-0.01535529 -0.017274678 0.73829103
-0.028809542 -0 0.7384389
-0.050015207 0.026931286 0.7388041
-0.059526652 0.040324539 0.738388
-0.069550514 0.05023098 0.73980558
0.081874996 -0.06043151 0.74191147
0.081874996 -0.054583311 0.74191147
0.081874996 -0.052633911 0.74191153
0.00096815242 -0.0446513 0.74094057
0.081874996 -0.038988084 0.74191153
0.081874996 -0.027291656 0.74191153
-0.015538572 -0.02330783 0.7410565
-0.025305098 -0.011679262 0.74156642
0.081874996 -0.0077975988 0.74191147
-0.034974437 0.0019430518 0.74114132
-0.040791601 0.0097123384 0.74107289
-0.046420719 0.019341975 0.74007577
0.081875324 0.023392946 0.74191254
0.081875324 0.038988262 0.74191242
-0.065786116 0.044502378 0.74015892
0.0097888578 -0.06069088 0.74292147
-0.021617433 -0.021617413 0.74382079
-0.0254064 -0.013680369 0.7425071
-0.048801545 0.017568588 0.74223226
-0.066846147 0.037355244 0.74392235
0.011874834 -0.069269836 0.74550074
-0.0039498252 -0.047397882 0.74499059
-0.0098716337 -0.039486527 0.7449199
-0.015789995 -0.031580001 0.74485022
-0.021704808 -0.023677975 0.74477959
-0.033524055 -0.0078879893 0.74463946
-0.045513149 0.0059364736 0.74546385
-0.05347953 0.015845835 0.74569201
-0.053263426 0.017754525 0.74472582
-0.073017143 0.043415606 0.74481237
-0.025632406 0.061123461 0.74460566
0.0099484846 -0.069639355 0.74677521
-0.0099521726 -0.043789536 0.74686426
-0.039749421 -0.0039749444 0.74650657
-0.059890121 0.019963413 0.74757683
-0.065591238 0.029814214 0.74652374
-0.024097757 -0.030122161 0.74900228
-0.07600756 0.040003985 0.748043
0 -0.066899627 0.75130987
-0.020196296 -0.038372964 0.75038844
-0.032294612 -0.022202551 0.75024164
-0.066677414 0.022225827 0.7504968
0.0020331065 -0.071158707 0.75201523
-0.0020468973 -0.069594473 0.75367993
-0.010244648 -0.059418947 0.7539252
-0.038819753 -0.020431459 0.753227
-0.065385446 0.014303118 0.75324512
-0.067516021 0.016367555 0.75356442
-0.08189363 0.034804821 0.75373346
-0.026801679 -0.041233331 0.75546283
-0.030745542 -0.032795221 0.7540186
-0.043381512 -0.020657867 0.75596011
-0.055507135 -0.002055794 0.75475699
-0.071794093 0.02051264 0.75420648
-0.074886858 0.016641557 0.75769877
-0.08329121 0.027069688 0.75795102
-0.08329121 0.027069688 0.75795102
-0.01041962 -0.068769455 0.75814939
-0.054295514 -0.012529731 0.75867641
-0.091712885 0.037518919 0.75820494
-0.091712885 0.037518919 0.75820494
-0.098355167 0.043945968 0.75920433
-0.023206018 -0.059069842 0.76125342
0.092600435 -0.046300203 0.76063991
0.092600435 -0.031568319 0.76063985
0.092600435 -0.025254637 0.76063991
0.092600435 -0.0042091012 0.76063985
-0.084371209 0.021092832 0.7612102
-0.084371209 0.021092832 0.7612102
-0.090670317 0.029520571 0.7611295
-0.1014524 0.042271852 0.76173067
-0.023306737 -0.061444998 0.76235861
-0.029783035 -0.055311322 0.76339257
-0.046898395 -0.034107924 0.76392198
-0.063804992 -0.010634154 0.76332903
-0.069859132 2.9802322e-08 0.76213527
-0.093713939 0.027688235 0.76369464
-0.036471486 -0.051489145 0.76556802
-0.042893805 -0.042893797 0.76548457
-0.053510159 -0.027825266 0.76496744
-0.083230056 0.012804627 0.76420671
-0.083230056 0.012804627 0.76420671
-0.092265233 0.021457046 0.76560676
-0.034583122 -0.058359027 0.76750708
-0.06465026 -0.017240077 0.76673013
-0.082061343 0.004319042 0.76727337
-0.032666262 -0.065332502 0.76947534
-0.041236829 -0.052088618 0.76858312
-0.056722682 -0.034906238 0.76994503
-0.069766797 -0.01744172 0.76977253
-0.08930137 0.0087123513 0.76951534
-0.046114441 -0.052702218 0.77166927
-0.086247087 -0.0044229329 0.77354491
-0.046533067 -0.05761236 0.77407563
-0.055709198 -0.049024045 0.77558529
-0.0649895 -0.040338278 0.77711225
-0.074033618 -0.029164761 0.77740508
-0.085073128 -0.013432562 0.77684057
-0.063533656 -0.049919248 0.78049719
-0.081865773 -0.027288556 0.78109956
-0.06204062 -0.059742779 0.78396654
-0.060222469 -0.067171186 0.78619349
-0.080460101 -0.054428905 0.79225624
0.041896384 0.046021815 0.67733014
0.043576922 0.030027814 0.68341315
0.048305638 0.050135389 0.68329477
0.049374916 0.013836809 0.68720603
0.050154101 0.0056222063 0.69037861
0.033083655 0.033083677 0.68812263
0.029195372 0.029195398 0.69208145
0.057468772 -0.010376289 0.69929457
0.041445341 0.0015763715 0.69718981
0.034544438 0.0063752532 0.69905728
0.022616655 0.022617815 0.69877994
0.018625969 0.026609501 0.6993233
0.014302121 0.034175701 0.69848245
0.057468969 0.04589539 0.69929528
0.0092075421 0.033611301 0.70167226
0.0056577502 0.037998192 0.70178688
0 0.048203319 0.70055264
0.017797504 0.055010498 0.70190203
0.057853278 -0.038481981 0.70538324
0.042605352 -0.022133589 0.70697588
0.01007604 0.022474257 0.70608205
0.061554234 -0.054178979 0.71016884
0.046944302 -0.037896108 0.71142191
0.046944302 -0.037896108 0.71142191
0.033519473 -0.014667481 0.70892829
0.064558893 -0.0097687617 0.71167517
0.017608956 0.0058688521 0.70905626
0.064558893 0.034403108 0.71167517
-0.010596046 0.041691829 0.70954037
0.044247761 -0.035738558 0.71202749
0.02647727 -0.018085394 0.71450055
0.021029104 -0.0062526567 0.71242726
-0.014564811 0.038116273 0.71340829
0.065084659 -0.074384212 0.7170409
0.031065924 -0.033998393 0.71886891
0 0.012168914 0.71644318
0 0.012168914 0.71644318
0.022617148 0.060892344 0.71660769
0.054590076 -0.073386237 0.72265863
0.029608492 -0.038296573 0.72160566
0.021869613 -0.026008975 0.72065449
-0.0070858281 0.01240021 0.72043133
-0.016589865 0.018830314 0.72308165
-0.025752928 0.029943407 0.72347039
0.014666298 -0.032999158 0.7278949
0.0099972915 -0.022727832 0.72606075
0.0099972915 -0.022727832 0.72606075
0.0024997278 -0.013657197 0.72638875
-0.030098876 0.033106945 0.72458422
-0.042721227 0.046352997 0.7260291
0.041407101 -0.0699341 0.72874618
0.022400325 -0.052267402 0.73192739
0.014890024 -0.040947556 0.73127073
-0.010451021 -0.0030739806 0.72919738
-0.021066725 0.0068147583 0.73096454
-0.01751126 0.0064489543 0.72907346
-0.041473582 0.037783243 0.72908783
0.03034012 -0.06680505 0.73375481
0.0075967107 -0.041781873 0.73584855
0.01372857 -0.04243831 0.73259866
0.0037927155 -0.036030769 0.7355082
0.077084363 -0.029611669 0.7335465
-0.0057011535 -0.024704963 0.73599422
-0.010364725 -0.014132276 0.73402405
0.077084363 -0.010340557 0.7335465
-0.057581037 0.049442947 0.73324394
0.077084668 0.061573774 0.73354745
0.011779277 -0.064786017 0.74357831
-0.0071231239 -0.034314387 0.74105287
-0.017643042 -0.025484353 0.74323124
-0.034257486 -0.0029380843 0.74287951
0.081875324 0.0068229735 0.74191248
-0.048997469 0.01567921 0.74317825
-0.053048838 0.019647717 0.74376649
-0.060843661 0.030419871 0.74351621
-0.060843661 0.030419871 0.74351621
-0.0099929161 -0.0459674 0.74784791
-0.074354388 0.042626336 0.74593222
-0.0158726 0.063490391 0.74609661
-0.0020172931 -0.061529517 0.75010639
-0.0020172931 -0.061529517 0.75010639
-0.024950501 -0.033041172 0.75078213
-0.024950501 -0.033041172 0.75078213
0.087032661 -0.0091080666 0.75091779
-0.050104436 0.0050083995 0.74852324
-0.065628767 0.021200202 0.7503441
-0.089235932 0.049686104 0.75140959
-0.041910492 -0.021298638 0.75539368
-0.077173352 0.025724933 0.75501263
-0.077173352 0.025724933 0.75501263
-0.085612528 0.037668191 0.75461739
-0.087641142 0.04483965 0.75262594
-0.02176103 -0.050773457 0.75676012
-0.043566056 -0.022820294 0.75702083
-0.058252521 -0.0052033216 0.75772977
-0.065523259 0.0013934275 0.75901765
-0.017952751 -0.06652198 0.76150674
-0.026142513 -0.057934485 0.76244736
-0.042244256 -0.034853756 0.7615642
0.092600435 -0.034725145 0.76063979
0.092600435 -0.0052613765 0.76063991
-0.069971696 -0.009690322 0.76647317
-0.084336475 0.0064874589 0.76763123
-0.030446561 -0.067417353 0.7691136
-0.058722962 -0.030448914 0.76913416
-0.061978914 -0.026095018 0.76909351
-0.062965587 -0.023883492 0.7686879
-0.035286501 -0.06947276 0.77281368
-0.049040515 -0.057956934 0.77567548
-0.041794255 -0.059391826 0.77212453
-0.054527946 -0.045684796 0.77343082
-0.054527946 -0.045684796 0.77343082
-0.062090099 -0.037697524 0.77427387
-0.069704726 -0.029661557 0.77512574
-0.074204691 -0.030359045 0.77803087
-0.04761412 -0.070287496 0.78028959
-0.070401967 -0.062191203 0.78987324
-0.070401967 -0.062191203 0.78987324
