# .PCD v0.7 - Point Cloud Data file format
VERSION 0.7
FIELDS x y z
SIZE 4 4 4
TYPE F F F
COUNT 1 1 1
WIDTH 669
HEIGHT 1
VIEWPOINT 0 0 0 1 0 0 0
POINTS 669
DATA ascii
0.012625827 -0.058920503 0.6759389
0.012625827 -0.04068321 0.67593896
0.012625827 -0.019640148 0.67593896
0.012625827 0.0098201036 0.6759389
0.012625827 0.023848802 0.6759389
0.012625827 0.046294749 0.6759389
0.011274502 -0.045098007 0.67671663
0.01410461 -0.033851027 0.67685533
0.01410461 -0.028209209 0.67685527
0.01410461 -0.01269415 0.67685527
0.011274502 -0.0084558427 0.67671663
0.011274502 0.0014092922 0.67671669
0.01410461 0.009873271 0.67685527
0.011274502 0.018321067 0.67671669
0.011274502 0.036642164 0.67671663
0.015599485 -0.048216581 0.67778158
0.015599485 -0.038289666 0.67778158
0.015599485 0.0070906579 0.67778164
0.015599485 0.03970778 0.67778158
0.015599485 0.048216611 0.67778158
0.017110767 -0.062739462 0.67871857
0.0099852579 -0.049926281 0.67878723
0.0099852579 -0.031382233 0.67878723
0.0099852579 -0.022823453 0.67878717
0.017110767 -0.017110735 0.67871857
0.0099852579 -0.015691102 0.67878717
0.0099852579 -0.015691102 0.67878717
0.017110767 -0.0042776465 0.67871857
0.017110767 0.027092069 0.67871857
0.0099852579 0.029955775 0.67878723
0.017110767 0.058461815 0.67871857
0.018638628 -0.060217083 0.67966539
0.018638628 -0.054482132 0.67966539
0.018638628 -0.030108571 0.67966533
0.018638628 -0.011469901 0.67966539
0.018638628 0.054482162 0.67966539
0.018638628 0.057349652 0.67966533
0.0086642178 -0.060649514 0.68090814
0.0086642178 -0.041877031 0.68090814
0.020183451 -0.0086500347 0.68062317
0.020183451 0.0014417171 0.68062311
0.020183451 0.010091752 0.68062311
0.0086642178 0.021660537 0.68090814
0.020183451 0.034600228 0.68062311
0.0086642178 0.041877091 0.6809082
0.020183451 0.046133608 0.68062311
0.021745401 -0.026094466 0.68159103
0.021745401 0.018846035 0.68159097
0.021745401 0.028993875 0.68159103
0.021745401 0.039141744 0.68159103
0.021745401 0.039141744 0.68159103
0.021745401 0.049289614 0.68159103
0.021745401 0.062336832 0.68159103
0.023324894 -0.062685639 0.68257028
0.023324894 -0.0058312118 0.68257034
0.023324894 0.0014578104 0.68257028
0.024922088 -0.043980122 0.68356001
0.024922088 -0.043980122 0.68356001
0.0073102503 0.062868178 0.68308258
0.026537431 -0.038331807 0.68456155
0.026537431 -0.029486001 0.68456149
0.026537431 -0.020640224 0.68456155
0.0059220754 -0.057740211 0.68531197
0.028171076 -0.053376734 0.68557382
0.028171076 -0.0385499 0.68557388
0.028171076 -0.031136423 0.68557382
0.028171076 -0.01927492 0.68557388
0.0059220754 -0.0059220493 0.68531197
0.0059220754 -0 0.68531197
0.028171076 2.9802322e-08 0.68557382
0.0059220754 0.010363609 0.68531203
0.028171076 0.032619178 0.68557382
0.028171076 0.040032595 0.68557388
0.028171076 0.044480681 0.68557382
0.029823506 -0.026841134 0.6865983
0.029823506 -0.0089470446 0.68659836
0.029823506 -0.0059646666 0.6865983
0.029823506 0.0089470744 0.6865983
0.029823506 0.01640296 0.6865983
0.029823506 0.058155835 0.68659836
0.029823506 0.059647053 0.6865983
0.03149486 -0.064489454 0.68763405
0.03149486 -0.058490455 0.68763411
0.0044983807 -0.011995643 0.68759835
0.0044983807 0.032988131 0.68759847
0.03149486 0.037493855 0.68763405
0.0044983807 0.041984886 0.68759847
0.033185668 -0.058829129 0.68868226
0.033185668 -0.034694076 0.68868232
0.033185668 0.0060337782 0.68868232
0.033185668 0.045253217 0.68868232
0.034896057 -0.048551053 0.68974221
0.034896057 0.0030344725 0.68974221
0.0030377854 0.051642388 0.68994415
0.036626596 -0.024417698 0.69081509
0.036626596 0.0091566741 0.69081515
0.036626596 0.048835486 0.69081509
0.036626596 0.061044365 0.69081509
0.0383774 -0.066009104 0.69190007
0.0383774 -0.030701935 0.69190007
0.0383774 -0.01381585 0.69190007
0.0383774 0.038377404 0.69190013
0.0383774 0.066009164 0.69190007
0.0015388352 -0.0030776262 0.6923514
0.040149085 0.0046325922 0.69299847
0.040149085 0.0046325922 0.69299847
0.0015388352 0.049242735 0.6923514
0.0015388352 0.052320391 0.69235146
0.040149085 0.064856261 0.69299847
0.041941758 -0.062135935 0.69410938
0 -0.059253514 0.69482207
0 -0.057694227 0.69482207
0.041941758 -0.038834959 0.69410932
0.041941758 -0.035728157 0.69410932
0.041941758 0.020194203 0.69410932
0 0.023389578 0.69482207
0 0.040541917 0.69482207
0 0.056134969 0.69482207
0.04375593 -0.056257576 0.69523352
0.04375593 -0.051569432 0.69523358
0.04375593 -0.0093762577 0.69523358
0.04375593 0.010938972 0.69523358
0.04375593 0.060945779 0.69523358
0.045592137 -0.028298557 0.69637197
0.045592137 -0.022009999 0.69637197
0.045592137 0.0047164559 0.69637191
0.045592137 0.017293602 0.69637197
0.045592137 0.017293602 0.69637197
0.045592137 0.031442881 0.69637197
-0.0015803286 -0.060052454 0.69736004
-0.0015803286 -0.053731143 0.6973601
0.047450483 -0.042705417 0.69752353
0.047450483 -0.034797043 0.69752353
-0.0015803286 -0.030026227 0.6973601
0.047450483 0.014235169 0.69752359
0.047450483 0.049032211 0.69752359
0.049331684 -0.057288378 0.69868982
0.049331684 -0.046148986 0.69868982
0.049331684 -0.015913427 0.69868988
0.049331684 -0.0015913248 0.69868982
0.049331684 0.052514404 0.69868982
0.049331684 0.060471088 0.69868982
-0.003203857 -0.040048182 0.69996744
-0.003203857 -0.017621189 0.69996744
-0.003203857 -0.0080096424 0.69996744
-0.003203857 -0.0032038391 0.69996744
0.05123584 0.011207849 0.69986987
0.05123584 0.011207849 0.69986987
0.05123584 0.022415698 0.69986981
0.05123584 0.024016827 0.69986981
0.05123584 0.038426906 0.69986987
0.053163707 -0.027387381 0.70106506
0.053163707 -0.011277139 0.70106506
0.053163707 0.043497622 0.701065
0.053163707 0.064440906 0.70106506
-0.0048723817 -0.037354916 0.70264709
0.055115383 -0.03566286 0.70227444
-0.0048723817 -0.021113634 0.70264709
0.055115383 0.022694558 0.7022745
-0.0048723817 0.030858397 0.70264709
-0.0048723817 0.032482594 0.70264703
0.055115383 0.032420814 0.7022745
-0.0048723817 0.034106702 0.70264709
0.055115383 0.050252259 0.7022745
0.055115383 0.050252259 0.7022745
-0.0048723817 0.05846858 0.70264709
0.055115383 0.064841628 0.7022745
0.057091683 -0.047304511 0.70349979
0.057091683 -0.04404214 0.70349973
0.057091683 -0.027730197 0.70349967
0.057091683 0.0081559718 0.70349967
0.057091683 0.030992657 0.70349979
0.057091683 0.040779799 0.70349973
0.057091683 0.048935771 0.70349973
0.057091683 0.061985284 0.70349973
0.059092686 -0.04431951 0.70473975
0.059092686 -0.0082072914 0.70473975
0.061119266 -0.056163669 0.70599616
0.061119266 -0.018170565 0.70599616
-0.0065877992 -0.011528641 0.70540196
-0.0065877992 2.9802322e-08 0.70540196
0.061119266 0.016518742 0.70599616
0.061119266 0.034689307 0.70599616
0.061119266 0.034689307 0.70599616
-0.0065877992 0.044467628 0.70540196
0.061119266 0.044600576 0.70599616
0.063171484 -0.031585753 0.70726794
0.063171484 -0.026598513 0.70726794
0.063171484 0.0033248365 0.70726794
0.063171484 0.034910589 0.70726794
-0.0083521139 -0.051783085 0.70823538
0.065250285 -0.043500155 0.70855665
-0.0083521139 -0.023385912 0.70823544
0.065250285 -0.018403918 0.70855665
-0.0083521139 -0.015033811 0.7082355
-0.0083521139 -0.013363361 0.70823544
0.065250285 0.021750122 0.70855665
-0.0083521139 0.026726782 0.70823544
0.065250285 0.028442442 0.70855671
0.065250285 0.051865608 0.70855665
0.067355715 -0.058936238 0.7098614
0.067355715 -0.033677846 0.7098614
0.067355715 0.010103375 0.7098614
0.067355715 0.060620159 0.7098614
0.069488771 2.9802322e-08 0.71118379
-0.010167412 0.0067782998 0.71115005
0.069488771 0.015253633 0.71118385
-0.010167412 0.02372399 0.71115011
0.071649514 -0.052884132 0.71252286
0.071649514 -0.010235608 0.7125228
0.071649514 0.020471305 0.7125228
0.071649514 0.020471305 0.7125228
0.071649514 0.046060383 0.7125228
0.071649514 0.046060383 0.7125228
0.071649514 0.05629611 0.7125228
0.073838994 -0.03434369 0.71388024
0.073838994 0.0034343898 0.71388024
0.073838994 0.029192179 0.71388018
0.073838994 0.030909359 0.71388018
-0.012036002 -0.030949712 0.71415102
-0.012036002 -0.029230297 0.71415097
-0.012036002 -0.022352576 0.71415102
-0.012036002 -0.0017194152 0.71415102
-0.012036002 0.039546877 0.71415097
-0.012036002 0.056741178 0.71415102
-0.013960236 -0.054095894 0.71724129
-0.013960236 0.019195348 0.71724129
-0.013960236 0.027920455 0.71724123
-0.013960236 0.055840969 0.71724129
-0.015942635 -0.014171213 0.72042501
-0.015942635 0.026571065 0.72042495
-0.015942635 0.061999172 0.72042495
-0.017985879 -0.025180191 0.72370631
-0.017985879 -0 0.72370636
-0.017985879 0.050360501 0.72370631
-0.017985879 0.052159071 0.72370636
-0.02009281 -0.012786329 0.72709
-0.02009281 0.047492146 0.72709
-0.02009281 0.065758288 0.72709
-0.022266455 -0.038966298 0.73058081
-0.022266455 -0.035255194 0.73058081
-0.022266367 0.037110627 0.73057997
-0.024510033 -0.049020052 0.73418397
-0.024509937 0.041478366 0.73418301
-0.026826868 -0.045988888 0.73790395
-0.026826868 -0.044072688 0.73790395
-0.026826868 -0.042156488 0.73790395
-0.026826868 -0.0019161701 0.73790395
-0.026826868 0.024910688 0.73790395
-0.029220818 -0.044805229 0.74174851
-0.029220818 -0.038961083 0.74174857
-0.029220818 -0.037013024 0.74174851
-0.029220818 -0.035064965 0.74174857
-0.029220818 0.01363641 0.74174857
-0.029220818 0.021428615 0.74174851
-0.034255672 -0.056421101 0.74983436
-0.034255672 -0.050375968 0.74983436
-0.034255672 0.034255713 0.7498343
-0.034255672 0.056421101 0.74983436
-0.034255672 0.058436155 0.74983436
-0.034255672 0.06045118 0.74983436
-0.036905054 0.055357575 0.75408834
-0.03964911 -0.043822676 0.75849599
-0.03964911 -0.041735888 0.75849605
-0.039648935 -0.0083471239 0.75849491
-0.042492483 -0.061614096 0.76306236
-0.042492483 -0.059489459 0.76306236
-0.042492483 -0.057364821 0.76306236
-0.042492483 -0.055240214 0.76306236
-0.042492483 -0.040367872 0.76306236
-0.042492293 -0.031869173 0.76306123
-0.042492293 -0.0063738525 0.76306129
-0.042492293 -0.0042492151 0.76306129
-0.042492293 -0.0021245778 0.76306129
-0.042492293 0.053115368 0.76306129
-0.042492293 0.055240005 0.76306123
-0.042492293 0.057364613 0.76306123
-0.042492293 0.05948922 0.76306129
-0.042492293 0.061613828 0.76306129
-0.045440644 -0.045440644 0.76779616
-0.045440644 -0.0064914823 0.76779616
-0.048499908 -0.050704449 0.77270925
-0.051676467 -0.011233956 0.77781069
-0.051676467 -0.0089872181 0.77781069
-0.054976929 0.041232705 0.78311014
-0.054976929 0.061849117 0.78311014
-0.054976929 0.064139754 0.7831102
-0.058409523 -0.053736746 0.78862369
-0.058409236 0.023363709 0.78862238
-0.058409236 0.065418363 0.78862232
-0.061981481 -0.014303356 0.7943601
-0.061981481 -0.0095355809 0.7943601
-0.061981164 0.05244562 0.79435867
-0.07785064 -0.062280476 0.81984431
-0.07785064 -0.059685469 0.81984437
-0.07785064 -0.057090461 0.81984431
-0.07785064 -0.031140268 0.81984437
-0.07785064 0.023355216 0.81984431
-0.07785064 0.025950223 0.81984431
-0.07785064 0.059685498 0.81984437
0.012625827 -0.049100429 0.6759389
0.012625827 0.053309083 0.67593896
0.014852048 -0.036771759 0.67731845
0.014852048 -0.036771759 0.67731845
0.014852048 -0.021214455 0.67731845
0.014852048 -0.021214455 0.67731845
0.014852048 -0.012728676 0.67731845
0.011274502 0.0091605335 0.67671669
0.014852048 0.0091929734 0.67731845
0.014852048 0.016971603 0.67731845
0.014602902 0.023078471 0.67716408
0.014852048 0.041014686 0.67731845
0.014852048 0.041014686 0.67731845
0.018638628 -0.058783323 0.67966533
0.0099852579 -0.057058632 0.67878711
0.0099852579 -0.052779198 0.67878717
0.017110767 -0.051332295 0.67871857
0.018638628 -0.028674811 0.67966533
0.0099852579 -0.022823453 0.67878717
0.018638628 0.063084602 0.67966533
0.018638628 0.063084602 0.67966533
0.0086642178 -0.046931162 0.6809082
0.02122475 -0.042927366 0.68126839
0.020964425 -0.015179686 0.6811071
0.0086642178 -0.0050541162 0.68090814
0.0086642178 0.0086642504 0.68090814
0.0086642178 0.059205472 0.68090814
0.024922088 -0.035184115 0.68356001
0.0073102503 -0.032896101 0.68308258
0.023324894 -0.026969388 0.68257034
0.023324894 -0.023324877 0.68257034
0.024922088 -0.01099503 0.68356001
0.023324894 0.01676479 0.68257028
0.0073102503 0.01900667 0.68308264
0.023324894 0.026969433 0.68257028
0.024922088 0.058640212 0.68356001
0.0073102503 0.067254335 0.68308264
0.028171076 -0.053376734 0.68557382
0.028171076 -0.053376734 0.68557382
0.0059220754 -0.048857123 0.68531203
0.0059220754 -0.042935014 0.68531197
0.026537431 0.011057302 0.68456149
0.026537431 0.01474303 0.68456155
0.0059220754 0.019246757 0.68531203
0.028171076 0.042997986 0.68557388
0.0059220754 0.059220761 0.68531197
0.029823506 -0.041007295 0.68659836
0.03149486 -0.020996571 0.68763405
0.029823506 -0.019385248 0.68659836
0.0044983807 -0.017243773 0.68759847
0.029823506 -0.0089470446 0.68659836
0.029823506 -0.0089470446 0.68659836
0.029823506 -0.0029822886 0.68659836
0.0044983807 -0.0014994442 0.68759841
0.0044983807 0.035237342 0.68759847
0.03149486 0.049491972 0.68763405
0.0044983807 0.055480033 0.68759841
0.033185668 -0.063354433 0.68868232
0.034896057 -0.047033787 0.68974221
0.034896057 -0.045516551 0.68974221
0.0030377854 -0.027340055 0.68994409
0.033185668 -0.018855453 0.68868232
0.0030377854 -0.010632217 0.68994415
0.033185668 -0.0030168593 0.68868232
0.033185668 0.015084416 0.68868232
0.033185668 0.015084416 0.68868232
0.034896057 0.015172243 0.68974221
0.0030377854 0.02885896 0.68994415
0.0030377854 0.068350196 0.68994409
0.036626596 -0.064859599 0.69081509
0.036626596 -0.032811299 0.69081509
0.036626596 -0.016787171 0.69081509
0.0383774 -0.016886026 0.69190007
0.036626596 0.0030522346 0.69081509
0.0383774 0.033004567 0.69190007
0.0383774 0.035307229 0.69190007
0.0383774 0.05526346 0.69190001
0.036626596 0.061044365 0.69081509
0.040149085 -0.052502632 0.69299841
0.040149085 -0.043237448 0.69299847
0.040149085 -0.023162931 0.69299847
0.040149085 -0.023162931 0.69299847
0.0015388352 -0.018465996 0.6923514
0.040149085 -0.010809362 0.69299847
0.040149085 0.0030884147 0.69299847
0.040149085 0.057135224 0.69299847
0.04375593 -0.057038948 0.69523352
0.04375593 -0.054694921 0.69523358
0 -0.017152309 0.69482213
0 0.012474477 0.69482213
0 0.017152339 0.69482213
0.04375593 0.025003403 0.69523352
0.04375593 0.032816976 0.69523352
-0.0015803286 -0.04899019 0.69736016
0.045592137 -0.042447865 0.69637197
-0.0015803286 -0.025285274 0.6973601
0.045592137 -0.020437837 0.69637197
0.047450483 -0.01265344 0.69752353
0.045592137 -0.0015721619 0.69637197
0.045592137 0.014935389 0.69637197
0.045592137 0.018865705 0.69637203
-0.003203857 -0.062475175 0.69996744
0.05123584 -0.062443674 0.69986981
0.05123584 -0.059241384 0.69986975
0.049331684 -0.057288378 0.69868982
0.049331684 -0.033418208 0.69868982
0.05123584 -0.024817348 0.69986987
0.05123584 -0.014410049 0.69986981
0.05123584 0.011207849 0.69986987
-0.003203857 0.030436665 0.69996744
-0.003203857 0.035242438 0.69996744
0.049331684 0.035009593 0.69868988
0.049331684 0.042966336 0.69868982
0.049331684 0.050923049 0.69868982
0.053163707 -0.037053496 0.70106506
0.053163707 0.045108646 0.70106506
0.057091683 -0.055460483 0.70349973
0.055115383 -0.012968361 0.7022745
-0.0048723817 -0.0032482445 0.70264709
-0.0048723817 0.00081209838 0.70264709
0.057091683 0.0048936009 0.70349973
0.057091683 0.0065247715 0.70349979
0.059092686 -0.052526772 0.70473975
0.061119266 -0.021474332 0.70599616
0.061119266 -0.021474332 0.70599616
0.061119266 -0.011563092 0.7059961
0.061119266 -0.011563092 0.7059961
0.059092686 -0.0065658391 0.70473975
0.061119266 0.021474361 0.70599616
-0.0065877992 0.023057312 0.70540196
0.061119266 0.026429951 0.70599616
0.059092686 0.032829285 0.70473975
0.059092686 0.039395124 0.70473975
0.061119266 0.044600576 0.70599616
-0.0065877992 0.049408525 0.70540196
0.061119266 0.051208079 0.7059961
0.063171484 -0.061509073 0.70726794
0.063171484 -0.061509073 0.70726794
0.063171484 0.00083121657 0.70726794
0.063171484 0.00083121657 0.70726794
0.063171484 0.016624063 0.70726794
0.063171484 0.021611333 0.70726788
0.063171484 0.056521863 0.70726788
0.063171484 0.059015498 0.70726788
-0.0083521139 -0.056794345 0.70823538
0.067355715 -0.057252347 0.70986146
0.065250285 -0.055211753 0.70855665
0.067355715 -0.047149003 0.7098614
0.067355715 -0.047149003 0.7098614
0.067355715 -0.038729489 0.7098614
-0.0083521139 -0.025056332 0.7082355
0.065250285 -0.016730845 0.70855665
0.067355715 -0.0084194541 0.7098614
0.067355715 -0.0050516725 0.7098614
0.065250285 0.038480967 0.70855665
0.067355715 0.065671831 0.7098614
-0.010167448 -0.055073649 0.71115077
-0.010167448 -0.047448039 0.71115077
-0.010167412 -0.03897509 0.71115011
0.069488771 -0.027117521 0.71118379
0.069488771 -0.01864332 0.71118379
-0.010167412 -0.0067782402 0.71115005
-0.010167412 0.0084728599 0.71115005
0.069488771 0.025422722 0.71118385
0.069488771 0.025422722 0.71118385
-0.010167412 0.02711311 0.71115005
0.069488771 0.047455758 0.71118385
0.069488771 0.050845474 0.71118385
-0.010167412 0.06439364 0.71115005
0.071649514 0.01876536 0.71252286
0.073838994 0.036919504 0.71388024
0.073838994 0.036919504 0.71388024
-0.012036045 -0.061039954 0.71415174
-0.013960236 -0.0017450154 0.71724123
-0.013960236 0.0052351058 0.71724123
-0.013960236 0.015705258 0.71724129
-0.013960236 0.024430454 0.71724129
-0.013960236 0.031410545 0.71724123
-0.013960236 0.057586014 0.71724123
-0.015942635 0.040742308 0.72042489
-0.015942635 0.058456331 0.72042495
-0.017985879 -0.046763271 0.72370636
-0.017985879 -0.030575961 0.72370631
-0.017985879 0.01978448 0.72370631
-0.017985879 0.028777421 0.72370631
-0.017985879 0.035072476 0.72370636
-0.02009281 0.0091331005 0.72708994
-0.022266367 0.012988746 0.73057991
-0.024510033 -0.045249283 0.73418397
-0.024509937 -0.03016603 0.73418301
-0.024509937 -0.0018853843 0.73418301
-0.026826974 -0.059402585 0.73790491
-0.026826868 0.0057485998 0.73790395
-0.026826868 0.022994488 0.73790395
-0.026826868 0.024910688 0.73790395
-0.029220818 -0.01363638 0.74174851
-0.029220818 0.01363641 0.74174857
-0.029220818 0.038961112 0.74174851
-0.029220818 0.038961112 0.74174851
-0.031695694 0.055467486 0.74572307
-0.034255672 -0.038285732 0.74983436
-0.034255672 -0.018135339 0.7498343
-0.034255672 -0.012090236 0.74983436
-0.034255672 0.058436155 0.74983436
-0.036905218 -0.063558966 0.75408942
-0.036905218 -0.030754298 0.75408947
-0.036905054 0.030754238 0.75408834
-0.036905054 0.041005611 0.75408834
-0.036905054 0.057407916 0.75408828
-0.03964911 -0.043822676 0.75849599
-0.03964911 -0.018781126 0.75849605
-0.039648935 0.031301826 0.75849485
-0.042492483 -0.061614096 0.76306236
-0.042492483 -0.057364821 0.76306236
-0.042492293 -0.01699689 0.76306123
-0.042492293 0.0063738823 0.76306129
-0.042492293 0.012747705 0.76306123
-0.042492293 0.055240005 0.76306123
-0.042492293 0.05948922 0.76306129
-0.045440644 5.9604645e-08 0.76779616
-0.045440644 0.019474596 0.76779616
-0.048499908 -0.026454479 0.77270925
-0.051676467 -0.047182828 0.77781069
-0.051676467 -0.033702046 0.77781069
-0.051676467 -0.033702046 0.77781069
-0.051676467 -0.022468001 0.77781069
-0.051676467 0.011234045 0.77781069
-0.051676467 0.06066373 0.77781069
-0.054977197 0.022907168 0.78311145
-0.054976929 0.038942039 0.78311014
-0.054976929 0.05497697 0.78311014
-0.058409523 -0.053736746 0.78862369
-0.058409523 -0.053736746 0.78862369
-0.058409523 -0.042054832 0.78862369
-0.058409523 -0.035045683 0.78862369
-0.058409523 -0.0093455315 0.78862375
-0.058409523 -0.0023363531 0.78862369
-0.058409523 0.0070091486 0.78862375
-0.058409236 0.018690974 0.78862226
-0.058409236 0.051400125 0.78862232
-0.061981164 0.050061703 0.79435867
-0.06570176 -0.048667997 0.80033475
-0.06570176 -0.048667997 0.80033475
-0.06570176 -0.043801129 0.80033469
-0.06570176 -0.021900594 0.80033469
-0.06957943 -0.0049699545 0.80656111
-0.06957943 0.029819816 0.80656117
-0.073625445 0.010155231 0.81305885
-0.07785064 -0.025950193 0.81984431
-0.07785064 -0.020760149 0.81984431
-0.07785064 0.0025950372 0.81984431
-0.07785064 0.010380089 0.81984437
0.012625827 -0.057868354 0.67593896
0.010629879 -0.053877626 0.6777519
0.017874697 -0.033958182 0.67919195
0.014727475 -0.022146445 0.67724127
0.014852049 0.042075399 0.67731845
0.017874697 0.042000454 0.67919195
0.010629879 0.061854359 0.6777519
0.010629879 0.061854359 0.6777519
0.024922088 -0.061938696 0.68356001
0.02214466 -0.0097992606 0.68183869
0.0073102503 -0.0062136948 0.68308258
0.022144658 -0.0021775998 0.68183863
0.02214466 0.0018147156 0.68183863
0.0073102503 0.013889492 0.68308258
0.022144658 0.02213913 0.68183863
0.024922088 0.022356592 0.68356001
0.0086642178 0.029963776 0.6809082
0.02214466 0.062060609 0.68183869
0.029829815 -0.026096096 0.68660206
0.0052102283 -0.010057401 0.68645525
0.0052102283 0.010057438 0.68645519
0.0052102283 0.050099734 0.68645525
0.026537431 0.053812027 0.68456149
0.034040865 -0.062024903 0.6892122
0.037501998 -0.014158048 0.69135755
0.034040861 0.0298784 0.68921226
0.041948926 -0.014108805 0.69411385
0.041948926 0.058123615 0.69411373
0.04652131 -0.049869251 0.69694775
0.04652131 -0.049869251 0.69694775
-0.0023920927 -0.02605338 0.69866371
-0.0023920927 0.013722166 0.69866377
0.05028376 0.0137669 0.6992799
-0.0023920927 0.026053406 0.69866383
-0.0023920927 0.026053406 0.69866383
0.05028376 0.050081201 0.69927984
0.05028376 0.050081201 0.69927984
0.046521306 0.065638408 0.69694781
-0.0048723817 -0.054408237 0.70264703
0.057091683 -0.038332984 0.70349979
0.054139547 -0.029896557 0.70166975
0.054139547 0.0056561083 0.70166981
0.057091683 0.025691271 0.70349979
0.057091683 0.030177072 0.70349979
0.057091683 0.041595384 0.70349973
0.054139547 0.065650657 0.70166975
0.057091683 0.066063255 0.70349979
0.062145375 -0.025685638 0.70663202
-0.0065877992 -0.013999075 0.70540202
0.062145375 -0.014085673 0.70663202
0.062145375 -0.0057999715 0.70663202
-0.0065877992 0.0057643354 0.70540202
0.062145375 0.0058000013 0.70663202
0.062145375 0.030242816 0.70663202
0.066303 -0.04972453 0.70920908
0.069488771 -0.046184577 0.71118379
-0.0092597622 -0.034279332 0.70969278
-0.0092597622 -0.0058887228 0.70969278
0.066303 0.0020981207 0.70920908
-0.0092597632 0.017666206 0.70969272
-0.0092597622 0.058046125 0.70969278
0.066303 0.057907879 0.70920902
0.066303 0.057907879 0.70920902
-0.0092597632 0.065823138 0.70969278
0.073838994 -0.018030435 0.71388018
0.073838994 0.018030465 0.71388024
0.071649514 0.03369236 0.71252286
-0.017985879 -0.058454111 0.72370636
-0.017985879 -0.058454111 0.72370636
-0.015942635 -0.034542367 0.72042489
-0.017985879 0.033723533 0.72370636
-0.015942635 0.054027826 0.72042489
-0.02009281 0.00228329 0.72709
-0.02009281 0.022376105 0.72709
-0.02009281 0.050232038 0.72709
-0.022266367 0.010205433 0.73057985
-0.022266367 0.049635477 0.73057991
-0.024509937 0.034408197 0.73418301
-0.024509937 0.061274841 0.73418307
-0.026826868 -0.014371499 0.73790389
-0.026826868 -0.014371499 0.73790389
-0.026826868 0.014371559 0.73790395
-0.026826868 0.018203959 0.73790395
-0.026826868 0.018203959 0.73790395
-0.029220818 0.061363727 0.74174857
-0.029220818 0.065259844 0.74174857
-0.034255672 0.013097793 0.74983436
-0.034255672 0.033248186 0.74983436
-0.036905218 -0.046131507 0.75408947
-0.036905218 -0.042030886 0.75408947
-0.036905218 -0.042030886 0.75408947
-0.036905054 -0.0051256865 0.7540884
-0.036905054 0.0051257163 0.75408834
-0.042492293 0.037180752 0.76306123
-0.042492293 0.049928471 0.76306123
-0.042492293 0.058426917 0.76306129
-0.045440644 0.025966108 0.76779616
-0.048499908 -0.049602166 0.77270925
-0.048499908 -0.049602166 0.77270925
-0.048499908 -0.0022045374 0.77270925
-0.048499908 -0.0022045374 0.77270925
-0.051676467 -0.04605943 0.77781069
-0.051676467 -0.03819567 0.77781069
-0.051676467 0.034825459 0.77781069
-0.054977197 -0.010308221 0.78311145
-0.058409523 0.0058409721 0.78862369
-0.061981481 -0.058405593 0.79436016
-0.061981481 -0.034566551 0.79436016
-0.061981164 -0.0059597045 0.79435861
-0.061981164 0.04171811 0.79435861
-0.061981164 0.050061703 0.79435867
-0.06570176 -0.049884662 0.80033475
-0.065701418 0.025550589 0.80033326
-0.065701418 0.058401287 0.8003332
-0.06957943 0.018637374 0.80656117
-0.073625445 -0.013963416 0.81305885
-0.07785064 0.0064875633 0.81984437
