# .PCD v0.7 - Point Cloud Data file format
VERSION 0.7
FIELDS x y z
SIZE 4 4 4
TYPE F F F
COUNT 1 1 1
WIDTH 644
HEIGHT 1
VIEWPOINT 0 0 0 1 0 0 0
POINTS 644
DATA ascii
0.002577866 0.065305978 0.69869673
-0.0043169549 0.062595397 0.69968712
0.00043095776 0.062484711 0.69931853
0.0077700536 0.064750433 0.69967467
-0.0064646024 0.065505788 0.6993314
0.001723473 0.066353709 0.69928771
0.010420882 0.064262122 0.70089805
-0.0043499609 0.060029507 0.70128083
-0.0095765423 0.062682837 0.70142627
-0.0017487231 0.057707876 0.70233566
-0.0034928927 0.058505952 0.70206088
-0.0065548765 0.059428573 0.70223618
0.011374943 0.062561721 0.70248878
0.013995458 0.065603733 0.70242131
-0.011358364 0.068150222 0.70218086
0.0043884027 0.057049245 0.70313692
0.0043884027 0.057049245 0.70313692
-0.015834061 0.066414744 0.70361727
0.0061960411 0.054879218 0.70493996
0.014155419 0.061929971 0.70483488
0.016757619 0.067471609 0.70417488
-0.005329201 0.053292066 0.70567656
-0.00088585075 0.053151041 0.70510942
-0.0053173266 0.054059505 0.70519876
-0.01243008 0.058598965 0.7055952
-0.018678995 0.069379151 0.70598459
-0.00088980491 0.051608711 0.70606399
0.014286013 0.058929771 0.70680541
0.015192172 0.059875071 0.70699406
-0.015155035 0.060620129 0.70646667
0.018681452 0.069388241 0.70601285
0.0017919936 0.049279869 0.70755887
0.011621529 0.055425823 0.70706803
-0.0027011761 0.04772082 0.70861995
-0.0027011761 0.04772082 0.70861995
0.0035954735 0.048538893 0.70825219
-0.0089881346 0.051232368 0.70823884
-0.014417377 0.055867344 0.7087875
0.018908232 0.063927859 0.70861995
-0.0018164607 0.044503331 0.71051234
0.00045402622 0.044492155 0.71045744
0.0036365788 0.044548124 0.71073306
-0.01363286 0.05180487 0.71066368
0.01452051 0.053544402 0.71034372
0.016335042 0.056265116 0.71033657
-0.019088639 0.06090188 0.71069396
-0.0036447374 0.043736875 0.71122545
0.013699098 0.050230086 0.71172976
-0.017310485 0.056486905 0.71119982
-0.017310485 0.056486905 0.71119982
-0.021882372 0.073853046 0.71136582
-0.0018331716 0.041246355 0.71252942
-0.0073266295 0.043501362 0.71234679
0.0091660712 0.044454932 0.71253467
0.013763611 0.04863143 0.71276808
0.020124556 0.061288446 0.71208692
-0.011053823 0.044215322 0.71363187
-0.015624662 0.050550371 0.71313596
-0.017519496 0.052558511 0.71385562
0.0018502951 0.037931025 0.71459651
-0.0027700751 0.038781077 0.71416456
-0.0027700751 0.038781077 0.71416456
-0.001845906 0.03876403 0.71406668
0.0055528362 0.038869858 0.71467501
-0.014794866 0.047158659 0.71448338
-0.019420056 0.055485904 0.714504
-0.019420056 0.055485904 0.714504
-0.021260977 0.060546979 0.71441364
0.021274064 0.060584277 0.71455097
0.024082603 0.074100345 0.71486366
0.023129888 0.075866014 0.71460807
-0.0083608637 0.039017409 0.71552289
0.013024215 0.0427939 0.71584064
0.0004667856 0.034540549 0.71661961
0.015894316 0.044878095 0.71696532
-0.018668637 0.050405353 0.71659648
0.003756813 0.03287214 0.71798986
0.0075094821 0.034731358 0.71786481
0.011294565 0.036707371 0.71847522
-0.0018896577 0.030234545 0.71934795
-0.017017525 0.042543828 0.71949023
-0.022666134 0.057609737 0.71924984
0 0.019980192 0.72094327
-0.014231014 0.037000656 0.72029084
0.017109269 0.040872186 0.72072077
0.017109269 0.040872186 0.72072077
-0.00095368543 0.026703209 0.72148615
-0.0028561677 0.027609587 0.72109276
-0.017187696 0.039149791 0.72177261
0.00047913677 0.024913982 0.72258317
0.0038384018 0.02494961 0.72291416
0.010557144 0.028792232 0.72294796
-0.020124052 0.044081241 0.72259736
-0.0057741664 0.024539635 0.7235806
-0.0057741664 0.024539635 0.7235806
-0.010619489 0.026548147 0.72431624
-0.017405396 0.034810841 0.72469246
0.00096850866 0.013559133 0.72506475
-0.0087163411 0.023243606 0.72505844
-0.0087163411 0.023243606 0.72505844
0.018427918 0.03588596 0.72539842
0.020410586 0.039849252 0.72589147
-0.023265734 0.050409108 0.7252813
0.0019500625 0.011700392 0.72663939
0.0019451877 0.012643754 0.72605103
-0.0068090307 0.020427108 0.72608113
0.012675652 0.024376243 0.7266441
-0.013638264 0.026302397 0.72642952
-0.018512027 0.034101129 0.72646707
0.021427721 0.081814945 0.72638744
0.021427721 0.081814945 0.72638744
0 0.0088204741 0.72785211
-0.0029401274 0.010780483 0.72784925
0.0039064279 0.014649153 0.72701985
-0.0097742723 0.020525992 0.72721791
0.012707349 0.023459703 0.72723275
0.012707349 0.023459703 0.72723275
-0.0058858343 0.016676515 0.72807378
0.010805144 0.019645721 0.72839093
-0.015745506 0.024602354 0.72882748
-0.017673928 0.029456556 0.72829413
-0.021589942 0.039254457 0.72816759
0.019774523 0.031639218 0.72994572
-0.019703893 0.032511443 0.72909313
0.021737972 0.03754741 0.72979206
-0.019696757 0.081741571 0.72900701
-0.016785543 0.081458762 0.72962189
0.00049530854 0.0049515367 0.7303251
-0.0098970784 0.015835375 0.73018271
0.0079717478 0.011957645 0.73181486
-0.01093728 0.014914483 0.73129094
0.018890165 0.030820817 0.73127186
-0.021893704 0.034830898 0.73150098
0.0020001307 0.0020001233 0.73268324
-0.0030006999 0.0030007064 0.73272383
-0.0030006999 0.0030007064 0.73272383
-0.0049897754 0.0089816153 0.7321738
-0.0049897754 0.0089816153 0.7321738
-0.010992765 0.012991458 0.73250872
-0.013962905 0.016954958 0.73202777
-0.010048534 0.010048568 0.73383921
0.01905838 0.02708295 0.73340929
0.0020156654 -0.0010078251 0.73455846
-0.016116494 0.01611647 0.73442525
-0.018153349 0.01916185 0.73472422
-0.020136133 0.024163365 0.73431075
0.021151621 0.027194947 0.73441052
-0.014080899 0.084485382 0.73406249
0.004042143 0.0020210743 0.73521101
-0.0080910511 0.0060682893 0.73541516
-0.0070692962 0.006059438 0.73505735
-0.019216403 0.02022782 0.73541719
-0.021241071 0.025287002 0.73543894
0.022239063 0.029315144 0.73529088
0.011134615 0.082496881 0.73562187
0.012141043 0.082963794 0.73550504
0.016188532 0.082459867 0.7355122
0.002031435 -0.0040628612 0.736462
0.0050839954 0.0020335913 0.73672318
-0.013196238 0.0822227 0.73631179
0 0.088300407 0.73627603
-0.0081747277 0.0020436943 0.73794031
-0.0091891745 0.0030630529 0.73774195
-0.018349966 0.015291631 0.73736131
0.020386275 0.020386308 0.73733026
-0.010197708 0.087700307 0.73744053
-0.0030655102 0.087877959 0.73793936
0.009166019 0.088604867 0.73712087
0.0020474535 -0.0071660578 0.73839557
0.003066387 -0.0051106513 0.73800987
-0.0061446992 5.9604645e-08 0.73848969
-0.011250451 0.004091084 0.73816425
0.0122805 0.0051168799 0.73831064
-0.019481819 0.015380412 0.73878962
-0.0092135035 0.087016404 0.73839462
-0.0061552562 0.088225365 0.73891449
-0.0030800276 -0.0071867108 0.73910761
0.0092406897 0.0010267496 0.73912388
-0.017476728 0.01028043 0.73943758
-0.010282499 0.084316492 0.73948759
0 -0.011349529 0.74033833
0.0030991049 -0.0092973113 0.74064285
-0.021672793 0.018576682 0.74040204
-0.024751343 0.03300181 0.74022543
-0.0072327675 0.084726691 0.74069536
0.0062059998 0.084815353 0.74095625
0.0051783673 -0.0051783323 0.74127978
0.0051783673 -0.0051783323 0.74127978
0.01971673 0.012452692 0.74177456
0.016608041 0.017646074 0.74184203
0.017590066 0.017590046 0.7410472
-0.024897391 0.03112179 0.74169451
0.0031041293 0.081742078 0.74104714
0.0010407704 -0.014570773 0.74251032
-0.011459631 -0.0031253397 0.74275517
-0.010393177 -0.0031179488 0.74215961
-0.020825373 0.01249522 0.7426306
-0.026005091 0.034326732 0.74237347
-0.0051960275 0.083136469 0.74213248
-0.0051960275 0.083136469 0.74213248
-0.016729649 0.002091229 0.74367702
0.018793758 0.01148507 0.74331361
0.027205806 0.031391352 0.74386394
0.027134987 0.032353282 0.74320626
-0.018913023 0.0042029321 0.74491322
-0.0052721286 -0.012653112 0.74580699
0.0052758418 -0.012661994 0.74598628
-0.0073697665 -0.010528237 0.74542028
0.018969588 0.0073770881 0.74567187
0.017924029 0.0094892085 0.74578989
0.024240553 0.022132725 0.74568903
-0.0021128496 -0.020072043 0.74628961
-0.010588706 -0.010588706 0.74688005
-0.013731784 -0.0063377619 0.74625736
0.0085074762 -0.013824642 0.74798197
-0.018062111 -0.0021249056 0.74775082
0.0042688902 -0.019209981 0.74889642
0.0042688902 -0.019209981 0.74889642
0.0042688902 -0.019209981 0.74889642
-0.0085274493 -0.014923036 0.74858463
0.01171501 -0.011714995 0.7483601
0.021295033 0.0053237677 0.7482999
-0.028737288 0.027672946 0.74820143
-0.028737288 0.027672946 0.74820143
-0.002141855 -0.025702268 0.74979091
-0.002141855 -0.025702268 0.74979091
0.0064120335 -0.017098784 0.74924648
-0.013882125 -0.01067853 0.74904925
-0.0010718681 -0.026796669 0.750018
0.017161286 0.0032177269 0.7501899
0.026832687 0.020392835 0.75036544
-0.018320501 -0.0075437129 0.7514202
-0.01940361 -0.005389899 0.7514931
-0.025875829 0.017250597 0.75153685
0.026904711 0.01937142 0.75106096
-0.0054030688 -0.022692889 0.75212938
0.0054065483 -0.022707462 0.75229734
0.0097494433 -0.02058211 0.75277102
-0.015130031 -0.014049292 0.75215411
-0.023782644 0.0075671971 0.75222969
0.024906615 0.014077663 0.75268042
-0.017348269 -0.011926949 0.75301123
0.027196839 0.015230238 0.75388205
0.018506566 -0.0054430664 0.75406259
-0.025081515 0.010904998 0.75451624
-0.0261507 0.013075382 0.75430179
-0.0261507 0.013075382 0.75430179
-0.010941634 -0.024071604 0.75540054
-0.020814594 -0.0087640285 0.75572443
0.0032924837 -0.034022331 0.75620472
-0.016511818 -0.019814193 0.75699985
-0.0208774 -0.0098892748 0.75652242
-0.0011020827 -0.038572878 0.75731242
0.0033113826 -0.036425203 0.7577256
-0.008812624 -0.028640985 0.75719059
-0.026430773 0.0088102818 0.75711918
-0.0044199154 -0.034254313 0.75801158
0.024369812 0.002215445 0.75867307
-0.017804144 -0.022255152 0.7598899
0.0066828555 -0.034528047 0.76014346
0.0066828555 -0.034528047 0.76014346
0.020081198 -0.017849952 0.76058114
0.025689209 0.0022338331 0.76089489
0.0022354908 -0.043592066 0.76109374
-0.0089625055 -0.035850018 0.76171362
0.01905898 -0.019058973 0.76190758
0.020143177 -0.019024104 0.76141238
-0.02022605 -0.021349728 0.76252395
0.019106586 -0.020230502 0.76258367
-0.021329315 -0.017961502 0.76226467
-0.028108401 0.0022487044 0.76268482
-0.028108401 0.0022487044 0.76268482
0 -0.04845795 0.76331091
-0.0067558228 -0.039408952 0.7630794
0.0078986082 -0.039493024 0.76365936
-0.013549638 -0.035003245 0.76384383
-0.014647372 -0.032674879 0.7632606
0.018022828 -0.019149244 0.76318961
-0.025950814 -0.0022565722 0.76364088
-0.025950814 -0.0022565722 0.76364088
-0.009039334 -0.039547086 0.76403219
0.026043369 -0.0033969581 0.76461238
0.028262982 0.0011305511 0.76417756
-0.010221138 -0.040884554 0.76542401
-0.026167249 -0.0056885481 0.76591277
0.0068368409 -0.044439465 0.76633936
-0.013668329 -0.038726926 0.76623166
0.019347874 -0.026176512 0.76601017
0.019347874 -0.026176512 0.76601017
-0.010310299 -0.044677943 0.76781571
-0.010310299 -0.044677943 0.76781571
0.017179031 -0.025195867 0.76773846
0.0022947607 -0.055074245 0.7682482
0.0022947607 -0.055074245 0.7682482
-0.0057331678 -0.048158646 0.76806796
-0.014951464 -0.041404009 0.76890785
0.02640646 -0.0091848373 0.76842368
0.0069165416 -0.049568534 0.76954627
0.018426282 -0.029942691 0.76927722
0.018426282 -0.029942691 0.76927722
-0.0034646885 -0.056589872 0.77006269
-0.0034646885 -0.056589872 0.77006269
-0.015085729 -0.045257181 0.77140129
0.017406205 -0.031331152 0.77139473
0.022021711 -0.028975964 0.77106255
0.0023290701 -0.061720341 0.77238977
0.010501101 -0.052505463 0.7729339
0.026781812 -0.015137553 0.77236354
0.017499795 0.0093332529 0.77290106
-0.0035064013 -0.061946392 0.7734195
-0.0116909 -0.052608997 0.77348936
0.0011719322 -0.065628201 0.77417564
-0.0093882103 -0.05632925 0.77456045
-0.017629359 -0.047011584 0.77498633
0.024672177 -0.022322416 0.77488369
-0.0258085 -0.019942909 0.77446079
0.011807598 -0.056676477 0.77630675
0 -0.071099252 0.77732754
0.017781556 -0.041490287 0.77743596
-0.026108691 -0.024921924 0.77775502
0.0059443396 -0.064198852 0.77826422
0.0059443396 -0.064198852 0.77826422
-0.0083212042 -0.063003361 0.77823424
-0.014295353 -0.058372676 0.77884638
0.011951949 -0.062150121 0.77979171
-0.017905427 -0.053716242 0.77942961
0.017918507 -0.045393556 0.77964014
0.017918507 -0.045393556 0.77964014
-0.019159641 -0.052688986 0.78034276
-0.022787193 -0.043175727 0.78078902
0.010822833 -0.066139549 0.78156424
0.010822833 -0.066139549 0.78156424
0.024019681 -0.036029518 0.78118938
-0.027634308 -0.028835803 0.78131187
0.0084536383 -0.070044398 0.78280169
0.027773023 -0.030188084 0.78276789
0.0036357825 -0.077563345 0.78383136
0.0096844891 -0.070212543 0.78350145
-0.010879783 -0.068905264 0.78309184
-0.014518373 -0.065332711 0.7833333
0.020570979 -0.053242505 0.78337991
0.020570979 -0.053242505 0.78337991
0.020570979 -0.053242505 0.78337991
0.022983091 -0.044756532 0.78327817
-0.026648721 -0.033916533 0.78368109
0.0024311922 -0.081444889 0.78471696
-0.025488632 -0.036412328 0.78426993
-0.0012189246 -0.08410576 0.78552055
0.001219501 -0.084145576 0.78565973
0.026834384 -0.036592335 0.78571856
-0.006124103 -0.078388512 0.78694391
-0.0085526826 -0.075752348 0.78621757
0.010991851 -0.073278964 0.786098
-0.017098434 -0.065951079 0.786098
-0.019536585 -0.061051786 0.78603041
-0.0049112565 -0.081035703 0.78766668
0.0110263 -0.074733764 0.78702211
-0.025808921 -0.041785896 0.78795207
-0.0049267067 -0.082522333 0.78859913
-0.025886877 -0.043144822 0.78884828
-0.012353501 -0.077827066 0.78948605
0.025918549 -0.043197572 0.78921235
0.025918549 -0.043197572 0.78921235
0.0037183706 -0.0880014 0.79047751
-0.01115362 -0.080553919 0.79043746
-0.024756879 -0.048275888 0.79008812
0.024791472 -0.047103792 0.79050559
-0.0099822208 -0.084848881 0.79248625
0.018742746 -0.068723381 0.79290605
-0.021216558 -0.06739375 0.79254788
-0.026203461 -0.048663557 0.7924878
0.01638405 -0.015123755 0.79551226
0.01638405 -0.015123755 0.79551226
-0.018986261 -0.079742253 0.79682535
0.017745379 -0.073516577 0.7972542
0.025443224 -0.058519423 0.79837304
0.025443224 -0.058519423 0.79837304
0.024370831 -0.065416455 0.80091137
-0.025727242 -0.064318091 0.80180138
-0.027198482 -0.06605345 0.80392683
0.024832614 -0.073190838 0.80677891
-0.029070348 -0.071354479 0.81025535
0.0030143135 0.063081995 0.69915932
-0.0071174558 0.066424534 0.69950962
0.0030160716 0.066353604 0.69928735
-0.0029032039 0.059228718 0.70153081
-0.0030323784 0.061078191 0.70040482
0.0092347879 0.064786911 0.70025682
0.0048081381 0.058569744 0.70229065
-0.012318601 0.061593026 0.70367277
0.0011025841 0.054683462 0.7041775
0.012719504 0.059158921 0.70548022
0.012719504 0.059158921 0.70548022
0.004487393 0.049361318 0.70791662
0.0031241667 0.050876066 0.70673537
-0.0095048994 0.054652255 0.70637029
0.0067826556 0.047704265 0.70957559
-0.012953624 0.053018004 0.7094233
0.016685884 0.059073292 0.70898169
-0.018712925 0.062900379 0.70896161
-0.0050003962 0.045001231 0.71072853
0.012780228 0.049295157 0.71163327
-0.022799788 0.072047353 0.7114203
-0.0050582071 0.040923297 0.71326602
-0.010135769 0.043307394 0.71369982
0.0087391455 0.042887181 0.71331906
-0.016586591 0.051141426 0.71371043
-0.015289164 0.050758392 0.7127074
-0.020242233 0.059345976 0.71337825
0.019235969 0.05862388 0.71238774
-0.01023137 0.039995372 0.71579802
0.022667289 0.075866014 0.71460807
0.0051600086 0.033773109 0.71773356
0.0088864919 0.036946923 0.71706653
0.010634574 0.037220012 0.71777815
0.020645112 0.053489625 0.71779931
-0.005177937 0.032477878 0.71852094
-0.0090898219 0.035104822 0.71825856
-0.016065178 0.041107386 0.71939182
-0.018867677 0.046931744 0.71899915
0.017874187 0.046096623 0.71836245
0.017874187 0.046096623 0.71836245
-0.0071448092 0.029053733 0.72122401
0.018123196 0.041492 0.72152644
-0.022892687 0.054846391 0.72152877
0.0028801535 0.018720403 0.72302294
-0.0033574027 0.024938142 0.72282183
0.024023367 0.058617055 0.7232362
0.0053300392 0.020832315 0.72517657
-0.022349415 0.045670539 0.7258386
-0.022349415 0.045670539 0.7258386
-0.021239029 0.044408917 0.72431678
-0.022263203 0.082277089 0.72493362
-0.0029364279 0.011255711 0.72755158
-0.0068595447 0.017638832 0.72782338
-0.011673168 0.024319112 0.72609216
-0.017079312 0.030740172 0.72684854
0.018572351 0.033234745 0.72723359
0.0029646668 0.0079058111 0.72982407
0.0029646668 0.0079058111 0.72982407
-0.0019639547 0.0088377893 0.72831643
0.0039267074 0.012761831 0.72824383
-0.016775357 0.025162414 0.72947729
0.020668065 0.081195563 0.72885144
0.016701531 0.083015978 0.72842884
-0.017204525 0.084547997 0.7285912
-0.022842493 0.039228767 0.73101419
-0.022842493 0.039228767 0.73101419
-0.0066426764 0.0086468868 0.73330963
0.0099765658 0.012969524 0.73210174
0.011966869 0.01495859 0.73200095
0.023029868 0.037547916 0.73298097
0.012061292 0.085434198 0.73390055
0.012061292 0.085434198 0.73390055
0.0010059241 -0.0010059178 0.73409772
-0.018828493 0.020508617 0.73474836
-0.013158849 0.083507627 0.7356174
-0.012154561 0.08812058 0.73577702
-0.010835789 0.0064333081 0.73649061
0.021334313 0.024382085 0.73651081
0.022305125 0.028388381 0.7360158
0.00051042013 0.085772797 0.73776263
0.0091845635 0.087763637 0.73761833
-0.0051203729 -0.0010240674 0.73847955
-0.017093379 0.010597358 0.7388379
0.020559674 0.017475724 0.73942333
0.00051203888 0.084507875 0.73854464
0.0085411016 0.086781226 0.73869985
0.0068838419 -0.0027539234 0.74053025
-0.011006589 0.00034362078 0.74035585
0.025205536 0.032800626 0.74131358
-0.0027558729 0.083009049 0.74070907
-0.0067758267 -0.0067761168 0.74289823
-0.0067758267 -0.0067761168 0.74289823
0.0067781988 -0.0067784637 0.74298531
0.018728711 0.01300545 0.74244118
-0.02403963 0.022994459 0.74357998
0.0024526205 -0.017164201 0.7449466
0.0031452542 -0.015202746 0.74435663
-0.015062951 -0.0024521749 0.74494696
-0.020035271 0.0052724779 0.74582195
-0.022122521 0.011587977 0.74557221
0.024193253 0.022614419 0.74519253
-0.026754122 0.035672188 0.74454093
0.0063775713 -0.014880985 0.74785972
-0.0068844897 -0.013239354 0.74693376
-0.015531908 -0.0049419403 0.74689996
-0.017961269 2.9802322e-08 0.7463187
-0.024300953 0.020074725 0.74632305
0.017099436 0.0048086047 0.74925673
-0.0010777786 -0.029100001 0.75144494
-0.0032205088 -0.025228068 0.75041258
-0.015087991 -0.012932569 0.75142914
-0.016849615 -0.0093207462 0.75088471
-0.02365795 0.009139657 0.75086129
0.0054139877 -0.023280859 0.75265658
-0.021639194 -0.0010819435 0.75245428
0.024979275 0.013032675 0.75344306
0.024979275 0.013032675 0.75344306
-0.025944481 0.016215324 0.75222743
-0.0047350465 -0.028767973 0.75498837
0.0094773537 -0.0247868 0.75524467
0.0094773537 -0.0247868 0.75524467
-0.017472532 -0.014743239 0.75488627
-0.026771301 0.012565039 0.75504071
0.026583938 0.012745271 0.75499201
-0.017573249 -0.01702486 0.75640595
0.023127234 -0.0022025704 0.75712264
0.024170751 0.0043946803 0.75648868
-0.0027705096 -0.03933613 0.75875783
0.0055355774 -0.032660678 0.7585274
-0.0094263628 -0.031049639 0.75896204
-0.012780748 -0.02889362 0.75953615
-0.02335651 -0.0066732764 0.75975853
-0.0011146528 -0.043471456 0.76034713
-0.016800335 -0.026880533 0.76164341
-0.019028282 -0.022386193 0.76147157
0.02131946 -0.01683113 0.76213944
0.0075542768 -0.041548662 0.76480842
0.026831597 -0.0030235152 0.76494783
0.0085813599 -0.045196652 0.76748371
0.028574556 -0.0022859275 0.76718646
-0.01499593 -0.042680681 0.76973355
-0.01499593 -0.042680681 0.76973355
-0.018455591 -0.03691116 0.76971954
0.018911667 -0.03319335 0.77078885
0.018911667 -0.03319335 0.77078885
-0.023241045 -0.02672714 0.77179033
0.02309867 -0.023098648 0.77007174
0.0029157721 -0.061214954 0.77274662
-0.015153768 -0.047210678 0.77266479
0.01635251 0.021024704 0.77323508
0.0023572696 -0.067182183 0.77579379
-0.0011714384 -0.065600544 0.77405632
0.0088122841 -0.056982711 0.77488804
0.0088122841 -0.056982711 0.77488804
-0.011158433 -0.05520089 0.77479243
-0.015361479 -0.053174347 0.77652216
-0.02069963 -0.043168694 0.77678651
0.01656496 -0.03904596 0.77689862
0 -0.075339407 0.77995306
0.0089590102 -0.064499795 0.77960956
-0.0089254472 -0.063068777 0.77853215
0.013150159 -0.060968906 0.77985787
0.022649407 -0.03933841 0.77903825
0.027341362 -0.023775041 0.77823687
-0.0048053893 -0.070879459 0.781277
0.0071888911 -0.067096293 0.7805047
-0.016776409 -0.057519108 0.78054494
0.018601567 -0.049207628 0.78099674
0.021637553 -0.046881348 0.7814554
0.021564091 -0.04552415 0.78047013
-0.026453136 -0.030662477 0.78153491
0.01936654 -0.054468364 0.78346461
-0.022947252 -0.045894474 0.78282279
0.007277064 -0.072770625 0.78405261
-0.014609515 -0.06817773 0.78516686
-0.017043769 -0.064522803 0.78515542
-0.004895879 -0.079558015 0.78673857
0.02201293 -0.053809404 0.78649008
0.0069901678 -0.081003509 0.78905076
-0.012754097 -0.076933146 0.78921217
0.016066693 -0.0049436092 0.78961867
-0.0049736961 -0.087039679 0.79143524
-0.014937794 -0.078423411 0.79177129
-0.023550496 -0.05577749 0.79048783
-0.0099822208 -0.084848881 0.79248625
-0.017081847 -0.077072017 0.79297793
0.02019296 -0.07446152 0.79593432
-0.025176622 -0.054760173 0.79515481
0.025119677 -0.052751303 0.79446739
0.017311046 -0.072624914 0.79705667
0.023307675 -0.076397389 0.80385566
0.023307675 -0.076397389 0.80385566
-0.025973642 -0.068830162 0.80477571
-0.027284788 -0.067562312 0.804919
0.016212694 -0.059446543 0.81742036
0.016246911 -0.060925901 0.8181088
0.016290022 -0.052942544 0.81897604
-0.0024706172 0.048508361 0.7081154
-0.01509526 0.056773111 0.70880949
0.012452689 0.042560525 0.71559519
-0.024134606 0.071475625 0.71534646
0.024070166 0.073367707 0.71474814
0.0025304791 0.03370706 0.71732205
-0.013452272 0.038400318 0.71884966
-0.013915718 0.033877652 0.72201079
0.013832947 0.033951059 0.72196853
-0.022588162 0.053521544 0.72164792
0.022689883 0.053974085 0.72187781
0.0039267074 0.012761831 0.72824383
-0.018965149 0.029924912 0.72968465
0.019122398 0.031044614 0.7310909
-0.020650603 0.081126913 0.72865069
-0.018220007 0.081508502 0.72937906
0.0053748018 0.0056231162 0.73445004
-0.01618007 0.014662549 0.73538452
-0.01618007 0.014662549 0.73538452
-0.013598 0.0058734887 0.7386508
-0.001820004 0.086110413 0.73825234
-0.004865244 -0.009162588 0.7428236
-0.013507381 -0.001507337 0.74313736
0.019577086 0.010179345 0.74332064
0.01649566 0.020619601 0.7401464
0.025510073 0.030320287 0.74318337
-0.02568906 0.03390732 0.74233133
-0.0088486364 -0.013096194 0.74759263
-0.0031465671 -0.015732825 0.74446225
0.0055405572 -0.014005515 0.74672323
-0.013083205 -0.0088399649 0.7473377
0.012639496 -0.0061474196 0.74553317
-0.013698645 -0.013913939 0.75094026
-0.023579355 0.010177538 0.74999887
-0.025409535 0.017902726 0.75005138
-0.0025331709 -0.030472878 0.75318968
0.022445088 0.0010854255 0.75342333
0.024072438 0.0054710507 0.75540978
-0.0094529316 -0.032249182 0.75971651
0.0054944409 -0.033326685 0.75868821
0.0064155646 -0.035421189 0.76058096
-0.020432714 -0.021183074 0.76277035
-0.020432714 -0.021183074 0.76277035
-0.02620168 0.0013411075 0.76156795
-0.0033940424 -0.047516584 0.76437759
-0.018131897 -0.03787218 0.77000409
0.019400962 -0.033408474 0.77042198
0.017667748 -0.029799301 0.77009594
0.017229654 0.016654655 0.7685532
-0.0090102525 -0.057193134 0.77495706
0.010304975 -0.054086436 0.77387094
0.021869203 -0.034167673 0.77406466
-0.010706481 -0.058584534 0.77665079
0.017555764 -0.042089682 0.77781653
-0.026249014 -0.025801299 0.77818525
-0.0061351061 -0.069995537 0.78159207
-0.0071844868 -0.067055196 0.7803275
-0.02054783 -0.053787977 0.78305113
0.016905161 -0.00573764 0.78276515
-0.014157834 -0.069804199 0.78586107
-0.014189724 -0.082101896 0.79347199
0.0191679 -0.080505162 0.79974878
0.026940178 -0.054667693 0.79729021
0.028417442 -0.060709983 0.80309063
-0.02655036 -0.069877714 0.80583096
