# .PCD v0.7 - Point Cloud Data file format
VERSION 0.7
FIELDS x y z
SIZE 4 4 4
TYPE F F F
COUNT 1 1 1
WIDTH 599
HEIGHT 1
VIEWPOINT 0 0 0 1 0 0 0
POINTS 599
DATA ascii
-0.013117285 -0.074487165 0.71744561
-0.01218611 -0.074522451 0.71755278
-0.0056530251 -0.077257991 0.71870625
-0.015067357 -0.070628226 0.71859497
-0.015067357 -0.070628226 0.71859497
-0.0047206674 -0.079307199 0.71918011
-0.007559773 -0.071817845 0.71938241
-0.022714322 -0.070982218 0.71973455
-0.010410928 -0.068144232 0.7197389
-0.0085404869 -0.067374915 0.72034121
-0.018051075 -0.065553874 0.72061008
-0.015221599 -0.063740402 0.72092229
-0.029623419 -0.075491935 0.72194695
-0.000955711 -0.074545443 0.72197515
-0.027601216 -0.073285997 0.72102278
-0.021937774 -0.065813333 0.7215178
-0.016210128 -0.062456325 0.72145027
-0.010489523 -0.06246005 0.72146386
-0.00095647469 -0.073648512 0.72215956
-0.023033503 -0.063342094 0.72294527
-0.0066915872 -0.063092113 0.7220307
-0.0038390644 -0.063344538 0.72295409
-0.017208517 -0.061185837 0.72205186
-0.0086167054 -0.06031692 0.72238576
-0.0086167054 -0.06031692 0.72238576
-0.011501442 -0.05846566 0.72263724
0.0019238646 -0.079840362 0.72347713
-0.029883556 -0.070370972 0.72397286
-0.023070673 -0.062483042 0.72331917
-0.0048160502 -0.058755815 0.72378558
-0.012506225 -0.055797011 0.72349763
-0.0096360324 -0.054925382 0.72388053
0 -0.064764947 0.72461396
-0.02607101 -0.063729107 0.72436088
-0.022178251 -0.059784859 0.72404194
-0.021214632 -0.058822423 0.72404909
-0.01641262 -0.054547459 0.7243259
-0.011573313 -0.054008782 0.72408319
-0.016448028 -0.053214163 0.72482878
-0.0086971512 -0.053149253 0.72454369
0.0029054249 -0.075541019 0.72505665
0.0019383907 -0.068812847 0.72523057
-0.028128264 -0.064500555 0.72541034
-0.020379549 -0.054345429 0.72553456
-0.020411378 -0.053458333 0.72590053
-0.015512895 -0.051386446 0.7253176
-0.013559856 -0.051333725 0.72507751
-0.006803581 -0.049568951 0.72589326
-0.027308322 -0.060468435 0.7267037
-0.019502979 -0.050707757 0.72666788
-0.015602141 -0.047781527 0.72666419
-0.012655036 -0.04769969 0.72626114
0.0029334507 -0.061602473 0.72731203
0.00048943644 -0.053780407 0.72731411
-0.0029303471 -0.048839092 0.72706217
0.0039269999 -0.060868472 0.72826153
-0.021634752 -0.048186481 0.72865939
-0.021634752 -0.048186481 0.72865939
-0.004911853 -0.042241931 0.72841138
-0.011788819 -0.041260809 0.72841883
-0.010802938 -0.041247547 0.72834247
-0.0078667803 -0.040317237 0.72864723
-0.030638766 -0.060289174 0.72985423
-0.02763137 -0.055262744 0.72948909
-0.027686959 -0.054385096 0.72996837
-0.020714538 -0.045374691 0.72938573
0.0019778195 -0.045489848 0.72999012
-0.0069022607 -0.038455456 0.72929657
-0.0098712668 -0.037510782 0.72955954
0.0069381106 -0.069381088 0.730533
0.0049525755 -0.053487778 0.73037761
-0.019790009 -0.042548507 0.7301327
-0.019790009 -0.042548507 0.7301327
0.0019852747 -0.041690797 0.73088998
-0.01384961 -0.037591815 0.73007411
-0.004946602 -0.036604851 0.73008919
-0.010906591 -0.034702778 0.73061746
-0.036825184 -0.072655052 0.73152679
-0.030852184 -0.057723433 0.7315163
0.0059761684 -0.050797403 0.73170859
0.0039779674 -0.044752121 0.73133773
-0.022915032 -0.042841136 0.73177564
0.00049785152 -0.03681314 0.73144811
-0.015911175 -0.035800129 0.73132718
-0.00099500606 -0.034825206 0.73146182
-0.0039736866 -0.033776313 0.73107928
-0.0039736866 -0.033776313 0.73107928
-0.013953003 -0.032889217 0.73185706
-0.013953003 -0.032889217 0.73185706
-0.010937585 -0.032812744 0.73129761
-0.0049765147 -0.030854374 0.73153353
0.0079815714 -0.073829532 0.73211133
-0.03100339 -0.056006134 0.73269391
-0.024962518 -0.044932544 0.73230553
0.0050065508 -0.040052384 0.73298377
-0.012991814 -0.029981077 0.73251545
-0.020026924 -0.025033653 0.73299247
-0.030134104 -0.052232444 0.73374665
0.0050191865 -0.037141979 0.73359388
0.0040094452 -0.03608498 0.7332375
-0.013024747 -0.028053313 0.73312706
-0.011018072 -0.027044356 0.73306406
-0.004007631 -0.026049554 0.73312801
-0.016027827 -0.025043488 0.73308736
-0.018064506 -0.022078812 0.73353267
0.0090509877 -0.070396543 0.73403513
-0.036214724 -0.067399621 0.73410743
0.0090650162 -0.055397302 0.7344116
0.0080453549 -0.048272103 0.73403615
-0.02417367 -0.039282233 0.73441452
-0.019122245 -0.03220588 0.73422074
0.0050344584 -0.032220513 0.73433131
0.0040228069 -0.031176776 0.73404402
-0.0040228553 -0.02313143 0.73404694
-0.0040228553 -0.02313143 0.73404694
-0.0090689603 -0.022168547 0.73451728
-0.0040280204 -0.022154093 0.73435867
0 -0.022206545 0.73493445
-0.018120332 -0.020133644 0.73428136
-0.0050471746 -0.020188689 0.7349453
-0.034344204 -0.060607433 0.73511153
0.0091103511 -0.044539511 0.73562765
-0.023274757 -0.035418123 0.73555148
0.0070900745 -0.031398892 0.7357741
0.0040464746 -0.025290459 0.73547244
0.002025547 -0.021268219 0.73575127
-0.012156136 -0.020260215 0.73580873
-0.0090953736 -0.020211905 0.7352258
-0.019190026 -0.019190013 0.73508203
-0.019190026 -0.019190013 0.73508203
-0.015153874 -0.018184632 0.73514408
-0.015153874 -0.018184632 0.73514408
0.0091487383 -0.037611485 0.73665726
-0.02236749 -0.031517833 0.73670018
0.0020323594 -0.018291205 0.73657352
-0.0060986383 -0.0152466 0.73663634
-0.0040648011 -0.015243024 0.73657858
-0.0020333007 -0.015249729 0.73668724
-0.017283127 -0.013216496 0.73668826
-0.017283127 -0.013216496 0.73668826
-0.034714799 -0.058198333 0.73774302
-0.022413854 -0.030564338 0.73720896
0.0061292681 -0.019409359 0.73786885
0.0051084743 -0.017368823 0.73790503
-0.012233011 -0.015291244 0.73735529
0 -0.014266342 0.73726004
-0.013249946 -0.013249904 0.73730916
-0.012258987 -0.013280571 0.73787796
-0.0081628244 -0.013264596 0.73758113
-0.0020438489 -0.011241138 0.73796046
0.011252338 -0.04398641 0.73820561
-0.026581001 -0.036804467 0.73806238
0.001023509 -0.011258632 0.73834306
0.001023509 -0.011258632 0.73834306
-0.0081992755 -0.010249078 0.73868108
-0.0020491974 -0.009221375 0.73860615
-0.0041036052 -0.008207202 0.73892063
0.010263095 -0.026684016 0.73901916
0.0082165767 -0.018487304 0.73920327
0.006172569 -0.012345105 0.73961109
0.0051406999 -0.011309505 0.73946106
0.0030799012 -0.010266334 0.73909742
-0.018500818 -0.0092503726 0.73938453
-0.0082372725 -0.0072076023 0.73982787
-0.016434638 -0.0061629713 0.73922563
0.012371846 -0.038146526 0.74014843
0.012371846 -0.038146526 0.74014843
0.016505931 -0.035075098 0.74030137
0.013396154 -0.034005612 0.74002439
0.013443498 -0.031023443 0.74090362
0.012398519 -0.02892983 0.74068505
0.0092915976 -0.015485972 0.74048942
0.0093086921 -0.013445884 0.74094796
0.0061982861 -0.0082643628 0.74064589
0.0051632985 -0.0072285831 0.74055219
-0.015514743 -0.0010342896 0.74095213
-0.013422028 -0.0010324717 0.74050486
0.014541024 -0.028043389 0.74199712
-0.022811258 -0.021774381 0.74156994
-0.022811258 -0.021774381 0.74156994
0.011405157 -0.017626137 0.74155957
0.0093172425 -0.012422949 0.74117738
-0.0082884422 -0.0031081438 0.74137199
-0.0082884422 -0.0031081438 0.74137199
0.0051862895 -0.0031118095 0.74166238
0.0051862895 -0.0031118095 0.74166238
-0.0041386676 -0.0020693243 0.74103677
0 -0.0010358989 0.74133885
-0.0041505634 2.9802322e-08 0.74175477
-0.012425201 0.0010354221 0.7412219
0.01562176 -0.026036233 0.74267453
0.013546866 -0.021883368 0.7428233
0.011469421 -0.01042673 0.74297011
0.0041589295 -0 0.74225968
0.0062529207 2.9802322e-08 0.74284422
-0.0093732513 0.0010415018 0.74267972
-0.0051988778 0.0010397732 0.74227011
0 0.0031242967 0.74266928
-0.012474767 0.0041582286 0.74221903
-0.011442096 0.0041607916 0.74237037
-0.010418713 0.0041674674 0.74277616
0.018782705 -0.029217541 0.74316537
0.016687872 -0.025031805 0.7430467
0.017749364 -0.025057912 0.74330938
0.010464692 -0.0031394362 0.74388611
-0.0062628081 0.0031314194 0.74324208
-0.0052145035 0.0031287074 0.74302465
-0.004175188 0.0041751862 0.74324101
-0.0020858275 0.0041716695 0.74302775
-0.011514387 0.0094209015 0.74395686
0.014676905 -0.018870294 0.7443403
-0.023082955 -0.016787589 0.74455148
-0.022031512 -0.014687657 0.74452603
0.0083807968 0.0020952523 0.74415904
0.0083896853 0.0031461418 0.74442726
-0.0052385903 0.0062862933 0.74418759
0.0063037057 0.0073543191 0.74488765
-0.0020979401 0.0083917379 0.74448991
0.020010138 -0.021063298 0.74550271
-0.025287034 -0.020018876 0.74561399
0.013696334 -0.0052677989 0.74559903
0.012656789 -0 0.74588102
-0.0084133856 0.0094650686 0.74514246
-0.0073741111 0.0094810128 0.74557006
0.0042105508 0.010526389 0.74537539
0.0063260212 0.010543346 0.74578553
0.004215979 0.011593938 0.74570292
0.004215979 0.011593938 0.74570292
0.004215979 0.011593938 0.74570292
0 0.012653381 0.74581236
-0.024341147 -0.015874654 0.74674487
0.015852196 -0.012681723 0.74638337
0.01694731 -0.012710452 0.74696124
0.0095054153 0.008449316 0.746225
-0.0073990668 0.012684137 0.74643075
-0.0052884216 0.012692213 0.74659371
-0.013749955 0.013749957 0.74659479
0.0010558764 0.013726443 0.74615723
0.005286701 0.013745457 0.74651057
-0.0095268525 0.017995179 0.74680007
-0.0074256086 0.01697281 0.74734622
0.018131491 -0.0074658692 0.74873602
-0.0042603845 0.018106669 0.74838305
0.021419007 -0.0053547025 0.74979639
-0.018176511 0.002138406 0.7493754
0.016024059 0.0042730868 0.7491495
0.0096124653 0.019224942 0.74909663
-0.01174902 0.022429973 0.74910653
-0.0010690467 0.02245 0.74933684
0.0053558527 0.024636954 0.74984956
-0.0074949525 0.026767731 0.74973774
-0.023589689 -0.0085780323 0.7501123
-0.021456297 -0.0032184124 0.75024652
0.019355739 -0.0010752976 0.75085098
-0.005364351 0.024676025 0.75025988
0.0096817398 0.02581799 0.75095487
0.0053779348 0.027965248 0.75091583
-0.0075255497 0.030102193 0.75079304
-0.0064547705 0.03012231 0.75096601
0.022624189 -0.0010773242 0.75133955
0.019400351 0.0010778308 0.75144935
-0.017273406 0.0086367428 0.75188166
0.015108818 0.020504832 0.75178838
-0.010759384 0.027974427 0.75100064
0 0.027992249 0.75116611
-0.022758655 -0.0021674633 0.7528854
0.018394748 0.011902511 0.75247467
0.018394748 0.011902511 0.75247467
0.018394748 0.011902511 0.75247467
0.017346991 0.019515395 0.75299197
0.0054151146 0.033573717 0.75271094
-0.024975371 -0.0076011717 0.75340205
-0.024975371 -0.0076011717 0.75340205
0.020600265 0.0054211318 0.75300109
-0.018497068 0.0097925961 0.75392771
0.016323498 0.027205855 0.75396883
0.013021868 0.030384392 0.75322592
-0.0043374617 0.034699708 0.75303513
0.010874717 0.034799129 0.75378495
0.025044726 0.0043556392 0.75413007
0.025044726 0.0043556392 0.75413007
0.020714274 0.010902286 0.75444973
0.019610632 0.016342223 0.75426978
-0.0010897358 0.0359613 0.75433165
-0.0032763574 0.040408432 0.75490701
-0.0054607387 0.042593777 0.75491387
0.01638937 0.031686157 0.75502902
0.012020078 0.038245708 0.75505555
0.012020078 0.038245708 0.75505555
0 0.039384753 0.75536585
0.0087438999 0.040440559 0.75511664
0.0054702191 0.041573673 0.75537169
0.0098554883 0.041612089 0.75561559
-0.0032823756 0.042670876 0.75539124
0.0054781726 0.042729735 0.75575572
-0.020910002 0.0088042319 0.75693667
0.019810522 0.030816376 0.75695074
-0.0065810122 0.044970274 0.75604558
-0.018759536 0.015449047 0.75765514
0.025341649 0.017629027 0.75724673
0.024261208 0.0187473 0.75748128
0.022057686 0.022057712 0.75750589
0.020920401 0.026425779 0.75706887
0.018741103 0.036379755 0.75739336
0.017630527 0.038566798 0.75727022
0.016565757 0.043070972 0.75786793
0.0066216844 0.04855904 0.75768214
0.0066216844 0.04855904 0.75768214
-0.0033054033 0.049581081 0.75724447
-0.0044139693 0.050760716 0.75765276
0.0077475817 0.050912678 0.75845063
0.027803393 0.023354888 0.7597394
0.025543919 0.024433315 0.75936997
0.019973693 0.04105702 0.75913924
0.007781975 0.054473847 0.75963682
-0.01670751 0.024504393 0.76014942
0.026807684 0.029041678 0.76091057
0.02227688 0.037870705 0.76015186
0.017822297 0.050125211 0.76016378
0.013361666 0.054560155 0.76006198
-0.0055713281 0.055713266 0.76025367
-0.0055853087 0.056970149 0.76092863
0 0.05686608 0.76043582
-0.017905047 0.023500443 0.76141238
-0.013446889 0.034737825 0.76177663
0.019057527 0.054930508 0.76188701
0.0067140018 0.059307069 0.76139665
0.015698867 0.059431404 0.76196337
0 0.060380638 0.76119381
-0.02131277 0.014582425 0.76205438
0.022450902 0.048269451 0.76225251
0.020198653 0.053863078 0.76215643
0.019079072 0.056114912 0.7621929
0.0044906642 0.060623974 0.76228166
0 0.0639624 0.76215649
0.027033512 0.036044717 0.76318222
0.016904164 0.063108891 0.76331455
-0.0022515457 0.066420585 0.76303172
0.028323136 0.040785342 0.76475853
0.023800379 0.056667566 0.76486135
0.015822694 0.066681355 0.7640987
0.0033994999 0.067990035 0.7648167
0.0079297591 0.069102198 0.76473367
0.0011318797 0.071308434 0.76450604
-0.011379289 0.046655148 0.76596642
0.02389075 0.061433375 0.76590031
0.021553203 0.063525259 0.76510948
0.021600805 0.065939337 0.76571429
-0.0034118937 0.070512503 0.76581413
0.0022695507 0.072625607 0.76520514
-0.0011365126 0.073873311 0.76562458
-0.014848187 0.039975911 0.76698989
0.031900171 0.042153805 0.76629549
0.031930711 0.043334574 0.76655877
0.02626879 0.058248222 0.76697862
0.014804255 0.07402131 0.76617408
-0.0091464911 0.053735644 0.76726592
0.02403656 0.068675935 0.76757658
0.019425463 0.074273854 0.76711208
0.020596828 0.074377418 0.76749694
-0.0022865497 0.075456172 0.76725703
0.018334121 0.07792002 0.76788664
0.011456518 0.079049975 0.76783085
0.030993909 0.051656544 0.76837909
0.022992527 0.075875342 0.76879048
0.0057363757 0.078014702 0.76822281
0.0057363757 0.078014702 0.76822281
0.0023006799 0.085125178 0.76896274
0.031171979 0.056571394 0.76997137
-0.0092204837 0.057628036 0.76949883
0.025352711 0.073753357 0.76945907
0.023019183 0.077114284 0.76911223
0.020752685 0.08185783 0.76958728
0.010384239 0.084227741 0.76979911
0.01613488 0.084131896 0.76948214
0.012697997 0.085422903 0.76993406
-0.015011365 0.04387936 0.77002025
0.033573512 0.057885379 0.77074134
0.031261135 0.059048831 0.77076852
0.026604615 0.075186998 0.77050364
0.018484313 0.085489929 0.77015281
0.0023129529 0.089048684 0.77044421
0.034790788 0.056824982 0.7712208
0.020887833 0.088193089 0.77139997
0.011606883 0.089373022 0.77146107
0.016230358 0.089267015 0.77112854
0.016230358 0.089267015 0.77112854
0.031502567 0.066505432 0.77292728
-0.0046562329 0.072171628 0.77227461
0.01047321 0.09076789 0.77218568
-0.010509041 0.060718924 0.77314687
0.032754723 0.0678491 0.77366358
0.031688336 0.075113088 0.77458835
0.036582492 0.074345082 0.77614272
0.037934165 0.077053815 0.77743727
0.036877334 0.082081825 0.77843893
-0.01075321 0.069298446 0.77969658
-0.013197836 0.062389791 0.78090423
-0.0096001765 0.074401408 0.7809571
-0.020650458 -0.076031208 0.71785796
-0.0034681819 -0.078831002 0.71962422
-0.0087761767 -0.074598245 0.71825838
-0.0089484546 -0.073002204 0.71865714
-0.019229122 -0.069035128 0.71955764
-0.0031659096 -0.074724764 0.72057122
-0.010952578 -0.063215837 0.72117901
0.00084179221 -0.077014789 0.72293615
0.00036110368 -0.073029578 0.72323394
-0.028885512 -0.069325209 0.72369874
0.0014518099 -0.069167092 0.72479093
-0.026636375 -0.062956028 0.72508019
-0.0014528185 -0.058738526 0.72515738
-0.0014528185 -0.058738526 0.72515738
-0.016951602 -0.052791104 0.72509909
0.003901676 -0.070717722 0.72673309
-0.032590345 -0.06908983 0.72728032
0.0029345294 -0.061135858 0.72739881
-0.015087604 -0.04866913 0.72624159
-0.018603474 -0.047487408 0.72762907
-0.0073286984 -0.045193546 0.72715712
0.0014750881 -0.05062528 0.72856802
-0.0014747095 -0.044742793 0.72865111
0.0069359131 -0.082735613 0.73045719
-0.023434293 -0.046867728 0.73029339
0.0049763964 -0.047275543 0.73152781
0.0033196714 -0.041490674 0.73164749
-0.017343819 -0.039146252 0.73050797
-0.0013198511 -0.038939964 0.7302537
-0.013398806 -0.035232931 0.7308538
-0.0074273963 -0.035156183 0.73033154
-0.0054631969 -0.033276111 0.73105633
-0.0094676651 -0.029897615 0.73184359
0.0079829078 -0.075338706 0.73215163
-0.030097172 -0.052669421 0.73344946
-0.00099816616 -0.030943125 0.73222476
0.009069765 -0.075077668 0.73453891
0.0090525895 -0.070912004 0.73407811
0.009051716 -0.06084758 0.73405474
0.009051716 -0.06084758 0.73405474
-0.030634746 -0.051168364 0.73505735
-0.027196126 -0.044822648 0.73442113
-0.026756112 -0.042908378 0.7349906
-0.020583672 -0.031043481 0.7356348
-0.020583672 -0.031043481 0.7356348
-0.011067123 -0.024146438 0.73414069
-0.0010079894 -0.022679433 0.73459625
-0.0025235752 -0.020694025 0.73495644
-0.013178913 -0.01926145 0.73598999
-0.0086063165 -0.018730663 0.73568261
0.0050726975 -0.024348915 0.73617762
0.0025522928 -0.014801353 0.73769009
0.011281213 -0.037433058 0.73883939
-0.025557194 -0.034757793 0.73804826
0.0025745509 -0.0072080642 0.73984474
-0.035208236 -0.055918932 0.7412467
0.013490534 -0.047216907 0.74177712
0.015012559 -0.030542351 0.74120075
0.00051716575 -0.0025849119 0.74089986
-0.0067617455 0.00052053481 0.74237996
-0.0067617455 0.00052053481 0.74237996
0.0062815472 0.0041877031 0.74399602
-0.011158299 0.0087176766 0.74379534
-0.025251193 -0.020515829 0.74525344
-0.01101472 0.011015125 0.74450356
0.0063260212 0.010543346 0.74578553
-0.0010547279 0.012656748 0.74588001
-0.0010547279 0.012656748 0.74588001
-0.020170534 -0.005308032 0.74754071
-0.019033089 -0.0047574639 0.7465235
0.015200546 -0.0028281212 0.74726045
0.013233177 0.0026467517 0.7468133
-0.0088035008 0.015494585 0.74629438
-0.0042536119 0.017014444 0.74797434
-0.0010609227 0.016974807 0.74737555
0.014989395 0.011242315 0.74972892
0.020938121 -0.0026840195 0.75047064
0.020976882 -0.0010757297 0.75095153
0.018338276 0.0070118904 0.75167269
-0.0010756933 0.026892304 0.75094151
-0.018472478 0.0092369765 0.75357854
0.016803689 0.021139413 0.7529608
-0.0010853187 0.033102691 0.75326526
0.0027146759 0.035292581 0.75340855
0.010874717 0.034799129 0.75378495
0.021276278 0.010910735 0.75465357
-0.018596224 0.012032837 0.75533587
0.014778729 0.036672287 0.75552648
-0.0010962826 0.040562451 0.75591213
-0.015047476 0.022753349 0.75704306
0.020897228 0.02474694 0.75677437
0.019266104 0.033026204 0.75702035
0.0071419645 0.045049369 0.75651133
0.0071419645 0.045049369 0.75651133
0.00055188738 0.046368182 0.75777614
-0.002759574 0.050781295 0.75776094
-0.019897265 0.013264835 0.75811416
0.02500312 0.025003448 0.75952488
0.014997869 0.051102728 0.75944805
-0.024562199 0.002232939 0.76078421
-0.012666915 0.035017513 0.76105404
0.023093302 0.038735412 0.76100457
0.01730063 0.053017028 0.76070637
0.0072381916 0.055679202 0.76008898
0.0072381916 0.055679202 0.76008898
-0.022460679 0.01123035 0.76237047
-0.015213409 0.033240184 0.76328641
-0.015213409 0.033240184 0.76328641
0.025823636 0.033682972 0.76230597
0.025823636 0.033682972 0.76230597
-0.01050921 0.043158792 0.76305789
-0.006731133 0.056092799 0.76208597
0.0052649919 0.064685039 0.76362312
-0.0026310906 0.066894725 0.7634334
-0.018094931 0.027142376 0.76427758
0.02490868 0.050949603 0.76458645
0.021506883 0.061124861 0.76452088
0.0045209127 0.065553248 0.76410729
0.0073659662 0.069128841 0.76483905
0.018736232 0.068698503 0.76538157
0.018736232 0.068698503 0.76538157
0.00056955288 0.076917537 0.76634866
0.018706284 0.077115491 0.76774025
0.010886053 0.07906808 0.76789427
0.013170665 0.079024106 0.76774037
0.022939296 0.073405743 0.76814789
0.02305929 0.078978419 0.7695964
0.024246106 0.078511208 0.76998556
0.0069267871 0.083121449 0.76995856
0.016690619 0.082876876 0.76913846
-0.012724359 0.050897449 0.7705127
-0.0057905195 0.067170054 0.77083707
0.027724676 0.069311738 0.77013481
0.022804899 0.085420996 0.77118844
0.010993509 0.086792544 0.77062702
0.028640354 0.082995892 0.77345717
0.028640354 0.082995892 0.77345717
0.025600465 0.08494702 0.77217793
0.034648053 0.071058139 0.77479738
-0.0095203072 0.071402311 0.77854681
-0.00723487 0.083201051 0.78235477
-0.021988604 -0.073989995 0.71841562
-0.0037897204 -0.075794399 0.71997595
-0.0063815899 -0.062153351 0.72239888
-0.020531626 -0.059348665 0.72359335
-0.01011094 -0.055371158 0.72373056
0.0049016904 -0.084309101 0.72792071
-0.032331645 -0.067602545 0.72777796
0.0021542849 -0.065674685 0.72602481
0.0021542849 -0.065674685 0.72602481
0.0013758274 -0.058666281 0.72681451
-0.022252157 -0.045981891 0.72998762
-0.018393815 -0.041889086 0.72982955
0.0090645552 -0.074027896 0.73439914
-0.013560928 -0.025396619 0.73387235
-0.022817416 -0.030123428 0.73750609
-0.018036149 -0.013446229 0.73720962
-0.0056022741 -0.013748512 0.73714352
-0.0054275542 -0.0099303639 0.73844653
-0.01386282 -0.0056465268 0.73916882
-0.034920156 -0.054627579 0.74164677
0.014368018 -0.038770348 0.74195695
-0.016698759 0.0013066679 0.74321091
-0.024375945 -0.015366673 0.74711019
0.017519664 -0.010617331 0.74758595
0.009772907 0.0097722029 0.74670404
-0.0017910823 0.01385793 0.74638319
0.02127267 -0.023399919 0.74802995
0.010064105 0.021853331 0.74999398
0.010064105 0.021853331 0.74999398
-0.0060095713 0.029787252 0.75116813
0.025013566 0.0016318336 0.75380301
0.022558197 0.0062657692 0.75347978
-0.01641323 0.016961023 0.75541306
-0.014221787 0.021333426 0.75535709
-0.014221787 0.021333426 0.75535709
-0.0019030625 0.03462337 0.75381345
-0.0019030625 0.03462337 0.75381345
0.026343009 0.013858464 0.75712621
-0.0087919701 0.042312175 0.7565673
0.0060351519 0.043893404 0.7561661
0.029577501 0.034083307 0.76325458
0.022506226 0.042492375 0.76120698
0.022506226 0.042492375 0.76120698
0.018463546 0.050246753 0.76048219
0.020331798 0.06099543 0.76394224
0.0015511848 0.065793127 0.76334453
-0.011111794 0.046530839 0.76558769
0.006274716 0.073879376 0.76670194
-0.011493677 0.051147744 0.76872802
-0.0011533081 0.082175463 0.76967931
-0.0011533081 0.082175463 0.76967931
0.014078209 0.081884816 0.7686981
-0.010133911 0.062161848 0.77351046
-0.0035173432 0.078263119 0.77429998
-0.0035173432 0.078263119 0.77429998
-0.010972861 0.065831758 0.77760798
0.03385748 0.084640108 0.77803987
-0.0052375374 0.08942154 0.78298253
-0.003593524 0.089240059 0.78043056
