# .PCD v0.7 - Point Cloud Data file format
VERSION 0.7
FIELDS x y z
SIZE 4 4 4
TYPE F F F
COUNT 1 1 1
WIDTH 638
HEIGHT 1
VIEWPOINT 0 0 0 1 0 0 0
POINTS 638
DATA ascii
0.011406717 -0.083994895 0.74159384
0.012442246 -0.08398512 0.74156475
0.012442246 -0.08398512 0.74156475
0.01038192 -0.08097896 0.74188781
-0.0031120321 -0.077800781 0.74168307
-0.0031120321 -0.077800781 0.74168307
-0.0010370903 -0.076744646 0.74162185
0.012442246 -0.076727182 0.74156481
0 -0.075706929 0.74161983
0.0031148475 -0.075794607 0.74190962
0.011406717 -0.075699091 0.74159378
-0.0020741806 -0.072596312 0.74162185
0.011406717 -0.071551204 0.74159378
0 -0.069484174 0.74161875
0.012442246 -0.069469213 0.74156475
0.01038192 -0.068520635 0.74188781
0 -0.066372663 0.74161768
0 -0.06222412 0.74161667
0.01038192 -0.062291503 0.74188787
0.013491065 -0.062266409 0.74178696
-0.0020741462 -0.058076054 0.74161768
0.0031147569 -0.052950889 0.74190241
0.0020754365 -0.050848216 0.74177355
-0.0020741289 -0.048742026 0.74161565
-0.0031120449 -0.046680659 0.7416842
0.0010371935 -0.046673715 0.74164677
0.0020754281 -0.045659393 0.74177241
-0.0010370516 -0.043556124 0.74161255
-0.0010370516 -0.043556124 0.74161255
0.0020754107 -0.041508228 0.74177039
0 -0.040444821 0.74161148
-0.0031120579 -0.038382024 0.74168521
-0.0010370387 -0.032148153 0.74160939
0.0031146926 -0.032185167 0.74189723
0.0031146926 -0.032185167 0.74189723
0.013491065 -0.030095458 0.74178696
0.01038192 -0.025954783 0.74188781
-0.0020741031 -0.02385214 0.74161249
0.012442246 -0.02384761 0.74156475
0.0010372064 -0.022818536 0.74164993
0.013491065 -0.021793246 0.74178696
0.0020753592 -0.019715875 0.74176413
-0.0020741117 -0.017629951 0.74161351
0.01038192 -0.017649233 0.74188787
0.01038192 -0.017649233 0.74188787
0.013491065 -0.016604394 0.74178702
0.002075342 -0.015565038 0.74176204
-0.0010370215 -0.014518291 0.74160528
0.0010372107 -0.011409312 0.74165094
0.013491065 -0.011415482 0.74178702
-0.0031120707 -0.0093362331 0.74168622
0.0031146668 -0.0083057582 0.74189508
-0.0020741203 -0.0051852763 0.74161458
0.01038192 -0.0020763576 0.74188781
0.01038192 -0.0020763576 0.74188781
0.001037215 -0 0.74165195
0.0031146538 0.0010382235 0.74189413
0 0.005185008 0.7416001
0.01038192 0.0051909685 0.74188787
0.013491065 0.0062266588 0.74178702
0.0031146405 0.0072675049 0.74189305
0 0.0082959831 0.74159896
0.013491065 0.0093399882 0.74178696
0.011406717 0.010369748 0.74159384
0 0.013480902 0.74159801
0.0031146405 0.01453501 0.74189299
0.011406717 0.016591609 0.74159384
0.012442246 0.017626494 0.74156481
-0.0010369872 0.020739764 0.74159694
0.0031146279 0.020764202 0.74189198
0.0031146279 0.022840619 0.7418921
0.01038192 0.023878425 0.74188781
0.0010372279 0.025930703 0.74165511
0 0.032146215 0.74159384
0 0.032146215 0.74159384
0.00207523 0.032166094 0.74174851
0.011406717 0.033183157 0.74159384
-0.0010369699 0.035257012 0.74159282
0.012442246 0.039400458 0.74156475
0.012442246 0.040437311 0.74156475
0.0020752216 0.041504472 0.7417475
0.0020752216 0.041504472 0.7417475
-0.003112148 0.042532682 0.74169242
-0.003115921 0.049854726 0.74199611
-0.003115921 0.049854726 0.74199611
0 0.049834907 0.74189615
0 0.049834907 0.74189615
0.0010384765 0.055039287 0.74195653
-0.0010381963 0.060215414 0.74188888
-0.0020766857 0.064377278 0.74192429
-0.0020766857 0.064377278 0.74192429
-0.0020766857 0.066453964 0.74192429
0.0010384679 0.072692752 0.74195445
-0.0020766857 0.073722363 0.74192429
-0.0031158563 0.076857805 0.74199086
-0.0010381963 0.079941124 0.74188888
-0.0020766684 0.085143477 0.74192214
0.0010384722 0.089308619 0.74195546
0.0052003693 -0.085286051 0.74234211
0.0052003474 -0.083205551 0.74234104
0.0052003474 -0.08216548 0.74234104
0.008337263 -0.081288308 0.7428453
0.014558855 -0.081113607 0.74230462
0.0041559241 -0.078962564 0.74207836
0.0062468578 -0.07288 0.74260026
0.008337263 -0.069824547 0.74284524
0.0072955908 -0.066702515 0.74286199
0.0072955908 -0.064618081 0.74286205
0.0062467274 -0.060385019 0.74259508
0.0062467274 -0.059343904 0.74259502
0.014558855 -0.059275329 0.74230456
0.0052001532 -0.058241725 0.74233174
0.0062466757 -0.05517894 0.74259293
0.0062466757 -0.054137856 0.74259293
0.0062466757 -0.054137856 0.74259293
0.008337263 -0.051065683 0.7428453
0.014558855 -0.051995903 0.74230456
0.0062466236 -0.049972981 0.74259084
0.0041558035 -0.047791719 0.74207103
0.0062465975 -0.044767261 0.74258977
0.014558855 -0.043676555 0.74230456
0.0041558207 -0.03844133 0.74207211
0.0093642855 -0.031214267 0.74243921
0.0041558379 -0.027012914 0.74207312
0.0041558379 -0.025973976 0.74207318
0.0051998934 -0.022879541 0.74231923
0.008337263 -0.016674548 0.7428453
0.0051998287 -0.015599459 0.74231607
0.008337263 -0.014590204 0.74284524
0.0093642855 -0.013526171 0.74243927
0.0062465458 -0.012493074 0.74258775
0.008337263 0.011463732 0.74284524
0.0041558724 0.012467623 0.7420752
0.008337263 0.014590234 0.74284524
0.0072956216 0.019802392 0.74286306
0.008337263 0.022927493 0.7428453
0.0041559068 0.027013451 0.74207729
0.0041559068 0.029091388 0.74207729
0.0083372975 0.035433531 0.74284631
0.0083372975 0.035433531 0.74284631
0.0093642855 0.037457138 0.74243927
0.014558855 0.037437081 0.74230456
0.0041559241 0.038442343 0.74207836
0.0020776601 0.043630898 0.74204183
0.0062544062 0.044823259 0.74290395
0.0020776601 0.046747327 0.74204195
0.0041609011 0.052011281 0.74237871
0.0052059749 0.053100973 0.74261278
-0.0062439735 0.055155128 0.74248415
0.0020776775 0.055058479 0.74204397
-0.0041564074 0.057150632 0.74210751
0.0031183807 0.058209777 0.74219406
-0.007292158 0.059378982 0.74274367
0.0020776859 0.062330604 0.74204499
-0.0062439474 0.067642748 0.7424832
-0.0072922492 0.068755507 0.74274683
-0.0072922795 0.072922826 0.74274778
-0.0062439214 0.079089701 0.74248207
0.0062541454 0.081303895 0.74289346
-0.0041565457 0.082091779 0.74211574
0.0031183029 0.083154768 0.74218774
0.0062541715 0.08443132 0.74289453
-0.0062439735 0.086374998 0.74248415
0.0062541976 0.08651641 0.7428956
0.0020777206 0.087264299 0.74204916
0.015660418 0.0062642395 0.74329674
-0.0094004096 0.050135553 0.74340832
0.0073061222 0.050099134 0.74322522
-0.01046224 0.054403663 0.74382693
-0.01046224 0.054403663 0.74382693
0.0073062135 0.059493452 0.74322832
-0.0083441446 0.080312401 0.7430529
-0.010462634 0.083701074 0.74383646
-0.009400527 0.086693734 0.74341142
0.0083629722 0.088856608 0.74362111
-0.011539591 -0.08182618 0.74451005
-0.012588644 -0.039864033 0.74451005
-0.012589013 -0.018883526 0.74451751
-0.012589541 0.013638675 0.74452811
-0.011539591 0.016784847 0.74451005
-0.011539591 0.020981073 0.74451005
-0.012589647 0.022031903 0.7445302
-0.011539542 0.035667717 0.74450898
0.0094251605 0.046078563 0.74407226
0.0094251605 0.04817304 0.7440722
-0.011530163 0.050313443 0.74430317
0.010493132 0.055613607 0.74457276
-0.012605717 0.057776213 0.74485356
0.010493265 0.067156911 0.74457592
-0.011530452 0.069182724 0.74430954
0.0094248056 0.073304057 0.74406278
0.0094248056 0.073304057 0.74406278
-0.011530548 0.077569187 0.74431163
0.010493529 0.090244353 0.7445823
-0.0083765173 0.092141718 0.74402988
-0.014760841 -0.085401982 0.74578774
-0.014761027 -0.065370232 0.7457909
-0.014761027 -0.063261539 0.74579096
-0.013670889 -0.05994159 0.74512643
-0.013670773 -0.048373491 0.74512434
-0.014761399 -0.044284165 0.7457974
-0.014761586 -0.03057757 0.74580055
-0.013670486 -0.024186224 0.74511904
-0.013670486 -0.024186224 0.74511904
-0.013670257 -0.0042062104 0.74511474
-0.013670257 -0.0010515451 0.74511468
-0.01476227 0.011598945 0.74581236
-0.014762334 0.01265344 0.74581343
-0.014762334 0.013707876 0.74581349
-0.013670315 0.019979686 0.74511582
-0.014762581 0.027416229 0.74581772
-0.013670486 0.030495703 0.74511898
-0.014762645 0.032688707 0.74581885
-0.013670602 0.034702331 0.74512112
-0.014762769 0.042179346 0.74582094
-0.013689533 0.052652091 0.74547267
0.012653481 0.060104072 0.7458145
-0.01368936 0.064234674 0.74546945
-0.01368936 0.064234674 0.74546945
0.011569086 0.064155847 0.74515736
-0.013689186 0.072658002 0.74546623
-0.013689186 0.072658002 0.74546623
0.011569182 0.082036018 0.74515951
0.012653268 0.084355116 0.74581021
0.011569232 0.085191637 0.74516064
-0.012642665 0.091659337 0.74559689
-0.015864864 -0.081439614 0.74658722
-0.015864596 -0.054997265 0.74658293
-0.015864596 -0.052881986 0.74658287
-0.015864462 -0.038074672 0.74658072
-0.01586426 -0.013748974 0.7465775
-0.015864126 0.0074032843 0.74657536
-0.015864663 0.038075209 0.746584
0.01374734 0.048644453 0.74654615
0.01374734 0.048644453 0.74654615
-0.015887363 0.050839573 0.74694932
0.01374728 0.052874148 0.74654514
-0.014782644 0.061242372 0.74616373
-0.014782769 0.069690228 0.74616581
-0.014782832 0.076025993 0.74616694
-0.015887968 0.080499083 0.74695909
-0.015888035 0.084736228 0.74696016
-0.016979877 -0.059429556 0.74745268
-0.016980236 -0.033960462 0.7474581
-0.016980236 -0.033960462 0.7474581
-0.016980309 -0.025470465 0.74745917
-0.016980739 0.010612994 0.74746567
-0.016980885 0.022287428 0.74746788
-0.016981028 0.03077811 0.74747002
0.014853925 0.044561803 0.74739289
0.014853925 0.044561803 0.74739289
-0.017005846 0.054206192 0.74784446
0.014853925 0.062598705 0.74739289
-0.017006351 0.074402809 0.74785215
0.014853925 0.079574645 0.74739289
-0.017006496 0.080780864 0.74785429
0.017073594 -0.083233744 0.74886674
-0.018111184 -0.080967665 0.74844766
-0.018111184 -0.077771544 0.74844772
0.017073885 -0.073631108 0.74887109
0.017073957 -0.071497172 0.74887222
-0.018111261 -0.063922107 0.74844873
-0.018111261 -0.03089565 0.74844873
-0.018111261 -0.026634216 0.74844879
-0.018111261 -0.019176632 0.74844885
0.017075779 -0.014941275 0.7488997
-0.018111261 -0.0085229278 0.74844879
-0.018111261 -0.0085229278 0.74844879
0.017076507 0.0074709952 0.74891067
-0.018111339 0.019176722 0.74844986
-0.018111339 0.019176722 0.74844986
-0.018141003 0.045886129 0.74887109
-0.018141003 0.0576244 0.74887115
-0.01814108 0.061893076 0.74887228
0.015974741 0.071353853 0.74835569
0.015974674 0.088393182 0.74835461
-0.020328391 -0.082383484 0.74954653
-0.022471489 -0.079185218 0.74958408
-0.023574736 -0.073938936 0.74994814
-0.02139483 -0.073812127 0.74950457
-0.02139483 -0.069533229 0.74950457
-0.020328652 -0.067405492 0.74954987
-0.02139483 -0.066323936 0.74950457
-0.02032874 -0.063126057 0.74955094
-0.021394921 -0.060975522 0.74950564
-0.019239059 -0.055579513 0.74928606
-0.021394921 -0.054557025 0.74950564
-0.021394921 -0.043859571 0.74950564
-0.019239141 -0.042753607 0.74928719
-0.020329261 -0.038518578 0.74955761
-0.023574736 -0.037505269 0.74994814
-0.021394921 -0.031022608 0.74950564
-0.021394921 -0.031022608 0.74950564
-0.021394921 -0.024604142 0.74950564
-0.019239387 -0.019239396 0.74929053
-0.021394921 -0.014976442 0.74950564
-0.022471586 -0.013910979 0.74958515
-0.021394921 -0.010697454 0.74950564
-0.021394921 -0.0096276999 0.74950564
-0.020329956 -0.0021399856 0.74956644
-0.021394921 0.0010697842 0.7495057
-0.022471586 0.0042803288 0.74958521
-0.022471586 0.0074905753 0.74958515
-0.021394921 0.010697484 0.74950564
-0.021394921 0.012836963 0.7495057
-0.021394921 0.016046226 0.74950564
-0.023574835 0.022503287 0.74994928
-0.020330304 0.022470355 0.74957085
-0.022471681 0.028892189 0.74958622
-0.019239141 0.029927582 0.74928719
-0.021394921 0.035301656 0.7495057
0.017111765 0.052404791 0.74944276
0.017111765 0.052404791 0.74944276
-0.024723511 -0.08384493 0.75075841
0.018236838 -0.081529379 0.7502321
-0.024723511 -0.06879586 0.75075847
-0.024723511 -0.06879586 0.75075847
-0.024723511 -0.0644961 0.75075847
0.018236838 -0.056856006 0.7502321
0.018236838 -0.036473662 0.7502321
-0.024723511 -0.03439793 0.75075853
0.018236838 -0.0289644 0.7502321
0.018236838 -0.026818901 0.7502321
-0.024723511 -0.01612401 0.75075841
0.018236838 -0.0053637624 0.7502321
0.018236838 -0.002145499 0.7502321
0.018236838 0.0064365566 0.7502321
0.018236838 0.012873113 0.7502321
0.018236838 0.012873113 0.7502321
0.018236838 0.018236876 0.7502321
0.018236838 0.032182693 0.7502321
-0.024723511 0.03439799 0.75075847
-0.024723511 0.03439799 0.75075847
0.018271152 0.046215266 0.75071943
0.018271152 0.047290057 0.75071943
0.019418085 -0.05286032 0.75168723
0.019418085 -0.05286032 0.75168723
0.019418085 -0.044230074 0.75168723
0.019418085 -0.024811983 0.75168729
0.019418085 -0.02157563 0.75168729
0.019418085 -0.010787815 0.75168729
0.019418085 0.0086302757 0.75168723
0.019418085 0.02157566 0.75168723
-0.020478589 0.053891033 0.75145495
0.019459957 0.061623216 0.75224882
0.019459957 0.061623216 0.75224882
0.01945979 0.068109304 0.75224662
0.020637382 -0.04996419 0.75347269
0.020637471 -0.04018873 0.75347382
-0.026028493 -0.039042711 0.75307256
0.020637471 0.038016438 0.75347376
-0.021696901 0.06617555 0.75315088
0.020690922 0.046826869 0.75415289
0.021916337 -0.079994619 0.75579971
0.021916337 -0.079994619 0.75579971
0.021916337 -0.07341969 0.75579971
0.021916337 -0.052599192 0.75579971
0.021916337 -0.040545195 0.75579971
0.021916337 -0.0098623335 0.75579965
0.021916337 -0.002191633 0.75579971
0.021916337 0.019724727 0.75579971
0.021916337 0.027395427 0.75579965
-0.02296829 0.044842869 0.75529552
-0.022968393 0.06999892 0.75529659
0.021985963 0.078050166 0.7566402
0.021985674 0.085744143 0.75663662
0.021985674 0.085744143 0.75663662
-0.024349004 0.083007962 0.75844473
0.023464268 0.061454028 0.7609973
-0.012108481 -0.083548486 0.78357077
-0.012108481 -0.071440011 0.78357077
-0.012108481 -0.071440011 0.78357077
-0.012108481 -0.071440011 0.78357077
-0.012108481 -0.059331536 0.78357077
-0.012108481 -0.059331536 0.78357077
-0.012108481 -0.021795243 0.78357077
-0.012108481 0.020584464 0.78357077
-0.010924017 -0.041268528 0.78427845
-0.010924017 -0.029130667 0.78427839
-0.010924017 -0.021848023 0.78427845
-0.00975734 -0.07927838 0.78569984
-0.00975734 -0.07805866 0.78569984
-0.00975734 -0.06342271 0.78569984
-0.00975734 -0.00609833 0.78569984
-0.00975734 0.01097706 0.7856999
-0.00975734 0.01219669 0.78569984
-0.00975734 0.02805236 0.78569984
-0.0073980372 -0.086310416 0.78892016
-0.0073980372 -0.085077405 0.78892016
-0.0086091915 -0.073793054 0.78816646
-0.0086091915 -0.072563142 0.78816646
-0.0073980372 -0.059184283 0.7889201
-0.0086091915 -0.052885026 0.78816652
-0.0086091915 -0.049195379 0.78816652
-0.0073980372 -0.039456159 0.7889201
-0.0086091915 -0.035666645 0.78816646
-0.0086091915 -0.015988469 0.7881664
-0.0086091915 -0.015988469 0.7881664
-0.0073980372 -0.0086310208 0.7889201
-0.0073980372 0.0036990643 0.78892016
-0.0073980372 0.011097103 0.7889201
-0.0086091915 0.015988529 0.78816652
-0.0086091915 0.019678175 0.78816652
-0.0073980372 0.034524202 0.78892016
-0.0073980372 0.034524202 0.78892016
-0.0086091915 0.050425291 0.78816652
-0.0061720265 -0.076533139 0.789258
-0.0049418644 -0.039534867 0.78951395
-0.0049418644 -0.029651195 0.78951401
-0.0061720265 -0.0037032366 0.78925794
-0.0049418644 0.0037064254 0.78951401
-0.0049418644 0.0037064254 0.78951401
-0.0061720265 0.025922507 0.78925794
-0.0061720265 0.040735394 0.789258
-0.0049418644 0.055595964 0.78951401
0.002768426 -0.082703188 0.74186945
0.00051861396 -0.077268183 0.74163795
0.00051861396 -0.077268183 0.74163795
-0.001037086 -0.075188726 0.74162078
0.010894319 -0.075224765 0.74174082
0.010894319 -0.075224765 0.74174082
0.0025951625 -0.071103826 0.74184442
0.010894318 -0.071074434 0.74174082
0.0005186043 -0.062746875 0.74163359
0.012791852 -0.055315118 0.74163884
0.00051859888 -0.043040559 0.7416296
0.010894319 -0.043059669 0.74174082
-0.0025930763 -0.032671787 0.74164832
-0.0025930763 -0.032671787 0.74164832
0.012966655 -0.032675378 0.74167585
0.0025950389 -0.03061986 0.74183226
0.010894318 -0.0088194385 0.74174082
0.0025949883 -0.0046707317 0.74182671
0.010894318 -0.0046691075 0.74174082
0.010894318 0.00051879883 0.74174082
0.012966655 0.021264941 0.74167591
0.0025949224 0.028542541 0.74181974
0.010894318 0.032683872 0.74174082
0.00051861606 0.036817119 0.74162447
0.002594912 0.038921483 0.74181867
-0.0010381963 0.062810898 0.74188888
-0.0010381963 0.06904009 0.74188888
0.00051923504 0.079432987 0.74192351
0.0088507552 -0.080701888 0.74264181
0.0088507552 -0.080701888 0.74264181
0.015109638 -0.072937064 0.74280059
0.015109638 -0.072937064 0.74280059
0.006771192 -0.067188315 0.74272984
0.015109638 -0.063039355 0.74280059
0.0088507552 -0.052586384 0.74264175
0.0088507552 -0.043214552 0.74264175
0.0067710686 -0.041145526 0.7427249
0.015109638 -0.030738197 0.74280059
0.0046778377 -0.015072204 0.74219483
0.0046777986 -0.004677549 0.74219298
0.0046777483 0.010914207 0.74219072
0.0088507738 0.010933831 0.74264228
0.0088507738 0.019264393 0.74264228
0.0046777055 0.027025446 0.74218887
0.006771097 0.04114572 0.74272597
0.0083631827 0.045474827 0.74362743
0.0046834629 0.047352575 0.74249703
0.0046834629 0.047352575 0.74249703
0.0046834238 0.054637127 0.74249494
-0.0067680678 0.06299258 0.74261391
-0.0067680981 0.069240078 0.74261498
-0.0067680981 0.069240078 0.74261498
0.004683407 0.071288288 0.74249446
-0.0067681158 0.078611091 0.74261546
0.006780271 0.080837496 0.74306405
0.0067803273 0.087096609 0.74306619
-0.014761213 -0.053245783 0.74579412
-0.014761275 -0.049028531 0.74579525
-0.014761431 -0.040593937 0.74579793
-0.011539591 -0.022554666 0.74451005
-0.014762053 -0.0026360601 0.7458086
-0.013129767 -0.0026258081 0.74481881
-0.011530283 0.052934483 0.74430579
0.011031156 0.059354894 0.74486613
0.012653481 0.062740192 0.7458145
-0.01314743 0.066785716 0.74515939
0.012653375 0.069066375 0.7458123
-0.013147319 0.075199015 0.74515724
0.012653242 0.082773328 0.74580967
-0.013147282 0.084664375 0.74515641
-0.011530621 0.085431457 0.74431324
0.0094248056 0.089012057 0.74406266
-0.015864864 -0.083026096 0.74658728
-0.015864864 -0.083026096 0.74658728
-0.016979877 -0.07694003 0.74745262
-0.015864797 -0.076679841 0.74658614
-0.016979877 -0.061021432 0.74745262
-0.016979877 -0.061021432 0.74745262
-0.015864596 -0.054997265 0.74658293
-0.016980236 -0.031307325 0.7474581
-0.015864328 -0.024854094 0.74657857
-0.01698038 -0.018572286 0.74746025
-0.016980523 -0.0090208948 0.74746245
-0.015864126 0.0026440471 0.74657536
-0.015864126 0.0089896917 0.74657536
-0.015864126 0.0089896917 0.74657536
-0.015864294 0.017450735 0.74657804
-0.015335105 0.06080839 0.74655819
0.013747165 0.071379542 0.74654293
0.014853925 0.079044133 0.74739289
-0.015335447 0.080903411 0.74656379
0.014853925 0.087001592 0.74739283
0.014853925 0.087001592 0.74739283
-0.023023114 -0.080847271 0.74976611
-0.023023114 -0.080847271 0.74976611
0.017073739 -0.078966051 0.74886894
-0.02320699 -0.076760285 0.74982679
-0.018487221 -0.04728223 0.74872828
-0.021039642 -0.045288794 0.74952233
-0.02302316 -0.023022756 0.74976659
-0.018675324 -0.011204645 0.7488696
-0.020862374 -0.0090938658 0.7495352
0.017076798 0.014942199 0.74891508
-0.020862613 0.020862691 0.74953818
-0.020862613 0.020862691 0.74953818
-0.020862568 0.032631323 0.74953771
-0.020862525 0.034771003 0.74953711
-0.020862525 0.03905049 0.74953717
-0.018141003 0.045352548 0.74887109
0.015974946 0.047392383 0.74835896
0.017111765 0.050800577 0.7494427
-0.01814108 0.061359525 0.74887228
0.01711202 0.062565878 0.74944657
-0.018141467 0.080569491 0.74887776
0.018630587 -0.069142483 0.75071716
-0.024723511 -0.0010749102 0.75075847
-0.024723511 0.0069871098 0.75075841
0.018827461 0.011295587 0.75095963
0.018827461 0.023129046 0.75095963
-0.0204785 0.049040616 0.75145388
0.018271584 0.062875792 0.75072563
-0.020479161 0.070599228 0.75146234
-0.026028493 -0.063444406 0.7530725
0.020637382 -0.062998325 0.75347269
0.020637382 -0.061369032 0.75347269
0.020637471 -0.042904198 0.75347382
0.020637471 -0.042904198 0.75347382
0.020637471 0.013034195 0.75347382
0.019460127 0.056758732 0.75225115
-0.021696996 0.071057677 0.75315201
0.019459704 0.078919917 0.75224543
0.019459873 0.084866673 0.75224769
0.021916337 -0.082734153 0.75579971
0.021916337 -0.082734153 0.75579971
0.021916337 -0.050955445 0.75579965
0.021916337 -0.035066098 0.75579971
0.021916337 -0.023012131 0.75579971
0.021916337 -0.0071227998 0.75579965
0.021916337 -0.0071227998 0.75579965
0.020691011 0.043560088 0.75415409
-0.022968341 0.069451913 0.75529599
0.020690201 0.076771542 0.75414383
-0.022969194 0.086954832 0.75530577
0.02198693 0.054967314 0.75665182
0.021985674 0.085194513 0.75663662
0.02331919 0.009438768 0.75932944
-0.00975734 -0.06708172 0.78569984
-0.010924017 -0.040661633 0.78427845
-0.010924017 -0.027309999 0.78427839
-0.010924017 0.016992927 0.78427845
-0.010924017 0.016992927 0.78427845
-0.00975734 0.02500321 0.78569984
-0.00975734 0.02500321 0.78569984
-0.010924017 0.040661633 0.78427845
-0.010924017 0.043089211 0.78427839
-0.010924017 0.043089211 0.78427839
-0.0067850319 -0.078957155 0.78908902
-0.0086091915 -0.06087926 0.78816652
-0.0069893673 -0.057150744 0.78903282
-0.0086091915 -0.049195379 0.78816652
-0.0086091915 -0.036896527 0.78816646
-0.0049418644 -0.021002889 0.78951401
-0.0049418644 -0.021002889 0.78951401
-0.0086091915 -0.015373513 0.78816646
-0.0086091915 -0.015373513 0.78816646
-0.0086091915 -0.004919529 0.78816652
-0.0086091915 0.00061492622 0.78816652
-0.0049418644 0.0049418807 0.78951406
-0.0086091915 0.0067643821 0.78816652
-0.0067850319 0.0092528239 0.78908902
-0.0049418644 0.01667881 0.78951406
-0.0067850319 0.030842647 0.78908908
-0.0067850319 0.030842647 0.78908908
-0.0086091915 0.047350571 0.78816652
0.0015568581 -0.057584725 0.74173594
0.0098725362 -0.050152935 0.74219131
0.0057245176 -0.0463055 0.74246269
0.009872539 -0.037939887 0.74219131
0.0098725464 -0.033782117 0.74219155
0.0015568123 -0.022307001 0.74172932
0.0098725464 -0.01819036 0.74219155
0.0015567816 0.01400646 0.74172437
0.014040343 0.026123378 0.74227035
0.005724391 0.029655673 0.74245691
0.0015586441 0.046224639 0.74202389
-0.0099322125 0.050178643 0.74362719
0.0057318364 0.053657107 0.74277949
-0.0018172385 0.070087984 0.74192357
-0.0018186833 0.090234846 0.74212188
-0.01458508 -0.074049965 0.74572963
-0.011539591 -0.073958278 0.74451005
-0.014585184 -0.04585392 0.74573153
-0.014585184 -0.04585392 0.74573153
-0.014585232 -0.030042335 0.74573255
-0.011539591 -0.021767855 0.74451005
-0.016980506 -0.010082155 0.74746215
-0.017005865 0.053674795 0.74784482
-0.011530633 0.086217731 0.74431348
-0.011530633 0.086217731 0.74431348
-0.014857266 0.092327297 0.74745047
-0.018580996 -0.08578828 0.74879515
-0.018580996 -0.08578828 0.74879515
-0.021942433 -0.065825291 0.74964672
-0.024723511 -0.014242873 0.75075847
0.017951638 -0.014062929 0.7499299
-0.018675322 0.0016006865 0.74886966
0.017951965 0.0058934018 0.74993503
-0.021942936 0.021942327 0.74965298
0.017903075 0.026201515 0.74987924
-0.020479139 0.069790781 0.75146198
-0.018719273 0.07794638 0.74947101
-0.026028493 -0.022232659 0.7530725
-0.026028605 0.041483119 0.75307369
0.019459661 0.078108937 0.75224489
0.019459661 0.078108937 0.75224489
-0.012108481 0.022097982 0.78357077
-0.012108481 0.026033238 0.78357077
-0.010340679 -0.081976354 0.78498918
-0.010340679 -0.053991713 0.78498912
-0.010340679 -0.026007079 0.78498912
-0.0086091915 -0.021830425 0.78816652
-0.0086091915 0.0058419555 0.78816652
-0.0058634481 0.013889121 0.78930151
