# .PCD v0.7 - Point Cloud Data file format
VERSION 0.7
FIELDS x y z
SIZE 4 4 4
TYPE F F F
COUNT 1 1 1
WIDTH 1349
HEIGHT 1
VIEWPOINT 0 0 0 1 0 0 0
POINTS 1349
DATA ascii
0.0083145415 -0.082106054 0.74215955
0.0082971351 -0.082971305 0.74163425
0.0082798358 -0.083833307 0.74111223
0.0082625737 -0.084691375 0.74059129
0.0082453834 -0.085545808 0.74007255
0.0082282992 -0.086397141 0.73955697
0.0082112504 -0.087244511 0.73904246
0.0081942733 -0.088088423 0.73853022
0.0081773987 -0.088929206 0.73802096
0.011317946 0.086770952 0.7948454
0.011281879 0.085240871 0.79387796
0.01124604 0.083720535 0.79291654
0.011210429 0.082209855 0.79196131
0.011175043 0.080708683 0.79101217
0.011139879 0.079216927 0.79006886
0.011104937 0.07773456 0.78913152
0.011070212 0.076261491 0.78820002
0.011035704 0.074797571 0.78727448
0.011001356 0.073342383 0.78635299
0.010967276 0.071896583 0.7854389
0.010933406 0.070459753 0.78453028
0.010899744 0.069031715 0.78362739
0.010866289 0.067612529 0.78272986
0.010833039 0.066201925 0.781838
0.010799992 0.064799964 0.7809515
0.010767196 0.063406825 0.78007185
0.010734702 0.062022775 0.77920014
0.010702404 0.060646981 0.77833378
0.0106703 0.059279442 0.77747262
0.010638387 0.057920128 0.77661651
0.010606664 0.056568921 0.77576554
0.010575131 0.0552257 0.77491975
0.010543784 0.053890467 0.77407879
0.010512622 0.052563131 0.77324295
0.010481644 0.051243603 0.77241194
0.010450801 0.049931616 0.77158463
0.010420186 0.048627555 0.7707634
0.010389749 0.047331065 0.76994693
0.01035949 0.046042174 0.76913524
0.010329408 0.044760764 0.76832831
0.010299498 0.043486804 0.76752597
0.010269762 0.042220145 0.76672834
0.010240197 0.040960819 0.76593524
0.010210801 0.039708674 0.76514673
0.010181575 0.038463742 0.76436275
0.010152514 0.037225872 0.76358318
0.010123574 0.035994947 0.76280689
0.010094844 0.034771115 0.7620362
0.010066275 0.033554286 0.76126987
0.010037868 0.032344252 0.76050788
0.010009622 0.031141043 0.75975019
0.0099815335 0.029944628 0.75899673
0.0099536031 0.02875486 0.75824749
0.0099258274 0.027571738 0.75750238
0.0098982062 0.026395202 0.75676155
0.0098707397 0.025225222 0.75602472
0.0098433811 0.02406159 0.75529081
0.0098162172 0.022904545 0.75456214
0.0097892024 0.021753788 0.75383747
0.0097623356 0.020609409 0.75311679
0.0097356169 0.019471258 0.7524001
0.0097090425 0.018339276 0.75168729
0.0096826134 0.017213553 0.75097835
0.0096563287 0.01609391 0.75027317
0.0096301846 0.014980286 0.74957192
0.009604184 0.013872713 0.74887443
0.0095782811 0.01277104 0.74817961
0.009552558 0.011675358 0.74748963
0.0095269727 0.010585546 0.74680334
0.0095015243 0.0095015168 0.74612069
0.0094762119 0.0084232688 0.74544168
0.0094510345 0.0073508322 0.74476624
0.0094259894 0.0062840283 0.74409443
0.0094010765 0.005222857 0.7434262
0.0093762958 0.0041672885 0.74276143
0.0093516447 0.0031172335 0.74210018
0.0093270848 0.0020727217 0.74144137
0.0093027307 0.0010336637 0.7407881
0.0092785414 -0 0.74013925
0.0092545152 -0.0010282695 0.73949474
0.0092305755 -0.0020512342 0.73885262
0.0092067588 -0.0030688941 0.73821366
0.009183066 -0.0040813386 0.73757815
0.0091595305 -0.0050886273 0.73694682
0.0091360798 -0.0060907304 0.73631769
0.0091127474 -0.0070876479 0.73569191
0.0090895724 -0.0080795884 0.73507023
0.0090664774 -0.0090664625 0.73445064
0.0090434989 -0.0100483 0.73383427
0.0090206377 -0.01102519 0.73322105
0.0089979265 -0.011997253 0.73261189
0.0089752944 -0.012964308 0.73200482
0.008952776 -0.013926536 0.73140073
0.0089303693 -0.014883935 0.73079967
0.0089081116 -0.015836626 0.73020256
0.0088859284 -0.016784519 0.72960758
0.0088638552 -0.017727703 0.72901547
0.0088418918 -0.018666208 0.72842622
0.0088200709 -0.019600183 0.72784096
0.0087983236 -0.020529389 0.72725761
0.0087766834 -0.021454126 0.72667712
0.0087551493 -0.022374272 0.72609943
0.0087470878 -0.023325533 0.72588319
0.0087257326 -0.02423811 0.72531033
0.0087044807 -0.025146246 0.72474027
0.0086833322 -0.026050001 0.72417301
0.0086622862 -0.026949316 0.72360843
0.0086413426 -0.02784431 0.7230466
0.0086204996 -0.028735012 0.72248751
0.0085997563 -0.029621363 0.7219311
0.0085791135 -0.030503511 0.72137737
0.0085585695 -0.031381398 0.72082627
0.0085381232 -0.032255083 0.72027779
0.0085177748 -0.033124655 0.71973193
0.0084975231 -0.033990085 0.71918869
0.0084773665 -0.034851402 0.71864808
0.0084573068 -0.035708606 0.71810997
0.0084373411 -0.036561817 0.71757436
0.0084174685 -0.037410975 0.71704137
0.008397691 -0.038256168 0.71651077
0.0083780056 -0.039097339 0.71598274
0.0083584124 -0.039934605 0.71545708
0.0083389096 -0.040767998 0.71493399
0.008319499 -0.041597486 0.71441329
0.0083001768 -0.042423129 0.71389496
0.0082809459 -0.043244898 0.71337914
0.0082618026 -0.044062912 0.71286565
0.0082427794 -0.044877321 0.71235532
0.0082238121 -0.045687824 0.71184659
0.0082049323 -0.046494603 0.71134013
0.0081861392 -0.047297686 0.71083599
0.0081674317 -0.048097074 0.71033418
0.0081488099 -0.048892856 0.70983464
0.0081302729 -0.049685001 0.70933735
0.0081118196 -0.050473511 0.7088424
0.0080934502 -0.051258504 0.70834959
0.0080751637 -0.052039891 0.7078591
0.0080569591 -0.052817822 0.70737076
0.0080388365 -0.053592235 0.70688462
0.0080207968 -0.054363161 0.70640063
0.0080028363 -0.055130601 0.70591891
0.0079849558 -0.055894673 0.70543933
0.0079671564 -0.056655318 0.70496184
0.0079494352 -0.057412595 0.70448643
0.0079317931 -0.058166474 0.70401323
0.0079142284 -0.058917016 0.70354211
0.0078967419 -0.059664249 0.70307302
0.0078793885 -0.060408622 0.70260751
0.0078621097 -0.061149746 0.70214403
0.0078449072 -0.061887592 0.70168257
0.0078277802 -0.062622249 0.70122313
0.0078107272 -0.063353688 0.70076573
0.0078042024 -0.064167887 0.70059067
0.0078040673 -0.065033883 0.70058703
0.0078040133 -0.065900534 0.7005856
0.0093778186 -0.080232412 0.74280226
0.0093581751 -0.081104189 0.74227536
0.0093385745 -0.081971943 0.74174964
0.0093190549 -0.082836032 0.74122602
0.0092996573 -0.083696932 0.74070567
0.0092802998 -0.084553838 0.74018645
0.0092610233 -0.085407227 0.73966932
0.0092418659 -0.086257398 0.73915541
0.0092227487 -0.087103724 0.73864257
0.0092037106 -0.087946534 0.73813188
0.0091895871 -0.088832647 0.73775303
0.012577076 0.085524142 0.79488361
0.012536739 0.083996147 0.79390979
0.012496661 0.082477957 0.79294223
0.0124569 0.08096987 0.79198229
0.01241733 0.079470932 0.79102701
0.012378071 0.077981889 0.79007924
0.012339001 0.076501787 0.78913593
0.012300235 0.075031489 0.78820002
0.012261712 0.073570311 0.78727001
0.01222361 0.072119355 0.78635019
0.012185743 0.07067734 0.78543597
0.01214811 0.069244236 0.78452742
0.012110709 0.067819983 0.78362453
0.012073538 0.066404492 0.78272712
0.012036595 0.064997643 0.7818352
0.011999875 0.063599378 0.7809487
0.01196338 0.062209606 0.78006762
0.011927106 0.060828239 0.77919191
0.011891051 0.059455276 0.7783215
0.011855214 0.058090538 0.77745628
0.011819592 0.056734085 0.77659631
0.011784184 0.055385709 0.77574146
0.011748986 0.05404532 0.77489179
0.011713998 0.052713037 0.77404702
0.01167922 0.051388592 0.77320743
0.011644646 0.050071985 0.77237278
0.011610276 0.048763156 0.77154297
0.011576109 0.047462046 0.7707181
0.011542141 0.046168596 0.76989806
0.011508321 0.044882447 0.76908153
0.011474751 0.043604046 0.76827109
0.011441375 0.042333096 0.76746535
0.011408193 0.041069478 0.76666427
0.011375204 0.039813221 0.76586783
0.011342403 0.038564175 0.76507598
0.011309792 0.037322342 0.7642886
0.011277368 0.036087602 0.76350582
0.011245129 0.034859955 0.76272756
0.011213074 0.033639252 0.76195359
0.011181201 0.032425463 0.76118422
0.01114951 0.031218648 0.76041913
0.011117997 0.030018598 0.75965828
0.011086661 0.028825343 0.75890177
0.011055502 0.027638793 0.7581495
0.011024518 0.026458859 0.75740147
0.010993706 0.025285542 0.7566576
0.010963066 0.024118781 0.75591797
0.010932597 0.022958487 0.75518239
0.010902297 0.021804601 0.75445086
0.010872165 0.020657122 0.75372332
0.010842198 0.019515961 0.7529999
0.010812536 0.018381327 0.75228381
0.010783036 0.017252862 0.7515716
0.010753697 0.016130537 0.75086337
0.010724516 0.01501438 0.75015885
0.010695494 0.013904124 0.74945819
0.010666583 0.012799919 0.74876022
0.010637873 0.011701673 0.74806702
0.010609318 0.010609359 0.74737769
0.010580914 0.0095228553 0.74669194
0.010552663 0.0084421635 0.74600995
0.010524563 0.0073672235 0.74533153
0.010496611 0.0062979758 0.74465668
0.010468807 0.0052343905 0.74398553
0.010441151 0.0041764975 0.74331778
0.01041364 0.0031241179 0.74265361
0.010386273 0.0020772815 0.74199295
0.010359008 0.0010358989 0.74133468
0.010331928 5.9604645e-08 0.74068093
0.010304988 -0.0010305047 0.74003059
0.01027819 -0.0020555854 0.73938352
0.01025153 -0.0030754507 0.73873997
0.010225007 -0.0040899515 0.73809958
0.010198623 -0.0050992668 0.73746264
0.010172374 -0.0061034262 0.73682892
0.010146259 -0.0071023405 0.73619848
0.010120279 -0.0080962181 0.73557127
0.01009443 -0.0090849698 0.7349472
0.010068674 -0.010068655 0.73432541
0.010043088 -0.011047393 0.73370767
0.010017633 -0.012021154 0.73309314
0.0099923061 -0.012989998 0.73248172
0.0099671064 -0.013953954 0.73187333
0.0099420343 -0.014913023 0.73126805
0.0099170869 -0.015867352 0.7306658
0.0098922653 -0.016816825 0.73006654
0.0098675676 -0.017761618 0.72947025
0.0098429928 -0.018701643 0.72887695
0.0098185018 -0.019636959 0.72828573
0.00979417 -0.020567715 0.72769833
0.0097699594 -0.021493942 0.72711378
0.0097458679 -0.022415519 0.72653222
0.0097360071 -0.023366362 0.7262941
0.0097133266 -0.02428329 0.72574651
0.0096895499 -0.025192827 0.72517258
0.0096658533 -0.026097775 0.72460049
0.0096423095 -0.02699846 0.72403204
0.0096188784 -0.027894735 0.7234664
0.0095955264 -0.02878657 0.72290266
0.0095723225 -0.029674172 0.72234237
0.0095492313 -0.030557513 0.72178495
0.0095262146 -0.031436503 0.72122931
0.0095033441 -0.03231135 0.72067714
0.0094805844 -0.033182025 0.72012764
0.0094578974 -0.034048408 0.71957994
0.0094353529 -0.034910798 0.71903563
0.0094129173 -0.035769075 0.71849406
0.0093905879 -0.03662324 0.71795493
0.0093683284 -0.037473291 0.7174176
0.0093462095 -0.038319439 0.7168836
0.0093241949 -0.039161623 0.71635211
0.0093023535 -0.040000141 0.71582478
0.0092806136 -0.040834695 0.7152999
0.0092589743 -0.041665375 0.71477753
0.0092374366 -0.042492181 0.7142576
0.0092159985 -0.043315202 0.71373999
0.00919466 -0.044134349 0.71322489
0.0091734193 -0.04494974 0.71271205
0.0091522774 -0.045761377 0.7122016
0.0091312323 -0.046569258 0.71169353
0.009110284 -0.047373474 0.71118784
0.0090894653 -0.048174143 0.71068525
0.009068707 -0.048970997 0.7101841
0.0090480447 -0.049764216 0.70968527
0.0090274755 -0.050553828 0.70918864
0.0090069994 -0.051339924 0.70869434
0.0089866165 -0.052122355 0.70820218
0.0089663258 -0.052901298 0.70771235
0.0089461273 -0.053676754 0.70722473
0.0089260181 -0.054448664 0.70673925
0.0089059994 -0.055217206 0.70625603
0.0088861026 -0.055982441 0.70577562
0.0088662626 -0.056744069 0.70529664
0.0088465111 -0.0575023 0.7048198
0.0088268472 -0.058257163 0.70434499
0.0088072708 -0.059008688 0.70387244
0.008787781 -0.059756875 0.70340192
0.0087683769 -0.060501814 0.70293343
0.0087490585 -0.061243415 0.70246708
0.0087298248 -0.061981738 0.70200276
0.0087106759 -0.062716842 0.70154041
0.0086916406 -0.063448995 0.70108086
0.0086827418 -0.064252317 0.7008661
0.0086826822 -0.065120101 0.70086455
0.0086826514 -0.065988153 0.70086384
0.010398706 -0.080069989 0.74229306
0.010377097 -0.080941349 0.7417714
0.010355535 -0.081808716 0.74125081
0.010334061 -0.082672447 0.74073243
0.01031272 -0.083533019 0.74021721
0.010291424 -0.084389657 0.739703
0.010270215 -0.085242778 0.73919106
0.010249094 -0.086092383 0.73868114
0.010228101 -0.086938828 0.73817432
0.010207153 -0.087781489 0.73766857
0.010210653 -0.088832647 0.73775303
0.013887984 0.08585301 0.79605126
0.013842995 0.084316462 0.79506379
0.013798296 0.082789779 0.79408276
0.013753884 0.08127299 0.79310811
0.013709826 0.079766273 0.79214114
0.013666254 0.078270376 0.79118484
0.013623024 0.076784313 0.790236
0.013580001 0.07530728 0.78929174
0.013537248 0.073839545 0.78835344
0.013494829 0.072381377 0.78742242
0.013452609 0.070931941 0.78649592
0.01341072 0.069491923 0.78557652
0.013369024 0.068060517 0.78466141
0.013327587 0.066637933 0.78375196
0.01328647 0.065224499 0.78284949
0.013245543 0.063819408 0.78195131
0.013204867 0.062423021 0.78105855
0.013164503 0.061035454 0.78017271
0.013124322 0.059656024 0.7792908
0.013084448 0.058285296 0.77841568
0.013044754 0.056922585 0.7775445
0.01300536 0.055568397 0.77667993
0.012966144 0.054222077 0.77581918
0.012927163 0.052883863 0.77496368
0.012888476 0.051553905 0.77411461
0.012849961 0.050231695 0.77326924
0.012811675 0.048917323 0.77242911
0.012773675 0.047610968 0.771595
0.012735841 0.046312153 0.77076465
0.012698289 0.045021236 0.7699405
0.0126609 0.04373765 0.76911998
0.01262373 0.042461634 0.76830411
0.012586837 0.041193306 0.76749444
0.0125501 0.039932162 0.76668811
0.012513634 0.038678497 0.7658878
0.012477322 0.037431985 0.76509088
0.012441221 0.036192656 0.7642985
0.012405385 0.034960628 0.76351202
0.012369698 0.033735543 0.76272875
0.012334271 0.032517642 0.76195127
0.012299158 0.031306952 0.76118064
0.012264296 0.030103296 0.76041543
0.012229634 0.028906435 0.7596547
0.012195165 0.027716309 0.7588982
0.012160891 0.026532888 0.75814599
0.012126809 0.025356084 0.75739801
0.012092917 0.024185836 0.75665414
0.012059215 0.023022115 0.75591451
0.012025699 0.021864921 0.75517893
0.01199237 0.020714104 0.7544474
0.011959225 0.019569635 0.75371999
0.011926262 0.018431515 0.75299656
0.011893481 0.017299592 0.75227708
0.011860879 0.016173959 0.75156152
0.011828456 0.015054375 0.7508499
0.01179621 0.01394099 0.75014222
0.011764138 0.012833595 0.74943835
0.01173224 0.01173225 0.74873823
0.011700517 0.010636866 0.74804199
0.011668962 0.0095473826 0.74734944
0.011637579 0.0084637403 0.74666065
0.011606363 0.00738585 0.74597561
0.011575313 0.0063138306 0.74529409
0.011544431 0.0052475035 0.74461627
0.011513713 0.0041868389 0.74394214
0.011483157 0.003131777 0.74327153
0.011452763 0.0020823181 0.74260449
0.01142253 0.0010384619 0.74194086
0.011392456 2.9802322e-08 0.74128079
0.01136254 -0.0010329783 0.74062425
0.01133278 -0.002060473 0.7399711
0.011303176 -0.003082633 0.73932141
0.011273726 -0.0040995181 0.73867506
0.011244429 -0.0051110685 0.73803204
0.011215284 -0.0061174035 0.73739243
0.011186291 -0.0071184933 0.73675603
0.011157447 -0.0081144869 0.73612303
0.01112875 -0.0091053247 0.73549318
0.011100201 -0.010091096 0.73486662
0.011071797 -0.011071771 0.73424327
0.01104354 -0.01204744 0.73362303
0.011015425 -0.013018221 0.733006
0.010987455 -0.013983995 0.73239213
0.010959625 -0.014944941 0.73178136
0.010931937 -0.01590097 0.73117363
0.010904387 -0.01685223 0.73056901
0.010877062 -0.017798811 0.72996932
0.010849874 -0.018740714 0.72937262
0.010822864 -0.019677937 0.72877979
0.010795987 -0.020610511 0.72818995
0.010769244 -0.021538466 0.72760296
0.010742635 -0.022461861 0.72701895
0.010726513 -0.023403287 0.72666514
0.010706691 -0.024333328 0.72623008
0.01068043 -0.025244623 0.72565371
0.010654255 -0.026151359 0.7250793
0.01062825 -0.027053744 0.72450852
0.010602372 -0.027951688 0.72394055
0.010576578 -0.028845191 0.72337449
0.010550951 -0.029734492 0.72281194
0.010525446 -0.030619472 0.72225225
0.010500026 -0.031500071 0.72169435
0.010474768 -0.032376558 0.72114003
0.01044963 -0.033248812 0.72058827
0.010424573 -0.034116805 0.72003835
0.010399677 -0.034980714 0.7194919
0.010374897 -0.035840511 0.71894813
0.010350237 -0.036696285 0.71840692
0.010325654 -0.037547827 0.71786731
0.010301227 -0.038395494 0.71733123
0.010276915 -0.039239138 0.71679765
0.010252679 -0.04007864 0.7162658
0.010228595 -0.040914357 0.71573716
0.010204623 -0.041746169 0.71521103
0.010180765 -0.042574108 0.71468741
0.01015698 -0.043397963 0.71416539
0.010133343 -0.044218212 0.71364659
0.010109816 -0.045034617 0.71313018
0.010086398 -0.045847237 0.71261626
0.01006305 -0.046655983 0.7121039
0.010039848 -0.047461092 0.7115947
0.010016753 -0.048262507 0.71108776
0.0099937273 -0.049060106 0.71058238
0.0099708438 -0.049854159 0.71008015
0.0099480636 -0.050644666 0.70958024
0.0099253878 -0.051431537 0.70908248
0.0099027799 -0.052214622 0.70858634
0.0098803099 -0.05299437 0.70809323
0.0098579424 -0.053770602 0.70760226
0.009835639 -0.054543078 0.70711279
0.0098134726 -0.055312306 0.7066263
0.0097914068 -0.056078047 0.70614201
0.0097694388 -0.05684033 0.70565981
0.0097475341 -0.057599038 0.7051791
0.0097257625 -0.058354557 0.7047013
0.0097040879 -0.059106678 0.70422554
0.0096825091 -0.059855491 0.70375198
0.0096609937 -0.060600758 0.70327973
0.0096396059 -0.061342925 0.70281041
0.0096183131 -0.062081814 0.70234299
0.0095970808 -0.062817246 0.70187706
0.0095759751 -0.063549668 0.70141387
0.0095641948 -0.064340919 0.7011553
0.009564626 -0.065213323 0.70116478
0.0095650591 -0.066085845 0.70117426
0.0096808411 -0.067765862 0.70371538
0.011391182 -0.080773801 0.7412529
0.011367609 -0.081640065 0.74073553
0.011344133 -0.082502753 0.74022025
0.011320752 -0.083361864 0.73970711
0.011297469 -0.084217489 0.73919618
0.011274327 -0.085069895 0.73868823
0.011251233 -0.085918516 0.73818141
0.011228235 -0.086763591 0.73767662
0.01120533 -0.087605298 0.73717397
0.01516821 0.0846892 0.79640692
0.015118636 0.083152533 0.79540956
0.015069611 0.081627071 0.79442328
0.015021054 0.080112308 0.79344642
0.014972809 0.078607291 0.7924757
0.014924873 0.07711184 0.7915113
0.014877242 0.075625986 0.79055309
0.014829987 0.074149966 0.7896024
0.01478296 0.072682917 0.78865629
0.014736229 0.071225137 0.78771615
0.014689793 0.069776535 0.78678191
0.014643648 0.068337023 0.78585356
0.014597793 0.066906571 0.78493106
0.014552223 0.065485001 0.78401423
0.014506939 0.064072371 0.78310311
0.014461934 0.062668413 0.78219771
0.014417208 0.061273128 0.78129792
0.014372757 0.059886545 0.78040361
0.014328579 0.058508396 0.77951491
0.014284673 0.057138741 0.77863151
0.014241036 0.055777401 0.77775359
0.014197663 0.054424375 0.77688104
0.014154555 0.053079575 0.77601373
0.014111773 0.05174318 0.77515304
0.014069184 0.050414622 0.77429622
0.01402685 0.049093992 0.77344453
0.013984771 0.047781318 0.77259803
0.013942944 0.046476483 0.77175647
0.013901366 0.045179456 0.77091992
0.013860034 0.043890119 0.77008849
0.013818948 0.04260844 0.76926184
0.013778104 0.041334331 0.76844013
0.013737755 0.040068477 0.76762843
0.01369764 0.038809985 0.76682138
0.013657819 0.037559032 0.76602024
0.013618168 0.036315113 0.76522255
0.013578748 0.035078436 0.76442939
0.013539616 0.033849031 0.76364213
0.013500648 0.032626599 0.76285815
0.013461963 0.03141129 0.76207983
0.013423441 0.030202806 0.76130486
0.013385138 0.029001147 0.76053429
0.013347113 0.02780652 0.75976932
0.013309242 0.026618481 0.75900745
0.013271646 0.025437355 0.75825101
0.013234204 0.024262756 0.75749773
0.01319697 0.023094714 0.75674868
0.013160005 0.021933347 0.75600493
0.013123188 0.020778358 0.75526428
0.013086578 0.019629896 0.75452769
0.013050226 0.018487841 0.75379634
0.013014021 0.017352045 0.75306797
0.012978071 0.016222596 0.75234479
0.012942265 0.015099317 0.75162435
0.01290671 0.013982296 0.75090909
0.012871295 0.012871295 0.75019658
0.012836074 0.011766434 0.749488
0.0128011 0.010667622 0.74878436
0.012766262 0.0095747113 0.74808347
0.012731613 0.0084877312 0.7473864
0.012697204 0.0074067116 0.74669415
0.012662928 0.0063315034 0.74600458
0.012628891 0.0052620471 0.74531972
0.012594982 0.0041983128 0.74463761
0.012561255 0.0031403005 0.74395907
0.012527759 0.0020879805 0.74328518
0.012494391 0.0010412633 0.74261385
0.012461253 -0 0.74194717
0.012428236 -0.0010356605 0.74128288
0.012395395 -0.0020658672 0.74062222
0.01236288 -0.0030907094 0.73996806
0.012330586 -0.0041101873 0.73931837
0.01229846 -0.0051243305 0.73867202
0.0122665 -0.0061332285 0.738029
0.012234706 -0.0071369112 0.73738939
0.012203078 -0.0081353486 0.73675305
0.012171611 -0.00912866 0.73611999
0.012140308 -0.010116905 0.7354902
0.012109163 -0.011100084 0.73486376
0.012078179 -0.012078166 0.73424029
0.012047353 -0.013051301 0.73362017
0.012016685 -0.01401943 0.73300314
0.01198617 -0.01498273 0.73238927
0.011955812 -0.015941083 0.7317785
0.011925607 -0.016894609 0.73117077
0.011895553 -0.017843336 0.7305662
0.011865652 -0.018787265 0.72996461
0.011835899 -0.019726485 0.729366
0.011806296 -0.020660996 0.72877049
0.01177684 -0.021590859 0.72817785
0.011747532 -0.022516102 0.72758818
0.011718368 -0.023436725 0.72700155
0.011708496 -0.024392694 0.72680289
0.011679572 -0.025305688 0.72622091
0.01165079 -0.026214272 0.72564191
0.011622103 -0.027118236 0.72506481
0.011593604 -0.028017849 0.72449142
0.011565243 -0.028913081 0.72392082
0.011537021 -0.029803932 0.72335303
0.011508937 -0.030690491 0.72278804
0.011480988 -0.0315727 0.72222579
0.011453175 -0.032450646 0.72166622
0.011425497 -0.033324391 0.72110933
0.011397952 -0.034193814 0.72055519
0.011370539 -0.035059154 0.72000372
0.011343258 -0.035920322 0.71945488
0.011316065 -0.036777198 0.71890771
0.011289044 -0.037630141 0.71836412
0.011262152 -0.038479 0.71782315
0.011235389 -0.039323837 0.71728468
0.011208751 -0.040164679 0.71674877
0.01118224 -0.041001529 0.71621543
0.011155855 -0.041834414 0.71568459
0.011129593 -0.042663395 0.71515626
0.011103455 -0.043488503 0.71463037
0.011077438 -0.044309735 0.71410692
0.011051504 -0.045126945 0.7135852
0.011025731 -0.045940518 0.71306664
0.011000077 -0.046750307 0.71255058
0.010974543 -0.047556341 0.71203685
0.010949127 -0.048358649 0.71152556
0.010923828 -0.049157232 0.7110166
0.010898647 -0.04995212 0.7105099
0.010873659 -0.050743699 0.71000719
0.010848825 -0.051531881 0.70950758
0.010824066 -0.052316338 0.70900947
0.010799457 -0.053097308 0.70851445
0.010774961 -0.053874761 0.70802158
0.010750537 -0.054648578 0.70753026
0.010726262 -0.055418998 0.70704186
0.010702096 -0.05618602 0.70655566
0.010678039 -0.056949526 0.70607167
0.010654052 -0.057709396 0.70558906
0.01063021 -0.058466136 0.70510942
0.010606474 -0.05921948 0.70463192
0.010582807 -0.059969187 0.70415574
0.010559282 -0.060715884 0.70368254
0.010535863 -0.061459213 0.70321131
0.010512547 -0.062199205 0.70274222
0.010489296 -0.06293574 0.70227444
0.010466185 -0.063669294 0.70180953
0.010450446 -0.064444423 0.70149279
0.010450919 -0.065318227 0.70150232
0.010451356 -0.066191912 0.70151114
0.010539599 -0.067629099 0.70328647
0.012396981 -0.080580384 0.74065417
0.012371388 -0.081444949 0.74013925
0.012345899 -0.082305998 0.73962641
0.012320516 -0.08316347 0.73911572
0.012295236 -0.084017456 0.73860711
0.012270059 -0.084867895 0.73810065
0.012245037 -0.085715234 0.73759723
0.012220066 -0.086558789 0.73709482
0.012195196 -0.087398887 0.73659456
0.01651735 0.08512786 0.7979877
0.016462589 0.083579302 0.79697073
0.016408188 0.082040936 0.79596049
0.016354637 0.080515176 0.79496598
0.016301354 0.078998893 0.79397655
0.016248502 0.077492863 0.79299498
0.016195988 0.075996578 0.79201972
0.016143732 0.074509531 0.7910493
0.016091892 0.073032469 0.79008663
0.016040385 0.071564764 0.78913009
0.015989127 0.070106179 0.78817815
0.015938275 0.06865719 0.78723383
0.015887745 0.06721738 0.78629541
0.015837455 0.065786332 0.78536147
0.01578756 0.064364702 0.78443491
0.015737981 0.062951952 0.78351414
0.015688634 0.061547726 0.78259778
0.015639672 0.06015262 0.78168851
0.015591014 0.058766186 0.78078485
0.015542584 0.057388037 0.77988541
0.015494526 0.05601868 0.77899301
0.015446767 0.054657847 0.77810609
0.015399226 0.05330506 0.77722323
0.015352052 0.051960826 0.7763471
0.015305164 0.050624788 0.77547646
0.015258491 0.049296707 0.77460968
0.015212174 0.047976881 0.77374941
0.015166135 0.046665072 0.7728945
0.015120585 0.045361757 0.77204865
0.015075449 0.044066697 0.77121037
0.015030581 0.042779356 0.7703771
0.014985979 0.041499674 0.76954883
0.014941641 0.040227532 0.76872545
0.014897633 0.03896302 0.76790822
0.014853816 0.037705839 0.76709449
0.014810255 0.036456048 0.76628548
0.014766949 0.0352135 0.76548123
0.014723896 0.033978224 0.7646817
0.014681093 0.03275016 0.76388687
0.014638538 0.031529188 0.76309657
0.014596229 0.03031525 0.76231086
0.014554165 0.029108346 0.76152968
0.014512341 0.027908385 0.76075298
0.014470758 0.026715249 0.75998074
0.014429414 0.025528967 0.75921291
0.014388303 0.024349451 0.75844949
0.014347427 0.023176581 0.75769037
0.014306782 0.022010446 0.75693554
0.014266366 0.020850867 0.75618494
0.014226179 0.019697785 0.75543869
0.014186217 0.018551201 0.75469655
0.014146478 0.017411083 0.75395858
0.014106962 0.016277283 0.75322479
0.014067667 0.015149772 0.75249499
0.014028649 0.014028698 0.75177038
0.013989788 0.012913674 0.75104868
0.01395114 0.011804789 0.75033098
0.013912708 0.010702074 0.74961728
0.013874484 0.0096054077 0.74890745
0.01383647 0.0085147619 0.74820149
0.013798784 0.0074301064 0.74750161
0.013761475 0.0063514709 0.74680877
0.013724308 0.0052785873 0.74611849
0.013687342 0.0042115152 0.74543208
0.013650634 0.0031501651 0.74475032
0.013614063 0.0020944476 0.74407119
0.013577746 0.0010444522 0.74339676
0.013541564 -0 0.74272478
0.013505632 -0.0010388792 0.7420575
0.013469833 -0.0020722747 0.74139261
0.013434224 -0.0031002164 0.74073136
0.013398859 -0.0041227043 0.74007457
0.013363623 -0.0051398277 0.73942029
0.013328573 -0.0061516464 0.73876935
0.013293759 -0.0071581602 0.73812282
0.013259075 -0.008159399 0.73747867
0.013224624 -0.0091555119 0.73683894
0.013190297 -0.010146379 0.73620147
0.013156149 -0.011132121 0.73556733
0.013122231 -0.012112826 0.73493737
0.013088433 -0.013088405 0.73430973
0.013054862 -0.014059097 0.73368627
0.01302141 -0.015024692 0.73306513
0.01298813 -0.01598537 0.73244703
0.01295507 -0.01694122 0.7318331
0.012922127 -0.017892152 0.73122132
0.012889403 -0.018838346 0.73061359
0.012856794 -0.019779682 0.73000801
0.012824347 -0.02071628 0.72940546
0.012792116 -0.021648169 0.72880691
0.012759996 -0.022575378 0.72821039
0.012728087 -0.023497999 0.7276178
0.012717983 -0.024457633 0.72743022
0.012686332 -0.025372654 0.7268424
0.01265479 -0.026282996 0.72625661
0.012623403 -0.027188867 0.72567379
0.012592221 -0.028090358 0.72509468
0.012561144 -0.028987229 0.72451752
0.012530268 -0.029879868 0.72394419
0.012499497 -0.030767947 0.7233727
0.012468922 -0.031651855 0.7228049
0.012438451 -0.032531321 0.72223902
0.012408127 -0.033406466 0.72167587
0.012377998 -0.034277499 0.72111636
0.012347968 -0.03514421 0.7205587
0.012318132 -0.036006838 0.72000456
0.012288484 -0.036865443 0.71945399
0.012259071 -0.037720174 0.71890771
0.012229798 -0.038570881 0.71836412
0.012200666 -0.039417505 0.71782315
0.012171672 -0.040260166 0.71728474
0.012142814 -0.041098744 0.71674871
0.012114049 -0.041933209 0.7162146
0.012085465 -0.042763919 0.71568376
0.012057014 -0.043590754 0.71515548
0.012028698 -0.044413656 0.71462959
0.012000515 -0.045232683 0.71410608
0.011972463 -0.046047896 0.7135852
0.011944541 -0.046859324 0.7130667
0.011916751 -0.047666997 0.71255052
0.011889088 -0.048470914 0.71203691
0.011861553 -0.049271047 0.71152556
0.011834104 -0.050067365 0.71101582
0.011806824 -0.050860137 0.71050912
0.01177967 -0.051649302 0.71000481
0.01175264 -0.052434832 0.70950288
0.011725733 -0.053216785 0.70900321
0.01169895 -0.053995162 0.70850587
0.011672287 -0.054769963 0.70801067
0.011645748 -0.055541247 0.70751774
0.011619329 -0.056309044 0.7070272
0.011593028 -0.057073385 0.7065388
0.011566806 -0.057834029 0.70605183
0.011540743 -0.058591455 0.70556778
0.011514796 -0.059345484 0.70508599
0.011488967 -0.060096115 0.70460624
0.011463254 -0.060843408 0.70412874
0.011437654 -0.061587363 0.70365334
0.01141217 -0.062328011 0.70318007
0.011386797 -0.06306532 0.7027089
0.011361538 -0.063799381 0.70223981
0.011341135 -0.064557225 0.7018609
0.011342361 -0.065436691 0.70188367
0.011343548 -0.066316098 0.70190573
0.011417898 -0.067629099 0.70328647
0.013393561 -0.080361366 0.73997629
0.01336615 -0.081225038 0.73946714
0.01333885 -0.082085222 0.73896021
0.013311662 -0.08294189 0.7384553
0.013284584 -0.083795041 0.73795241
0.013257615 -0.084644765 0.73745161
0.013230757 -0.085491031 0.73695284
0.013204006 -0.086333901 0.73645604
0.013177365 -0.087173343 0.73596132
0.017836288 0.084085375 0.79882193
0.01777618 0.082532287 0.7977854
0.017716475 0.080989659 0.79675579
0.017657259 0.07945767 0.79573464
0.017599057 0.077938706 0.79473102
0.017541239 0.076429695 0.79373395
0.017483797 0.074930578 0.79274344
0.017426733 0.073441237 0.79175937
0.017370038 0.071961641 0.79078168
0.017313711 0.070491552 0.78981036
0.017257748 0.069031 0.7888453
0.017202146 0.067579895 0.7878865
0.017146984 0.066138387 0.78693533
0.017092094 0.064705789 0.78598869
0.017037552 0.063282371 0.78504813
0.016983356 0.061867952 0.78411365
0.016929505 0.060462534 0.78318501
0.016875995 0.059065998 0.78226221
0.016822822 0.057678282 0.78134525
0.016769983 0.056299269 0.78043413
0.016717475 0.054928839 0.77952862
0.016665295 0.053567082 0.77862877
0.016613439 0.052213669 0.77773458
0.016561905 0.05086872 0.77684593
0.016510768 0.049532324 0.77596408
0.016459944 0.048204124 0.77508771
0.016409818 0.046885192 0.77422321
0.016360072 0.045574486 0.7733655
0.016310629 0.044271708 0.77251279
0.016261481 0.042976767 0.77166533
0.016212555 0.041689396 0.77082163
0.016163995 0.040409982 0.76998425
0.016115727 0.039138198 0.76915187
0.016067673 0.037873805 0.76832318
0.016019976 0.0366171 0.76750076
0.015972562 0.035367846 0.7666831
0.01592543 0.034125924 0.76587027
0.0158785 0.032891154 0.76506108
0.015831919 0.031663865 0.76425779
0.01578561 0.030443698 0.76345927
0.015739502 0.029230505 0.76266408
0.015693732 0.028024524 0.76187485
0.015648227 0.026825547 0.7610901
0.015602916 0.025633365 0.76030874
0.015557935 0.024448216 0.75953311
0.015513213 0.023269862 0.75876188
0.015468679 0.022098154 0.75799394
0.015424469 0.020933241 0.75723159
0.01538051 0.019774973 0.75647354
0.015336733 0.018623173 0.75571859
0.015293272 0.017478049 0.75496912
0.015250058 0.016339362 0.75422394
0.01520702 0.015207052 0.75348175
0.015164553 0.014081419 0.75274944
0.015122388 0.012962073 0.75202233
0.015080456 0.011848927 0.75129926
0.015038757 0.010741979 0.75058019
0.01499735 0.0096412003 0.74986613
0.014956108 0.0085463524 0.74915498
0.014915093 0.0074575841 0.74844766
0.014874301 0.0063747168 0.7477442
0.014833733 0.0052977502 0.74704468
0.014793384 0.0042267144 0.74634886
0.014753254 0.0031614006 0.74565685
0.014713342 0.002101928 0.74496865
0.014673646 0.0010481477 0.74428409
0.014634162 -0 0.74360317
0.014594891 -0.0010424852 0.74292594
0.01455583 -0.0020793974 0.74225241
0.014516977 -0.0031107664 0.74158245
0.014478331 -0.0041366518 0.74091601
0.014439891 -0.0051570833 0.74025309
0.014401654 -0.0061721504 0.73959374
0.014363619 -0.0071817935 0.73893785
0.014325785 -0.0081861615 0.73828542
0.014288148 -0.0091852248 0.73763639
0.01425071 -0.010179073 0.73699075
0.014213467 -0.011167705 0.73634863
0.014176418 -0.012151212 0.73570973
0.014139562 -0.013129592 0.73507416
0.014102898 -0.014102906 0.73444188
0.014066422 -0.015071154 0.73381281
0.014030135 -0.016034424 0.73318708
0.013994091 -0.016992807 0.73256564
0.013958175 -0.017946213 0.73194623
0.013922444 -0.018894702 0.73133004
0.013886895 -0.019838363 0.730717
0.013851581 -0.020777315 0.73010802
0.013816612 -0.021711797 0.72950506
0.013781871 -0.022641629 0.72890604
0.013747252 -0.023566693 0.72830898
0.013735176 -0.024527073 0.72810072
0.013701915 -0.025446385 0.7275272
0.013667747 -0.02635923 0.72693801
0.013633804 -0.027267575 0.72635263
0.013599976 -0.02817136 0.72576934
0.013566316 -0.029070675 0.72518885
0.013532874 -0.029965639 0.72461212
0.013499545 -0.030856073 0.72403741
0.013466431 -0.031742305 0.72346634
0.013433428 -0.032624036 0.72289729
0.013400636 -0.033501595 0.72233176
0.013367953 -0.034374714 0.72176814
0.01333543 -0.035243601 0.72120738
0.013303116 -0.036108464 0.7206502
0.013270907 -0.036968917 0.72009468
0.013238904 -0.037825406 0.71954286
0.013207004 -0.038677663 0.71899283
0.013175259 -0.039525747 0.7184453
0.013143715 -0.040369958 0.71790135
0.013112271 -0.041209996 0.71735913
0.013081028 -0.04204613 0.71682036
0.013049885 -0.042878211 0.71628332
0.013018889 -0.043706238 0.71574879
0.012988088 -0.0445306 0.71521771
0.012957385 -0.04535085 0.71468818
0.012926875 -0.046167403 0.71416211
0.01289646 -0.046979934 0.71363759
0.012866187 -0.04778868 0.71311557
0.012836104 -0.048593819 0.71259683
0.012806115 -0.049394995 0.71207964
0.012776311 -0.050192624 0.71156573
0.0127466 -0.05098635 0.71105337
0.012717072 -0.051776648 0.71054417
0.012687637 -0.052563041 0.71003658
0.012658334 -0.053345859 0.70953131
0.012629216 -0.05412516 0.7090292
0.012600183 -0.054900765 0.70852852
0.012571329 -0.055673033 0.70803094
0.012542563 -0.056441516 0.70753485
0.012513927 -0.057206511 0.70704103
0.012485468 -0.057968229 0.7065503
0.012457091 -0.058726311 0.70606101
0.012428889 -0.059481114 0.70557463
0.01240077 -0.060232311 0.70508969
0.012372864 -0.060980499 0.7046085
0.012345172 -0.061725855 0.70413101
0.012317604 -0.062467813 0.7036556
0.012290157 -0.063206524 0.70318234
0.012262833 -0.063941926 0.70271111
0.012236699 -0.064679712 0.70226049
0.012238239 -0.06556201 0.70228696
0.012240506 -0.06644845 0.70232606
0.012296199 -0.067629099 0.70328647
0.014381371 -0.080124766 0.73924398
0.014352259 -0.080987722 0.73874199
0.014323208 -0.081846893 0.73824096
0.014294329 -0.082702935 0.73774302
0.01426551 -0.083555102 0.73724604
0.014236866 -0.08440426 0.73675209
0.014208278 -0.085249662 0.7362591
0.014179862 -0.086091995 0.73576903
0.014151503 -0.086930633 0.73527998
0.019182792 0.083125472 0.79998851
0.019116927 0.081565589 0.79892844
0.01905142 0.080016017 0.79787403
0.018986452 0.078477383 0.79682845
0.018921832 0.076948792 0.79578841
0.018857745 0.075431019 0.79475701
0.018794656 0.073925644 0.79374152
0.018732361 0.072431803 0.79273891
0.018670477 0.070947826 0.79174292
0.018609 0.069473624 0.79075348
0.018547928 0.068009108 0.78977048
0.018487165 0.066553831 0.78879249
0.018426888 0.065108359 0.78782237
0.018367004 0.063672304 0.78685856
0.018307507 0.062245578 0.78590095
0.018248394 0.060828 0.78494966
0.018189663 0.059419572 0.78400433
0.018131306 0.058020175 0.78306514
0.018073324 0.056629807 0.78213185
0.018015712 0.055248201 0.78120464
0.017958468 0.053875417 0.78028327
0.017901583 0.052511305 0.77936769
0.017845059 0.051155865 0.778458
0.017788807 0.049808681 0.7775526
0.017732991 0.048470199 0.77665424
0.01767794 0.047141224 0.77576828
0.017623479 0.045821071 0.77489173
0.017569354 0.044509083 0.77402055
0.017515557 0.043205082 0.77315474
0.017462092 0.041909009 0.77229428
0.01740895 0.040620893 0.77143896
0.017356133 0.039340615 0.77058882
0.017303634 0.038068026 0.76974392
0.017251451 0.036803097 0.76890409
0.017199581 0.035545826 0.76806921
0.017148104 0.034296215 0.76724064
0.017096853 0.033053905 0.76641577
0.017045908 0.031819046 0.76559585
0.016995266 0.030591488 0.76478082
0.016944924 0.029371232 0.76397055
0.016894881 0.028158128 0.76316512
0.016845129 0.026952237 0.76236439
0.016795672 0.025753409 0.76156837
0.016746504 0.024561554 0.760777
0.016697623 0.023376703 0.75999027
0.016649026 0.022198737 0.7592082
0.016600713 0.021027565 0.75843054
0.016552677 0.019863248 0.75765741
0.016504992 0.018705666 0.75688994
0.016458016 0.017555207 0.75613385
0.016411303 0.016411304 0.75538206
0.016364856 0.015273869 0.7546345
0.016318601 0.014142811 0.75389004
0.016272675 0.013018161 0.75315088
0.016227011 0.011899799 0.7524159
0.016181529 0.010787696 0.75168383
0.016136371 0.0096818805 0.75095707
0.016091466 0.008582145 0.75023437
0.016046809 0.007488519 0.74951559
0.016002331 0.0064009428 0.74879968
0.015958166 0.0053193867 0.74808896
0.015914245 0.0042437911 0.74738199
0.015870498 0.0031741261 0.74667799
0.01582706 0.0021102428 0.74597877
0.015783856 0.0010522902 0.74528342
0.015740888 2.9802322e-08 0.74459189
0.015698088 -0.0010465384 0.74390304
0.015655585 -0.0020873845 0.7432189
0.015613311 -0.0031226277 0.74253851
0.015571265 -0.0041523278 0.74186188
0.01552938 -0.005176425 0.74118769
0.015487785 -0.006195128 0.74051827
0.015446411 -0.0072082877 0.73985231
0.015405196 -0.008216083 0.73918903
0.015364262 -0.009218514 0.73853016
0.015323545 -0.01021567 0.73787487
0.015282982 -0.011207521 0.73722202
0.015242694 -0.012194157 0.73657352
0.015202865 -0.013175815 0.73593247
0.015163304 -0.014152378 0.73529577
0.01512401 -0.015123993 0.73466337
0.015084858 -0.016090512 0.73403323
0.015045908 -0.017052025 0.73340636
0.01500716 -0.01800859 0.73278272
0.014968609 -0.018960208 0.7321623
0.014930257 -0.019906998 0.73154497
0.014892101 -0.02084893 0.73093086
0.014854139 -0.021786064 0.73031986
0.01481637 -0.02271843 0.72971201
0.014778793 -0.023646027 0.72910726
0.014753286 -0.024588823 0.7286967
0.014730585 -0.025532991 0.72833133
0.014693499 -0.02644828 0.72773445
0.0146566 -0.027358949 0.72714043
0.01461994 -0.028265208 0.72655058
0.014583409 -0.029166788 0.72596252
0.014547059 -0.030063927 0.7253775
0.01451089 -0.030956566 0.72479534
0.0144749 -0.031844765 0.7242161
0.014439144 -0.032728702 0.72364062
0.014403509 -0.033608168 0.7230671
0.014368049 -0.034483284 0.72249633
0.014332764 -0.035354108 0.72192848
0.014297651 -0.0362207 0.72136337
0.01426271 -0.037083 0.72080094
0.014227993 -0.037941277 0.72024226
0.014193391 -0.038795233 0.71968532
0.014158959 -0.039645076 0.71913111
0.014124691 -0.040490776 0.71857959
0.014090588 -0.041332334 0.71803069
0.014056651 -0.042169929 0.71748447
0.014022929 -0.043003649 0.71694177
0.013989316 -0.043833166 0.71640074
0.013955864 -0.04465875 0.71586239
0.013922572 -0.045480371 0.71532655
0.013889438 -0.046298146 0.71479326
0.013856461 -0.047111928 0.71426249
0.013823693 -0.047922134 0.71373504
0.013791027 -0.048728257 0.71320939
0.013758515 -0.049530625 0.71268606
0.013726356 -0.050329953 0.71216857
0.01369435 -0.051125556 0.71165335
0.01366254 -0.051917642 0.71114135
0.01363083 -0.052705824 0.71063101
0.013599314 -0.053490609 0.71012378
0.013567896 -0.054271579 0.70961809
0.013536621 -0.055048883 0.70911473
0.01350554 -0.055822879 0.70861453
0.013474554 -0.05659312 0.70811576
0.013443707 -0.057359785 0.70761937
0.01341305 -0.058123201 0.70712596
0.013382485 -0.058882922 0.70663393
0.013352108 -0.059639424 0.70614505
0.013321819 -0.060392261 0.70565754
0.013291668 -0.06114167 0.7051723
0.0132617 -0.06188795 0.70468992
0.01323182 -0.062630624 0.70420903
0.013202121 -0.063370168 0.70373106
0.01317251 -0.064106196 0.70325446
0.01314303 -0.064838976 0.70278001
0.013141464 -0.065707296 0.7027548
0.013143905 -0.066595793 0.70279413
0.013174498 -0.067629099 0.70328647
0.015358226 -0.079862773 0.738433
0.015327175 -0.080723137 0.73793328
0.015296313 -0.081580341 0.73743659
0.015265513 -0.08243376 0.73694074
0.015234897 -0.08328408 0.73644805
0.015204342 -0.084130675 0.73595631
0.015173974 -0.084974229 0.73546755
0.015143662 -0.085814059 0.73497969
0.015113533 -0.086650908 0.73449481
0.020569103 0.082276464 0.80160987
0.020496745 0.080705971 0.80051816
0.020424789 0.079146087 0.7994324
0.020353338 0.077597082 0.79835427
0.020282386 0.076058954 0.79728365
0.020211926 0.074531496 0.79622048
0.020141954 0.073014587 0.7951647
0.020072462 0.071508169 0.7941162
0.020003451 0.070012063 0.79307485
0.019934911 0.068526268 0.79204071
0.019867826 0.067053944 0.79102844
0.019801585 0.065592736 0.79002899
0.019735685 0.064141005 0.78903461
0.019670319 0.062699199 0.78804833
0.019605288 0.061266512 0.78706706
0.019540781 0.059843659 0.78609371
0.019476602 0.058429837 0.78512537
0.019412939 0.057025522 0.78416479
0.019349597 0.055630088 0.78320897
0.019286759 0.054244012 0.78226089
0.019224236 0.052866638 0.78131747
0.01916221 0.051498443 0.7803815
0.019100489 0.050138772 0.77945024
0.019039256 0.04878813 0.77852631
0.018978324 0.047445863 0.7776069
0.018917872 0.046112329 0.77669472
0.01885807 0.044787943 0.77579242
0.018799262 0.043473333 0.77490509
0.018740732 0.04216665 0.77402198
0.018682651 0.040868342 0.7731455
0.018624932 0.039577991 0.77227461
0.018567566 0.038295597 0.77140909
0.018510554 0.03702113 0.77054876
0.01845389 0.035754412 0.76969385
0.018397573 0.034495473 0.76884407
0.018341597 0.033244133 0.76799947
0.018285962 0.032000452 0.76716
0.018230664 0.030764252 0.76632559
0.018175697 0.029535562 0.76549625
0.018121062 0.028314203 0.7646718
0.018066673 0.027100027 0.76385117
0.018012691 0.025893271 0.76303661
0.017959028 0.024693668 0.76222694
0.017905688 0.023501247 0.7614221
0.01785266 0.02231583 0.76062196
0.017799949 0.021137476 0.75982654
0.017747546 0.019966036 0.75903589
0.017696153 0.018802196 0.75826043
0.017644983 0.017645001 0.75748837
0.017594105 0.016494483 0.75672066
0.017543521 0.01535061 0.75595742
0.017493226 0.014213264 0.75519854
0.017443219 0.013082445 0.754444
0.017393498 0.011958033 0.7536937
0.017344059 0.010840058 0.75294775
0.017294899 0.0097284317 0.75220603
0.017246019 0.0086230338 0.75146848
0.017197413 0.0075238645 0.75073504
0.017149081 0.0064309239 0.75000578
0.01710102 0.005344063 0.74928057
0.017053226 0.0042633116 0.74855947
0.017005701 0.0031885803 0.74784225
0.01695844 0.0021198392 0.7471292
0.016911438 0.0010569692 0.74642009
0.016864698 2.9802322e-08 0.74571478
0.016818216 -0.0010511577 0.74501342
0.016771987 -0.0020964742 0.74431586
0.016726015 -0.0031360984 0.74362218
0.016680293 -0.0041700602 0.74293226
0.01663482 -0.0051983595 0.74224615
0.016589593 -0.0062210858 0.74156374
0.016544681 -0.0072382689 0.74088609
0.016500419 -0.0082501769 0.74021816
0.016456326 -0.0092566609 0.73955286
0.016412536 -0.01025781 0.73889214
0.016368978 -0.011253655 0.73823494
0.016325649 -0.012244254 0.73758113
0.016282484 -0.013229519 0.73692983
0.016239613 -0.014209628 0.73628294
0.016196966 -0.015184611 0.73563945
0.016154543 -0.016154528 0.73499936
0.016112277 -0.017119288 0.73436159
0.016070297 -0.018079042 0.73372817
0.016028533 -0.019033879 0.73309797
0.015986923 -0.019983649 0.73247015
0.015945591 -0.020928591 0.73184651
0.015904473 -0.021868616 0.73122609
0.015863566 -0.022803873 0.73060888
0.015822807 -0.023734212 0.72999382
0.015782319 -0.024659842 0.72938287
0.01577206 -0.02562958 0.72922814
0.015731892 -0.026547551 0.72862208
0.015691929 -0.027460873 0.72801906
0.015652167 -0.028369546 0.72741908
0.015612607 -0.029273659 0.7268222
0.015573187 -0.030173004 0.7262274
0.015534025 -0.031067997 0.72563642
0.015495059 -0.03195855 0.72504848
0.015456288 -0.032844603 0.72446346
0.015417711 -0.033726245 0.72388136
0.015379325 -0.034603447 0.72330213
0.015341133 -0.035476357 0.72272593
0.015303127 -0.036344916 0.72215247
0.015265309 -0.037209153 0.72158182
0.015227679 -0.038069159 0.72101402
0.015190233 -0.038924962 0.72044903
0.015152971 -0.039776534 0.71988678
0.015115892 -0.040623933 0.71932733
0.015079106 -0.041467518 0.71877229
0.01504267 -0.042307526 0.7182225
0.015006409 -0.043143392 0.71767533
0.014970322 -0.043975294 0.7171309
0.014934408 -0.044803202 0.71658891
0.014898722 -0.045627296 0.71605039
0.014863151 -0.046447337 0.71551371
0.014827748 -0.047263443 0.71497959
0.014792515 -0.048075646 0.71444798
0.014757449 -0.048884004 0.71391886
0.014722548 -0.049688607 0.7133922
0.014687866 -0.050489515 0.71286887
0.014653293 -0.051286519 0.71234727
0.014618883 -0.052079767 0.71182799
0.014584634 -0.05286929 0.71131128
0.014550544 -0.053655148 0.71079695
0.014516614 -0.05443728 0.71028495
0.014482895 -0.055216014 0.7097761
0.014449279 -0.055990934 0.70926893
0.014415818 -0.056762278 0.70876408
0.014382513 -0.057530075 0.70826149
0.014349362 -0.058294266 0.70776129
0.014316362 -0.059054971 0.70726329
0.014283566 -0.059812397 0.70676845
0.014250868 -0.060566157 0.70627511
0.014218319 -0.06131649 0.70578396
0.014185919 -0.062063396 0.70529509
0.014153666 -0.062806875 0.70480841
0.01412156 -0.063547015 0.70432401
0.014089649 -0.064284027 0.70384252
0.014057832 -0.065017432 0.70336235
0.014051022 -0.065864146 0.70325965
0.01405492 -0.066760868 0.70331848
0.01405877 -0.067657799 0.70337653
0.016321257 -0.079566091 0.73751485
0.016288713 -0.080425501 0.73702383
0.016256299 -0.081281483 0.73653471
0.016224014 -0.082134068 0.73604757
0.016191792 -0.082982898 0.73556137
0.016159762 -0.083828717 0.73507804
0.016127858 -0.084671259 0.73459673
0.01609608 -0.085510403 0.73411721
0.016075717 -0.086406976 0.73380995
0.022023179 0.081615329 0.80400294
0.021940129 0.080016971 0.80282354
0.021857815 0.07843098 0.80165458
0.021776117 0.076856911 0.80049437
0.021697575 0.075303376 0.79937899
0.021619815 0.073761731 0.7982747
0.021542503 0.072230786 0.79717672
0.021465739 0.070710719 0.79608655
0.021389632 0.069201797 0.79500568
0.021313952 0.067703187 0.79393101
0.021238808 0.066215098 0.79286385
0.021164296 0.064737856 0.79180574
0.0210902 0.063270599 0.79075354
0.021016622 0.061813623 0.78970861
0.02094366 0.060367048 0.78867245
0.020872122 0.058933079 0.78765649
0.020801887 0.057511121 0.786659
0.020732123 0.0560987 0.78566831
0.020662824 0.054695755 0.78468412
0.020593988 0.053302109 0.78370661
0.02052561 0.051917762 0.78273553
0.02045778 0.050542772 0.78177232
0.020390302 0.049176633 0.78081399
0.020323265 0.047819465 0.77986205
0.02025667 0.046471208 0.77891624
0.020190507 0.045131773 0.77797663
0.020124778 0.04380101 0.77704322
0.020059474 0.042478919 0.77611583
0.019994592 0.041165382 0.77519447
0.019930691 0.039861381 0.77428693
0.019867843 0.038567007 0.77339447
0.019805485 0.037280947 0.77250892
0.019743426 0.036002725 0.77162755
0.019681845 0.03473267 0.77075303
0.019620556 0.033470362 0.76988268
0.019559737 0.032216072 0.76901895
0.019499205 0.030969352 0.76815927
0.019439135 0.029730469 0.76730633
0.019379348 0.028499037 0.7664572
0.019320013 0.027275324 0.76561457
0.019260952 0.026058972 0.76477587
0.01920234 0.0248501 0.76394343
0.019143997 0.023648471 0.76311493
0.019086093 0.022454232 0.76229262
0.019028453 0.021267146 0.76147401
0.018971246 0.020087212 0.7606616
0.018914295 0.018914312 0.75985289
0.018858606 0.01774928 0.75906199
0.018803244 0.016591132 0.75827581
0.018748207 0.015439719 0.75749421
0.01869349 0.014295012 0.75671715
0.018639091 0.01315701 0.75594467
0.01858501 0.012025625 0.75517666
0.018531241 0.010900736 0.75441301
0.018477781 0.0097823739 0.75365376
0.01842463 0.0086704195 0.75289899
0.018371703 0.0075648129 0.75214738
0.01831916 0.0064656138 0.75140119
0.018266916 0.0053726733 0.75065923
0.018214967 0.004285872 0.74992156
0.018163316 0.0032052994 0.74918801
0.018111955 0.0021308362 0.74845862
0.018060885 0.001062423 0.74773341
0.0180101 -0 0.74701214
0.017959602 -0.0010564327 0.74629503
0.017909385 -0.0021069646 0.74558187
0.01785945 -0.0031516552 0.74487281
0.017809791 -0.0041905046 0.74416745
0.017760703 -0.0052237213 0.74347043
0.017712183 -0.0062513649 0.74278134
0.017663924 -0.007273376 0.74209601
0.017615929 -0.008289814 0.74141443
0.017568195 -0.0093007684 0.74073648
0.017520718 -0.010306299 0.74006236
0.017473496 -0.011306375 0.73939168
0.01742653 -0.012301058 0.73872471
0.017379815 -0.013290405 0.73806131
0.017333349 -0.014274508 0.73740143
0.017287131 -0.015253305 0.73674512
0.017241158 -0.016226977 0.73609227
0.017195432 -0.017195433 0.73544288
0.017149944 -0.018158734 0.73479688
0.017104698 -0.019117028 0.73415434
0.017059691 -0.020070195 0.73351514
0.017014919 -0.021018386 0.73287928
0.016970381 -0.021961689 0.73224682
0.016926076 -0.022899956 0.73161769
0.016882002 -0.023833424 0.73099172
0.016838156 -0.024762005 0.73036909
0.016825033 -0.025732398 0.73018277
0.016785458 -0.02665922 0.72962075
0.016742243 -0.027575433 0.72900707
0.016699186 -0.028486848 0.72839558
0.01665635 -0.029393554 0.7277872
0.016613796 -0.0302957 0.72718292
0.016571397 -0.031193227 0.7265808
0.016529275 -0.032086253 0.72598255
0.016487369 -0.03297472 0.72538745
0.016445676 -0.033858716 0.72479534
0.016404128 -0.034738123 0.72420532
0.016363041 -0.035613656 0.72362179
0.016322348 -0.036485225 0.72304398
0.016281856 -0.037352502 0.72246897
0.016241504 -0.03821528 0.72189581
0.016201412 -0.039074004 0.72132653
0.016161518 -0.039928436 0.72075993
0.01612182 -0.040778667 0.72019619
0.016082315 -0.041624814 0.71963519
