# .PCD v0.7 - Point Cloud Data file format
VERSION 0.7
FIELDS x y z
SIZE 4 4 4
TYPE F F F
COUNT 1 1 1
WIDTH 1359
HEIGHT 1
VIEWPOINT 0 0 0 1 0 0 0
POINTS 1359
DATA ascii
-0.0012973016 -0.046702862 0.80444247
-0.001318295 -0.048776895 0.80951065
-0.0013434761 -0.051052094 0.81558996
-0.0013796458 -0.053806156 0.82432204
0 0.056812674 0.69595945
0 0.055781931 0.69529068
0 0.054757833 0.69462633
0 0.053740263 0.69396555
0 0.052729249 0.69330901
0 0.051724911 0.69265747
0 0.05072692 0.69200945
0 0.049735337 0.69136548
0 0.048878402 0.6912508
0 0.048248827 0.69207883
0 0.047611862 0.69290423
0 0.046946466 0.69363678
0 0.04487142 0.68820822
0 0.04391706 0.68758911
0 0.043002069 0.68712544
0 0.042333066 0.68778646
0 0.04162553 0.68829113
0 0.040911466 0.68878412
0 0.040182382 0.68922311
0 0.039442569 0.68962699
0 0.038699776 0.69003242
0 0.037953973 0.69043946
0 0.037207305 0.69086021
0 0.036467761 0.69133896
0 0.035724461 0.69181943
0 0.034977674 0.69230211
0 0.034227371 0.69278783
0 0.033478081 0.6933043
0 0.032730222 0.6938554
0 0.031978041 0.69440877
0 0.031221926 0.69496584
0 0.03046152 0.69552535
0 0.02970174 0.69612128
0 0.028940797 0.69674373
0 0.028175116 0.69736934
0 0.027404726 0.69799864
0 0.026629716 0.69863266
0 0.025853544 0.69929916
0 0.025075078 0.69999307
0 0.024291456 0.70069158
0 0.023502529 0.70139486
0 0.022708446 0.70210356
0 0.021911234 0.70283926
0 0.02111125 0.70360851
0 0.020305395 0.70438337
0 0.019493699 0.70516396
0 0.018675953 0.70594943
0 0.017853558 0.70675772
0 0.017027646 0.70760536
0 0.016195118 0.70845973
0 0.015356034 0.7093209
0 0.014510274 0.71018887
0 0.013658971 0.71108377
0 0.012802482 0.71201587
0 0.011938542 0.71295512
0 0.011067331 0.71390319
0 0.01018858 0.71485865
0 0.00930354 0.71585232
0 0.0084113181 0.71687603
0 0.0075109899 0.71790981
0 0.0066023469 0.71895236
0 0.0056852996 0.72000462
0 0.0047607422 0.72111374
0 0.0038272738 0.72223991
0 0.0028845966 0.72337717
0 0.0019325614 0.72452569
0 0.00097119808 0.72570467
0 -0 0.72693342
0 -0.00098139048 0.7281751
0 -0.0019731522 0.72942984
0 -0.0029754937 0.730699
0 -0.0039896369 0.73204213
0 -0.0050151348 0.73339951
0 -0.006052345 0.73477328
0 -0.0071012974 0.73616171
0 -0.008164376 0.73762739
0 -0.0092404485 0.7391178
0 -0.010329604 0.74062526
0 -0.01143235 0.74215651
0 -0.012552112 0.74377519
0 -0.013686478 0.74541599
0 -0.014835685 0.7470783
0 -0.015999258 0.74875033
0 -0.017169803 0.75031877
0 -0.018342674 0.75173557
0 -0.01951468 0.75298285
0 -0.020682007 0.75403976
0 -0.021846861 0.75496107
0 -0.023024261 0.75593883
0 -0.024224162 0.75707471
0 -0.02544868 0.75837022
0 -0.026698023 0.75980747
0 -0.027977347 0.76141965
0 -0.029287249 0.76319081
0 -0.03063488 0.76516908
0 -0.032031447 0.76742744
0 -0.033477455 0.76994181
0 -0.035026848 0.77312058
0 -0.037824631 0.78581619
0 -0.039532185 0.78949338
0 -0.041425228 0.79430461
0 -0.043257415 0.79840112
0 -0.045197904 0.80301011
0 -0.047298342 0.80843592
0 -0.049670458 0.81534106
0.00085496606 0.058992654 0.69765317
0.00085214421 0.057945818 0.69697195
0.00084934675 0.056906223 0.69629651
0.00084656465 0.055873245 0.69562489
0.00084380351 0.05484727 0.69495827
0.00084105763 0.053827703 0.69429535
0.00083832949 0.052814752 0.69363678
0.00083562179 0.051808566 0.69298309
0.00083292875 0.050808638 0.69233292
0.0008302558 0.049815357 0.69168758
0.00082759443 0.048828065 0.69104511
0.00082989229 0.048133761 0.69159979
0.00083242991 0.047448516 0.69221246
0.00083470455 0.046743482 0.6927616
0.00081713352 0.044942349 0.6885196
0.00081456074 0.043986261 0.68789852
0.00081200158 0.043036133 0.68728065
0.00080946105 0.042091995 0.68666732
0.00081077003 0.041349292 0.68698335
0.00081240764 0.040620416 0.68737864
0.00081404921 0.039888412 0.68777502
0.00081569754 0.039153486 0.68817294
0.00081755006 0.038424879 0.68862015
0.00081948622 0.037696391 0.68908757
0.00082143425 0.036964536 0.68955791
0.00082338892 0.036229134 0.69002974
0.00082535285 0.035490155 0.6905039
0.00082756707 0.034757823 0.69103849
0.0008297959 0.034021646 0.6915766
0.00083203951 0.033281595 0.69211823
0.00083429262 0.032537431 0.69266212
0.00083656341 0.031789452 0.69321036
0.00083906896 0.031045586 0.69381529
0.00084158668 0.03029716 0.69442314
0.00084411964 0.029544204 0.69503462
0.00084667065 0.028786808 0.69565052
0.00084923429 0.028024763 0.69626939
0.00085201079 0.027264357 0.69693971
0.00085482007 0.02649942 0.69761795
0.00085764792 0.025729477 0.6983006
0.0008604945 0.024954379 0.6989879
0.00086336315 0.024174184 0.69968045
0.00086640089 0.023392856 0.70041376
0.00086951454 0.022607386 0.7011655
0.00087265059 0.021816283 0.70192266
0.00087580935 0.021019429 0.70268524
0.00087898801 0.020216733 0.70345259
0.00088230806 0.019410789 0.70425409
0.00088573789 0.018600523 0.70508218
0.00088919455 0.01778388 0.70591664
0.00089267828 0.016960919 0.70675766
0.00089618936 0.016131431 0.70760536
0.00089984149 0.015297353 0.70848709
0.0009036116 0.014457792 0.70939732
0.00090741011 0.013611138 0.71031427
0.00091124407 0.012757421 0.71123987
0.00091511058 0.011896461 0.71217334
0.0009191485 0.01102978 0.71314824
0.00092328677 0.010156155 0.71414733
0.00092746265 0.0092746317 0.71515548
0.00093167985 0.0083851516 0.71617353
0.00093593216 0.0074874759 0.71720016
0.00094042131 0.0065829456 0.71828395
0.00094497512 0.0056698918 0.7193833
0.00094956974 0.0047478676 0.72049248
0.00095420924 0.0038168728 0.72161257
0.00095897139 0.0028769076 0.72276229
0.00096393365 0.0019278824 0.72396034
0.00096894754 0.00096896291 0.72517073
0.00097401382 2.9802322e-08 0.72639388
0.00097913342 -0.0009791255 0.72762984
0.00098454335 -0.001969099 0.7289359
0.00099002128 -0.0029700696 0.73025835
0.00099556043 -0.0039821863 0.73159564
0.0010011659 -0.0050058067 0.73294896
0.0010070497 -0.0060423017 0.73436946
0.0010130565 -0.007091403 0.73581958
0.0010191394 -0.0081530809 0.73728812
0.0010252916 -0.0092276037 0.73877341
0.0010317866 -0.010317862 0.74034142
0.0010383989 -0.011422366 0.74193776
0.0010450921 -0.012541085 0.74355364
0.0010518588 -0.01367414 0.74518734
0.0010583734 -0.014817208 0.74676013
0.001064199 -0.015962958 0.74816656
0.0010693939 -0.017110288 0.74942064
0.0010738556 -0.018255532 0.75049782
0.0010776069 -0.019396901 0.75140345
0.001081548 -0.020549387 0.75235492
0.0010857679 -0.021715343 0.75337368
0.0010909856 -0.022910684 0.75463331
0.001096398 -0.024120748 0.75594008
0.0011028892 -0.025366426 0.75750709
0.001109566 -0.026629597 0.75911903
0.0011175157 -0.027937859 0.7610383
0.0011259705 -0.029275209 0.7630794
0.0011358521 -0.03066802 0.76546508
0.0011477645 -0.032137394 0.76834095
0.0011639445 -0.033754408 0.77224714
0.0012138091 -0.036414266 0.78428555
0.0012282301 -0.038075119 0.78776717
0.0012437826 -0.039801031 0.79152179
0.0012664042 -0.04179135 0.79698312
0.0012865606 -0.043743074 0.80184937
0.0013106702 -0.045873463 0.80766988
0.0013453835 -0.04843381 0.81605041
0.0017184474 0.060145706 0.69868106
0.0017127594 0.059090197 0.69799447
0.0017071086 0.058041722 0.69731236
0.0017014892 0.056999892 0.69663405
0.0016959069 0.055964977 0.69596016
0.0017097393 0.055566519 0.69762993
0.0017181878 0.054982036 0.69864976
0.0017249346 0.054335415 0.69946414
0.0017307459 0.053653121 0.70016563
0.0017365365 0.052964389 0.70086461
0.0016631775 0.049895346 0.69200939
0.0016578432 0.048906386 0.69136548
0.0016525431 0.047923774 0.69072568
0.0016528543 0.047106326 0.69076329
0.0016420544 0.045977563 0.68945956
0.0016368546 0.045013547 0.68883193
0.0016316929 0.04405573 0.68820888
0.0016265584 0.043103814 0.68758911
0.0016214612 0.042158008 0.68697381
0.0016163959 0.041218132 0.68636233
0.0016131806 0.040329516 0.68597424
0.001616955 0.039615393 0.68642986
0.0016207417 0.038897812 0.68688691
0.0016245464 0.038176835 0.68734622
0.0016283686 0.037452489 0.68780762
0.0016324329 0.036729783 0.68829823
0.0016367744 0.036009073 0.68882227
0.0016411335 0.03528434 0.68934846
0.0016455214 0.034555972 0.68987817
0.0016499275 0.03382355 0.69040996
0.0016545594 0.033091217 0.69096911
0.0016594543 0.032359391 0.69155991
0.001664378 0.031623185 0.69215429
0.0016693367 0.030882746 0.6927529
0.0016743194 0.030137777 0.69335431
0.0016794503 0.029390365 0.69397372
0.0016849135 0.028643548 0.69463319
0.0016904065 0.027891695 0.69529623
0.0016959355 0.027134985 0.69596368
0.0017015007 0.026373267 0.69663543
0.001707126 0.0256069 0.69731444
0.0017131697 0.024840981 0.69804394
0.0017192565 0.024069607 0.69877875
0.0017253807 0.023292631 0.69951797
0.0017315546 0.022510231 0.7002632
0.0017377728 0.021722168 0.70101386
0.0017443459 0.020932138 0.70180732
0.0017510487 0.020137042 0.70261639
0.0017578031 0.019335866 0.70343173
0.0017646098 0.018528461 0.70425332
0.0017714695 0.017714709 0.7050814
0.0017786736 0.01689744 0.70595098
0.0017860385 0.016074359 0.70684004
0.0017934581 0.015244424 0.70773566
0.0018009462 0.014407575 0.70863956
0.0018084969 0.013563722 0.70955098
0.0018164212 0.012714952 0.71050751
0.0018245084 0.011859328 0.71148372
0.0018326613 0.010995984 0.71246785
0.001840894 0.010124892 0.7134617
0.0018491943 0.0092460215 0.71446359
0.0018579767 0.0083609223 0.71552372
0.0018668568 0.0074673891 0.71659565
0.0018758222 0.006565392 0.71767783
0.0018848812 0.0056546926 0.71877146
0.0018941644 0.00473544 0.71989197
0.0019038437 0.0038076937 0.7210604
0.0019136225 0.0028704703 0.72224081
0.0019235095 0.0019235015 0.72343427
0.0019334919 0.00096672773 0.72463924
0.0019440012 -0 0.72590786
0.0019546866 -0.00097733736 0.72719765
0.0019654823 -0.001965493 0.72850084
0.0019763978 -0.0029645562 0.72981846
0.0019878065 -0.0039756 0.73119557
0.0019995072 -0.0049987435 0.73260796
0.002011355 -0.0060340762 0.73403811
0.0020233355 -0.0070816576 0.7354843
0.0020358902 -0.0081435442 0.73699975
0.0020487611 -0.0092194378 0.73855352
0.0020617875 -0.010308921 0.74012589
0.0020749893 -0.011412382 0.74171948
0.0020878555 -0.012527108 0.74327254
0.0020995159 -0.013646811 0.74468011
0.0021099453 -0.014769584 0.74593902
0.0021191314 -0.015893489 0.7470479
0.002126589 -0.017012686 0.74794811
0.0021341899 -0.018140584 0.74886566
0.0021419283 -0.019277334 0.74979973
0.0021518678 -0.020442724 0.75099951
0.0021621147 -0.021621108 0.75223643
0.0021742911 -0.022830039 0.75370622
0.0021870451 -0.024057478 0.7552458
0.0022018277 -0.025321037 0.75703025
0.0022174797 -0.026609719 0.75891954
0.0022362003 -0.027952462 0.76117945
0.0022572542 -0.02934429 0.76372081
0.0022839403 -0.030833155 0.76694208
0.0023855462 -0.033397645 0.77920711
0.0024138107 -0.035000235 0.78261882
0.0024427527 -0.03664127 0.78611243
0.0024745003 -0.038354725 0.78994477
0.0025099765 -0.040159613 0.79422712
0.0025649432 -0.042321563 0.80086219
0.0026196798 -0.044534504 0.80746937
0.0025905902 0.061310649 0.69972068
0.0025819633 0.060245842 0.69902641
0.0025733935 0.059188098 0.69833684
0.0025648894 0.058137506 0.69765246
0.0025564414 0.057093859 0.69697261
0.0025531803 0.056169957 0.69671023
0.0025618779 0.055507362 0.69741011
0.0025703355 0.0548338 0.69809079
0.0025790266 0.054159582 0.69879013
0.0025885173 0.053496033 0.69955391
0.0025992207 0.052850872 0.70041525
0.0026113025 0.052226067 0.70138752
0.0024907507 0.048984796 0.69168627
0.0024827833 0.048000485 0.69104505
0.0024748747 0.047022641 0.69040865
0.0024670002 0.046050668 0.68977493
0.0024591757 0.045084894 0.68914527
0.0024514087 0.044125348 0.68852025
0.0024436822 0.043171704 0.68789852
0.0024360127 0.042224258 0.68728125
0.0024283831 0.041282535 0.68666732
0.0024208089 0.040346831 0.68605775
0.0024132743 0.03941679 0.68545145
0.0024155576 0.038648963 0.68563521
0.0024218636 0.037942529 0.68614262
0.0024282259 0.037232816 0.68665463
0.0024346297 0.036519438 0.68716997
0.0024410596 0.035802215 0.6876874
0.0024475313 0.035081297 0.68820822
0.0024545912 0.034364313 0.68877637
0.0024617729 0.033644259 0.6893543
0.0024690046 0.032920122 0.68993622
0.002476271 0.032191515 0.690521
0.0024835884 0.031458795 0.6911099
0.0024913296 0.030726403 0.69173282
0.0024993354 0.029992044 0.69237709
0.0025074014 0.029253066 0.69302619
0.0025155111 0.02850917 0.6936788
0.0025236735 0.027760446 0.69433564
0.002532094 0.02700904 0.69501328
0.0025409579 0.026256561 0.69572663
0.0025498839 0.025498867 0.69644493
0.002558873 0.024735779 0.69716829
0.002567926 0.023967326 0.69789684
0.0025770606 0.023193568 0.69863194
0.0025868132 0.022419065 0.69941676
0.0025966398 0.021638691 0.70020759
0.0026065414 0.020852357 0.70100439
0.0026165098 0.020059913 0.70180655
0.002626573 0.019261539 0.70261639
0.0026372233 0.018460602 0.70347345
0.0026480169 0.017653465 0.70434207
0.0026588987 0.016839713 0.70521778
0.0026698611 0.016019195 0.70609999
0.0026809236 0.015191913 0.70699018
0.0026925998 0.014360547 0.70792979
0.0027044464 0.013522238 0.70888317
0.0027163881 0.012676448 0.70984411
0.0027284352 0.011823207 0.71081364
0.0027406099 0.010962456 0.71179336
0.0027534899 0.010096133 0.71282989
0.0027664911 0.0092216432 0.71387613
0.002779616 0.0083388984 0.71493232
0.0027928762 0.00744766 0.71599948
0.002806463 0.0065484345 0.71709275
0.0028206278 0.0056412518 0.71823269
0.0028349361 0.00472489 0.71938419
0.0028493905 0.0037992001 0.72054732
0.0028639932 0.0028640032 0.72172248
0.0028793314 0.0019195676 0.72295678
0.0028949466 0.0009649992 0.72421342
0.002910743 -0 0.72548461
0.0029267019 -0.00097557902 0.72676891
0.0029432862 -0.0019621551 0.72810352
0.0029603872 -0.0029603243 0.72947961
0.0029776993 -0.0039702356 0.73087287
0.0029952035 -0.0049919784 0.73228145
0.0030134104 -0.0060268044 0.73374665
0.0030321951 -0.0070750713 0.73525834
0.0030512281 -0.0081366003 0.73679
0.0030705018 -0.0092114806 0.73834097
0.0030895623 -0.01029852 0.7398749
0.0031069817 -0.011392236 0.74127668
0.0031227532 -0.012491018 0.74254584
0.003136639 -0.013592064 0.74366331
0.0031482831 -0.014691979 0.74460036
0.0031590832 -0.01579541 0.74546945
0.0031703725 -0.016908646 0.746378
0.0031838755 -0.018041939 0.74746466
0.003198829 -0.019192934 0.74866796
0.0032155353 -0.02036503 0.7500124
0.0032341303 -0.021560878 0.75150883
0.003254394 -0.022780746 0.75313962
0.0032771872 -0.024032742 0.75497377
0.0033026692 -0.025320441 0.75702441
0.0033310023 -0.026648015 0.75930452
0.0033668496 -0.028057069 0.76218927
0.0034178447 -0.029621333 0.76629305
0.0035589254 -0.032030314 0.7776463
0.0036002388 -0.033602208 0.78097099
0.0036452299 -0.035237193 0.78459156
0.003694321 -0.036943197 0.78854209
0.0037495417 -0.038745254 0.79298592
0.0038382851 -0.040941715 0.80012745
0.0039383448 -0.043321788 0.80817968
0.0034715065 0.062487155 0.70077008
0.0034599002 0.061413258 0.70006955
0.0034483594 0.060346305 0.69937301
0.0034368949 0.059286445 0.69868106
0.0034255187 0.058233827 0.69799441
0.0034142171 0.057188153 0.69731236
0.003402967 0.056148976 0.69663334
0.0034053987 0.055337787 0.69678009
0.0034189294 0.054702878 0.69759679
0.0034340646 0.054086506 0.69851029
0.0034511064 0.053492159 0.69953883
0.0034709887 0.05293262 0.70073879
0.00350525 0.052578747 0.70280671
0.0036961753 0.05451858 0.71433008
0.0033156972 0.048077643 0.6913662
0.0033050969 0.047097683 0.69072634
0.0032945748 0.046124071 0.69009131
0.0032841088 0.045156538 0.68945962
0.0032961702 0.044498295 0.69018757
0.0037778029 0.050055921 0.7192567
0.0038006736 0.049408793 0.72063702
0.0032429118 0.041347146 0.68697315
0.0032327815 0.040409744 0.68636173
0.0032227142 0.039478272 0.68575412
0.0032126992 0.038552433 0.68514967
0.003210854 0.037727535 0.68503833
0.0032192413 0.037021309 0.68554449
0.0032279328 0.036314249 0.68606907
0.003237247 0.035609692 0.68663126
0.0032466261 0.034901232 0.68719733
0.0032560485 0.034188539 0.68776608
0.0032655369 0.033471793 0.68833864
0.0032750806 0.032750815 0.68891472
0.0032854567 0.032033235 0.68954098
0.0032958989 0.031311065 0.69017124
0.0033064182 0.030584365 0.69080609
0.0033169941 0.029852986 0.6914444
0.0033276381 0.029116869 0.69208688
0.0033388515 0.028380245 0.69276363
0.0033504101 0.027640849 0.6934613
0.0033620377 0.026896298 0.69416308
0.0033737577 0.026146621 0.69487041
0.0033855599 0.025391698 0.69558275
0.0033976405 0.024632901 0.69631189
0.003410354 0.023872495 0.69707924
0.0034231634 0.023106396 0.69785225
0.0034360688 0.022334486 0.69863123
0.0034490721 0.021556735 0.69941604
0.0034622464 0.0207735 0.70021117
0.0034761853 0.01998806 0.70105243
0.0034902494 0.019196421 0.70190132
0.0035044276 0.018398255 0.70275706
0.003518709 0.017593533 0.703619
0.0035331321 0.016782403 0.70448947
0.0035484165 0.015967876 0.70541203
0.0035638334 0.015146315 0.70634252
0.0035793979 0.014317602 0.70728189
0.0035950858 0.013481587 0.70822871
0.0036109774 0.01263842 0.70918787
0.0036277459 0.011790216 0.71019995
0.0036446708 0.010934025 0.71122152
0.003661755 0.010069817 0.71225256
0.0036790133 0.0091975331 0.71329415
0.0036966943 0.0083175898 0.71436131
0.0037151256 0.0074302554 0.71547377
0.0037337414 0.00653404 0.71659732
0.0037525448 0.0056288242 0.71773225
0.0037715384 0.0047144592 0.71887857
0.0037914291 0.0037914217 0.72007906
0.003811734 0.0028588176 0.7213046
0.0038322576 0.0019161403 0.7225433
0.0038530179 0.00096327066 0.72379631
0.0038744549 -0 0.72509015
0.0038966925 -0.00097414851 0.72643232
0.0039191721 -0.0019595921 0.7277891
0.0039419276 -0.00295645 0.72916245
0.0039653732 -0.0039653778 0.73057759
0.0039897831 -0.0049871802 0.73205084
0.0040144958 -0.0060217381 0.73354238
0.0040395162 -0.0070691109 0.73505247
0.0040644542 -0.0081288815 0.7365576
0.0040877308 -0.0091973841 0.73796248
0.004108862 -0.010272115 0.73923784
0.0041275718 -0.011350811 0.74036711
0.0041434658 -0.01243037 0.74132639
0.004157288 -0.013511181 0.74216068
0.004171968 -0.014601886 0.74304664
0.0041881711 -0.015705645 0.74402463
0.0042075766 -0.016830325 0.74519587
0.0042278594 -0.017968386 0.74641997
0.0042519849 -0.019133896 0.74787617
0.0042766072 -0.020313859 0.74936217
0.0043061059 -0.021530479 0.75114256
0.0043368228 -0.022768289 0.75299656
0.0043734591 -0.024054021 0.75520778
0.0044159172 -0.025391489 0.7577703
0.0044711814 -0.026827067 0.76110578
0.0046654153 -0.029158831 0.77282882
0.0047188522 -0.03067252 0.77605402
0.004774712 -0.032229304 0.7794255
0.0048353425 -0.033847362 0.78308481
0.0049036038 -0.035551131 0.78720474
0.0049812719 -0.037359536 0.79189253
0.00511515 -0.039642364 0.79997271
0.0043613361 0.063675523 0.70183009
0.0043466813 0.062592208 0.7011224
0.0043321094 0.061515987 0.70041883
0.0043204534 0.060486406 0.69985604
0.0043594972 0.060161084 0.70174122
0.0042889891 0.058330297 0.69833684
0.0042748158 0.057282567 0.69765246
0.0042607212 0.056241542 0.69697189
0.0042544175 0.055307448 0.69666755
0.0042772717 0.054749101 0.69777101
0.0043060565 0.05425635 0.69916093
0.0045605893 0.056551367 0.71145082
0.0045718737 0.055776894 0.71199572
0.0045852973 0.055023551 0.71264386
0.0046003899 0.054284602 0.71337265
0.0046161446 0.053547263 0.71413326
0.0046340148 0.052827805 0.71499616
0.0046549323 0.052135259 0.71600616
0.0046795555 0.051475137 0.71719503
0.0047115465 0.050884724 0.71873963
0.0047470201 0.05031842 0.72045255
0.0049177622 0.051144719 0.7286967
0.0049485005 0.050474703 0.73018086
0.0049790703 0.04979074 0.73165691
0.0040346817 0.039539874 0.68605781
0.0040221107 0.038612306 0.68545079
0.004009644 0.037690639 0.68484885
0.0040030996 0.036828518 0.68453288
0.0040145591 0.036131054 0.68508613
0.0040260977 0.035429716 0.68564332
0.0040376899 0.034724176 0.68620306
0.0040497161 0.034017622 0.68678373
0.0040624077 0.033311725 0.68739653
0.0040751789 0.032601446 0.68801314
0.0040880442 0.031886786 0.68863434
0.0041009774 0.031167477 0.68925881
0.0041139927 0.030443549 0.68988729
0.0041279765 0.029721469 0.69056249
0.0041421102 0.028994769 0.6912449
0.0041563413 0.028263152 0.69193196
0.0041706702 0.027526438 0.69262385
0.0041850843 0.026784539 0.69331992
0.0042000781 0.026040494 0.69404382
0.0042156195 0.025293738 0.69479424
0.0042312769 0.024541378 0.6955502
0.0042470363 0.023783416 0.69631112
0.0042629284 0.02301985 0.69707847
0.0042791883 0.022251815 0.69786358
0.0042962222 0.021481097 0.69868606
0.004313407 0.020704359 0.69951582
0.0043307296 0.019921362 0.70035225
0.004348177 0.019131988 0.70119464
0.0043658875 0.018336713 0.70204979
0.0043845726 0.017538309 0.70295197
0.004403403 0.016732991 0.70386124
0.0044224109 0.015920699 0.70477897
0.0044415682 0.015101343 0.70570397
0.0044610198 0.014275283 0.70664316
0.0044814926 0.013444483 0.70763177
0.0045021549 0.012606055 0.70862937
0.0045230081 0.011759818 0.70963627
0.0045440719 0.010905772 0.71065331
0.0045656329 0.010044396 0.71169436
0.0045881229 0.0091762543 0.71278024
0.004610836 0.0082995296 0.71387696
0.0046337745 0.0074140429 0.71498454
0.0046569426 0.0065197349 0.71610314
0.0046811318 0.0056173801 0.71727115
0.0047059096 0.0047059059 0.71846759
0.0047309338 0.0037847757 0.71967578
0.004756243 0.0028537512 0.72089785
0.0047822273 0.0019129217 0.72215241
0.0048093284 0.00096186996 0.72346103
0.0048367199 2.9802322e-08 0.7247836
0.0048644445 -0.00097289681 0.72612226
0.0048927949 -0.0019570887 0.72749114
0.0049225232 -0.0029534996 0.72892654
0.0049526147 -0.0039620697 0.73037952
0.0049830568 -0.0049830377 0.73184943
0.0050136745 -0.0060164034 0.73332775
0.0050427793 -0.007059902 0.73473305
0.0050691413 -0.0081106126 0.7360059
0.0050925645 -0.0091665983 0.7371369
0.0051128799 -0.010225743 0.73811781
0.005129864 -0.011285663 0.73893785
0.0051477235 -0.012354553 0.73980016
0.0051658568 -0.013431191 0.74067575
0.0051894742 -0.01453054 0.7418161
0.0052133081 -0.015639931 0.74296689
0.0052418173 -0.01677379 0.7443434
0.0052714618 -0.017922938 0.74577481
0.0053055808 -0.01910007 0.74742222
0.005341901 -0.020299226 0.74917591
0.005384509 -0.021538019 0.75123322
0.005431314 -0.022811532 0.75349319
0.005489544 -0.024153948 0.75630474
0.0056003872 -0.025761783 0.76165676
0.0058001317 -0.027840614 0.77130121
0.0058659529 -0.029329777 0.77447939
0.0059383004 -0.03087914 0.77797264
0.0060171392 -0.032492518 0.78177929
0.0061056302 -0.034191519 0.78605199
0.0062097129 -0.036016285 0.79107761
0.0064085796 -0.038451463 0.80067974
0.0052424502 0.063783139 0.70218605
0.0052248044 0.062697709 0.70147604
0.0052072597 0.061619252 0.70077002
0.0052432008 0.061170667 0.70221627
0.0052847159 0.060774237 0.70388663
0.0053258543 0.060359687 0.70554197
0.005138278 0.057377428 0.69799447
0.0051213084 0.056334436 0.69731164
0.0054020802 0.058522582 0.70860898
0.0054161334 0.0577721 0.70917451
0.0054305354 0.057020664 0.70975399
0.005447662 0.056292504 0.71044314
0.0054656332 0.055567294 0.71116614
0.0054850858 0.054850876 0.71194893
0.0055077882 0.054159939 0.71286237
0.0055345939 0.053501099 0.71394098
0.0055674794 0.052891076 0.7152642
0.0056080818 0.052342117 0.7168979
0.0056555169 0.051842242 0.71880656
0.0058494117 0.0526447 0.72660828
0.0058850036 0.051984221 0.7280404
0.0059210309 0.051315606 0.72949004
0.0059570298 0.050634772 0.73093849
0.0059926547 0.049938798 0.73237193
0.0060286848 0.049234241 0.73382169
0.0048340559 0.038672477 0.68575346
0.0048190486 0.037749201 0.68514967
0.004804119 0.036831617 0.68454891
0.004793304 0.035949796 0.68411374
0.0048078275 0.035257459 0.68469816
0.0048227338 0.034562916 0.68529797
0.0048377328 0.033864141 0.68590146
0.0048528248 0.033160985 0.68650872
0.0048680278 0.032453537 0.68712044
0.0048835804 0.031743258 0.68774623
0.0049000643 0.031033754 0.68840951
0.0049166437 0.030319303 0.6890766
0.0049333517 0.029600114 0.68974888
0.0049501737 0.028876007 0.69042575
0.0049671112 0.028147012 0.69110721
0.0049849427 0.027417183 0.69182473
0.0050031859 0.026683658 0.69255877
0.0050215637 0.025944769 0.69329822
0.0050400766 0.025200397 0.69404316
0.0050587268 0.024450511 0.69479358
0.0050779786 0.023697257 0.6955682
0.0050979839 0.022940934 0.69637316
0.0051181302 0.02217856 0.69718373
0.005138454 0.021410286 0.6980015
0.0051589212 0.020635694 0.69882512
0.005179821 0.019856036 0.69966602
0.0052017379 0.019073039 0.70054787
0.0052238228 0.018283367 0.70143652
0.0052460958 0.017486989 0.70233274
0.0052685784 0.016683847 0.70323735
0.005291441 0.015874326 0.70415723
0.005315444 0.015060425 0.70512307
0.0053396653 0.014239103 0.70609766
0.0053641084 0.0134103 0.70708114
0.0053887763 0.012573808 0.70807374
0.0054140631 0.011730492 0.70909119
0.0054404158 0.010880888 0.71015149
0.0054670265 0.010022879 0.71122229
0.0054938989 0.0091564953 0.71230352
0.0055210367 0.0082815588 0.71339548
0.0055492846 0.0073990524 0.71453214
0.00557828 0.0065080225 0.71569878
0.0056075999 0.0056075752 0.71687853
0.0056372089 0.0046976805 0.71806985
0.0056674751 0.0037783384 0.71928775
0.0056991922 0.0028496385 0.72056389
0.0057312446 0.0019104183 0.72185361
0.0057636816 0.00096064806 0.72315878
0.0057966006 -0 0.72448331
0.0058313692 -0.00097191334 0.72588229
0.0058665574 -0.0019555092 0.7272982
0.0059021502 -0.0029510856 0.72873032
0.0059381067 -0.0039587319 0.73017704
0.0059729111 -0.0049774349 0.73157752
0.0060043284 -0.0060043037 0.73284161
0.0060325121 -0.0070379078 0.73397571
0.006057587 -0.0080767274 0.73498458
0.0060781171 -0.0091171861 0.73581064
0.0060986383 -0.01016441 0.7366364
0.0061196974 -0.011219412 0.73748368
0.0061455793 -0.012291163 0.73852515
0.0061734323 -0.013375759 0.73964578
0.0062047429 -0.0144777 0.74090564
0.0062393798 -0.015598416 0.74229932
0.0062768194 -0.016738147 0.74380577
0.0063192034 -0.017904401 0.74551123
0.0063655903 -0.019096732 0.74737769
0.0064182021 -0.02032429 0.74949461
0.0064823106 -0.021607697 0.75207412
0.0065677385 -0.022987098 0.75551146
0.0068459143 -0.025101662 0.76670444
0.0069223149 -0.026535511 0.76977855
0.0070032487 -0.028012991 0.77303511
0.0070905495 -0.029543966 0.77654779
0.0071888221 -0.031151563 0.78050196
0.0073008137 -0.032853633 0.78500819
0.0074368888 -0.03470546 0.79048342
0.0061473651 0.064986438 0.70326114
0.0061265477 0.063891172 0.70254314
0.0061058705 0.062803268 0.70183003
0.0061241696 0.062116593 0.70246112
0.0061664572 0.061664581 0.70391959
0.0061965892 0.061080664 0.70495886
0.006221089 0.060433447 0.70580375
0.0062394193 0.059720159 0.70643598
0.0062546623 0.058972538 0.70696169
0.0062729437 0.058248788 0.70759219
0.0062932996 0.057538778 0.70829427
0.0063145622 0.056831121 0.70902753
0.0063387435 0.056143224 0.70986152
0.0063669281 0.055483222 0.71083361
0.0064000152 0.054857284 0.71197474
0.0064429869 0.054305196 0.71345681
0.0064902171 0.053776085 0.71508574
0.0067229792 0.054744273 0.72311336
0.006764085 0.054112703 0.72453099
0.0068048765 0.053466916 0.72593784
0.006846163 0.052813262 0.72736186
0.0068867626 0.05214262 0.72876203
0.0069275438 0.051461786 0.73016852
0.00696859 0.050771147 0.73158419
0.0070028934 0.050020725 0.73276722
0.0070285816 0.049200147 0.73365319
0.005648518 0.038732708 0.68605649
0.0056309546 0.037807852 0.68545079
0.0056135012 0.036888719 0.68484879
0.0055961553 0.035975277 0.68425059
0.0055840923 0.035100013 0.68383455
0.0056013279 0.034408182 0.68442905
0.00561867 0.033712 0.68502712
0.0056368094 0.033015609 0.68565273
0.0056556324 0.032317907 0.68630195
0.005674581 0.031615525 0.68695545
0.0056936573 0.030908436 0.68761337
0.005712844 0.030196488 0.68827504
0.0057321792 0.029479772 0.6889419
0.0057528168 0.028764129 0.68965364
0.0057736416 0.028043419 0.69037187
0.0057946178 0.027317524 0.69109529
0.0058157467 0.026586294 0.69182408
0.0058370307 0.02584973 0.69255811
0.0058592162 0.02511093 0.69332325
0.0058820443 0.024368465 0.69411057
0.0059050317 0.023620158 0.69490337
0.0059282193 0.022866011 0.69570309
0.0059515694 0.022105843 0.69650841
0.0059755528 0.021341264 0.69733554
0.0060005523 0.020573348 0.69819778
0.0060257418 0.019798875 0.69906652
0.0060511427 0.019017905 0.69994259
0.0060767806 0.018230349 0.70082676
0.0061029131 0.017436892 0.70172805
0.0061302795 0.016639382 0.70267189
0.0061578923 0.0158346 0.70362419
0.0061857551 0.015022606 0.70458513
0.0062138713 0.014203161 0.70555484
0.0062426669 0.01337713 0.70654798
0.0062726969 0.012545407 0.70758367
0.0063030166 0.011705607 0.70862937
0.006333631 0.010857671 0.70968521
0.0063645444 0.010001421 0.71075141
0.0063966489 0.0091381073 0.71185863
0.006429669 0.0082667172 0.71299744
0.006463055 0.0073863566 0.71414888
0.0064967666 0.0064967573 0.71531153
0.00653105 0.0055980682 0.71649396
0.0065671257 0.0046908259 0.71773815
0.0066036014 0.0037735403 0.71899617
0.0066405106 0.0028459728 0.72026914
0.0066778343 0.0019079447 0.72155637
0.0067172288 0.00095960498 0.72291505
0.0067572212 2.9802322e-08 0.7242943
0.0067977183 -0.00097110868 0.72569102
0.0068387045 -0.0019538999 0.72710454
0.0068788906 -0.0029480755 0.72849053
0.006915289 -0.0039515793 0.72974586
0.0069484888 -0.0049631894 0.73089093
0.0069780308 -0.0059811473 0.73190975
0.0070029772 -0.0070029795 0.73277014
0.0070256772 -0.0080293417 0.73355305
0.0070496039 -0.0090637803 0.73437828
0.0070768949 -0.010109842 0.7353195
0.007108551 -0.011170566 0.73641121
0.0071418895 -0.012243211 0.73756105
0.0071812207 -0.013336539 0.73891753
0.007221017 -0.014442027 0.74029005
0.0072690938 -0.015576631 0.74194825
0.0073179984 -0.016726881 0.74363482
0.0073775598 -0.017916888 0.74568897
0.0074438839 -0.019141376 0.74797642
0.0075261639 -0.020428151 0.7508142
0.0078547494 -0.022442132 0.76214671
0.0079441844 -0.02383253 0.76523125
0.008032362 -0.025244564 0.76827234
0.0081301741 -0.026713431 0.77164578
0.0082365908 -0.028239727 0.775316
0.0083558662 -0.029842347 0.77942961
0.0084958393 -0.031555951 0.78425717
0.0086731901 -0.033453703 0.79037374
0.0070375167 0.065097064 0.70362198
0.0070136441 0.063999563 0.70290154
0.0069899578 0.062909633 0.7021867
0.0070179235 0.062284082 0.70303071
0.0070417016 0.061614901 0.70374823
0.0070584142 0.060878843 0.7042526
0.0070776087 0.060159683 0.70483184
0.0070996271 0.059459418 0.70549631
0.0071225432 0.058760971 0.7061879
0.0071475212 0.05807361 0.70694166
0.0071769962 0.057415992 0.70783114
0.0072113639 0.056789517 0.70886827
0.0072534406 0.056214213 0.71013802
0.0073051727 0.055701971 0.71169919
0.0073634405 0.055225819 0.71345758
0.0076174033 0.056178391 0.72112155
0.0076627545 0.055555046 0.72249019
0.0077085588 0.054923475 0.72387242
0.0077545233 0.054281682 0.72525954
0.0077997628 0.053623378 0.72662473
0.0078455331 0.052957386 0.72800601
0.0078896359 0.052268863 0.72933692
0.0079240268 0.051506162 0.73037481
0.0079478789 0.050667733 0.7310946
0.0079625826 0.049766183 0.73153824
0.0079823351 0.048891813 0.73213446
0.0080062198 0.04803732 0.73285514
0.0064454074 0.037866801 0.68575346
0.0064253984 0.036946058 0.68514967
0.0064054923 0.036030918 0.68454891
0.0063857296 0.03512153 0.68395257
0.0063741575 0.034261078 0.68360335
0.0063952175 0.033574909 0.68423891
0.0064164167 0.032884181 0.68487865
0.006437758 0.032188803 0.68552262
0.0064592408 0.031488776 0.68617094
0.0064811404 0.030785412 0.68683183
0.0065042675 0.030082256 0.68752974
0.0065275589 0.029374033 0.6882326
0.0065510189 0.028660685 0.68894064
0.006574648 0.02794227 0.68965364
0.0065984474 0.02721864 0.69037187
0.0066234726 0.026493907 0.69112706
0.0066489973 0.025764883 0.69189733
0.0066746967 0.025030136 0.69267285
0.0067006182 0.024289787 0.69345522
0.0067267423 0.023543596 0.69424349
0.0067536859 0.02279368 0.69505662
0.0067816041 0.022040248 0.69589913
0.0068097776 0.021280557 0.69674933
0.0068381629 0.020514488 0.69760597
0.0068668094 0.019742101 0.69847041
0.0068960772 0.018964231 0.69935364
0.0069266497 0.018182486 0.70027626
0.0069574942 0.017393708 0.7012071
0.0069886153 0.016597956 0.70214629
0.0070200157 0.015795052 0.70309383
0.007052172 0.014985859 0.70406425
0.0070857024 0.014171422 0.7050761
0.0071195532 0.013349146 0.70609766
0.0071537294 0.012519032 0.707129
0.0071882354 0.011680901 0.70817029
0.0072239353 0.010835916 0.70924765
0.0072608083 0.009983629 0.71036041
0.0072980337 0.0091225505 0.71148372
0.0073356698 0.0082526505 0.71261948
0.0073736953 0.0073736906 0.71376711
0.0074139293 0.0064871907 0.7149812
0.0074546328 0.0055910051 0.71620953
0.0074957572 0.0046848655 0.71745056
0.0075373668 0.0037687123 0.71870625
0.0075809336 0.0028428435 0.72002101
0.00762553 0.001906395 0.72136688
0.007670654 0.00095885992 0.72272861
0.0077163153 5.9604645e-08 0.72410649
0.00776141 -0.000970155 0.72546744
0.0078032296 -0.0019508004 0.72672945
0.0078414762 -0.0029405355 0.72788358
0.0078755403 -0.0039377511 0.72891152
0.0079045612 -0.0049403608 0.72978735
0.0079296781 -0.0059472322 0.73054528
0.0079563782 -0.0069617927 0.73135102
0.0079843737 -0.0079843402 0.73219591
0.0080196299 -0.0090220571 0.73325986
0.008055198 -0.010069013 0.73433328
0.0080979913 -0.011134714 0.73562461
0.0081422357 -0.01221332 0.73695982
0.0081927311 -0.013313204 0.73848367
0.0082468782 -0.014432013 0.74011767
0.0083090877 -0.015579522 0.74199504
0.0083763078 -0.016752601 0.74402356
0.0084622614 -0.017982304 0.74661744
0.0085791349 -0.019303054 0.75014442
0.0089332629 -0.021216482 0.76083118
0.0090307686 -0.022576928 0.76377362
0.0091350935 -0.023979604 0.76692194
0.0092474511 -0.025430501 0.77031267
0.0093727792 -0.026946753 0.7740947
0.0095165046 -0.028549522 0.77843201
0.0096913353 -0.030285418 0.78370804
0.0099450201 -0.032321304 0.79136366
0.0079306755 0.065207809 0.70398331
0.0079037277 0.064108014 0.70326042
0.0078769894 0.063015908 0.70254314
0.0078623844 0.062025458 0.70215142
0.0078854309 0.061331123 0.70276964
0.007910559 0.060647637 0.70344365
0.0079369098 0.059967756 0.70415056
0.0079669869 0.05930981 0.70495737
0.0080018975 0.058680624 0.70589375
0.0080427714 0.058086723 0.70699018
0.0080958074 0.057570189 0.70841289
0.0081536788 0.057075769 0.70996529
0.0084452201 0.058178216 0.71778572
0.0084957592 0.057582408 0.71914142
0.0085458364 0.056972265 0.72048467
0.0085964734 0.056354702 0.721843
0.0086464528 0.055721581 0.72318369
0.0086964453 0.055077553 0.72452474
0.0087470198 0.054425925 0.7258814
0.0087915557 0.053726226 0.72707605
0.0088255676 0.052953422 0.72798836
0.0088460594 0.052093506 0.7285381
0.0088637853 0.051212996 0.72901356
0.0088868402 0.050358772 0.72963202
0.0089141419 0.049523056 0.73036432
0.0089440634 0.048695475 0.73116696
0.0089758309 0.047871083 0.73201919
0.0072624036 0.037925929 0.68605709
0.0072397995 0.037003398 0.68545079
0.0072173588 0.036086798 0.68484885
0.0071950331 0.035175741 0.68425
0.0071728691 0.034270376 0.68365538
0.0071661803 0.033442199 0.68347597
0.0071898415 0.032753736 0.6841107
0.0072143064 0.032063603 0.68476701
0.0072397757 0.031372368 0.68545014
0.0072654267 0.030676246 0.68613827
0.0072912597 0.029975176 0.68683118
0.0073172762 0.029269099 0.68752909
0.0073434804 0.028557986 0.688232
0.0073712952 0.027847141 0.68897808
0.0073993956 0.02713114 0.6897319
0.0074276864 0.026409566 0.69049078
0.0074562184 0.025682569 0.69125617
0.0074849706 0.024949908 0.69202745
0.0075147981 0.024214387 0.69282752
0.0075455215 0.023474962 0.69365168
0.0075765233 0.022729576 0.69448328
0.0076077548 0.021977991 0.69532102
0.0076392447 0.021220177 0.6961658
0.0076715453 0.020457447 0.69703221
0.0077051749 0.01969102 0.69793433
0.0077391006 0.018917799 0.69884431
0.0077733262 0.018137783 0.69976246
0.007807856 0.017350793 0.70068872
0.0078431861 0.016557842 0.70163637
0.0078800498 0.015760124 0.70262522
0.0079172626 0.014954835 0.70362347
0.0079548275 0.014141917 0.70463109
0.0079927789 0.01332128 0.7056492
0.0080318972 0.012494057 0.70669848
0.0080724135 0.011660159 0.70778531
0.0081133107 0.010817766 0.70888239
0.0081546241 0.0099667907 0.70999062
0.0081963902 0.0091071129 0.71111095
0.0082403664 0.0082403719 0.71229059
0.0082850596 0.0073645413 0.71348947
0.0083302101 0.0064790845 0.71470058
0.0083758859 0.0055839419 0.71592587
0.0084233573 0.0046796799 0.71719927
0.0084722955 0.0037654936 0.718512
0.0085218046 0.0028406084 0.71984005
0.0085718632 0.0019048452 0.72118288
0.0086217541 0.00095799565 0.72252113
0.0086689573 2.9802322e-08 0.72378737
0.0087120589 -0.00096800923 0.72494352
0.0087503167 -0.0019445121 0.72596985
0.0087837363 -0.0029278994 0.72686625
0.0088115456 -0.003916204 0.7276122
0.0088408152 -0.0049115419 0.72839743
0.0088702803 -0.0059135258 0.72918785
0.0089075826 -0.0069281161 0.73018843
0.0089465864 -0.0079525113 0.73123467
0.0089907404 -0.0089907646 0.73241913
0.0090392148 -0.010043591 0.73371941
0.0090911873 -0.011111408 0.7351135
0.0091504483 -0.012200594 0.73670316
0.0092139551 -0.013309032 0.73840672
0.0092873815 -0.014447004 0.74037635
0.0093735633 -0.015622586 0.74268818
0.0094833961 -0.016859353 0.74563438
0.0098895989 -0.018680334 0.75653058
0.0099972663 -0.019994527 0.75941873
0.010106715 -0.021336377 0.76235467
0.010227405 -0.022727549 0.7655921
0.010359443 -0.024172008 0.76913393
0.010507178 -0.025684208 0.77309686
0.010680219 -0.027293861 0.77773869
0.0108989 -0.029063702 0.78360474
0.0088571599 0.066428721 0.70507687
0.0088269096 0.065319121 0.70434654
0.0087968651 0.06421715 0.70362115
0.0087670246 0.0631226 0.70290077
0.0087374169 0.06203568 0.70218599
0.0087365629 0.061155915 0.70216537
0.0087720975 0.060527503 0.70302325
0.0088134445 0.059931427 0.70402145
0.008863938 0.059388399 0.70524049
0.0089257956 0.058910251 0.70673388
0.0089936275 0.058458596 0.70837146
0.0093048438 0.05955103 0.71588492
0.0093590412 0.058961958 0.71719337
0.0094137322 0.058365136 0.71851373
0.009468779 0.057759583 0.71984267
0.0095227333 0.057136416 0.72114521
0.009577306 0.056506127 0.72246277
0.0096310992 0.0558604 0.72376138
0.0096745249 0.055144817 0.72480977
0.0097067682 0.054357916 0.7255882
0.0097250696 0.053487927 0.72602999
0.0097468551 0.052633047 0.726556
0.0097738141 0.051801234 0.72720683
0.0098041492 0.050981581 0.72793925
0.0098371878 0.050169647 0.72873682
0.0098731369 0.049365699 0.72960466
0.0099172443 0.048594505 0.73066956
0.0099704033 0.04785797 0.73195297
0.008081954 0.037985206 0.68636179
0.0080567598 0.037061125 0.68575352
0.0080317482 0.036142886 0.68514967
0.0080068652 0.035230219 0.68454897
0.0079821367 0.034323215 0.68395191
0.0079575852 0.033421874 0.68335921
0.0079598883 0.03263554 0.68341482
0.0079877935 0.031951189 0.68408853
0.0080158962 0.03126201 0.68476695
0.0080441954 0.030567944 0.6854502
0.0080729043 0.029869795 0.68614328
0.0081032095 0.029171556 0.68687493
0.00813377 0.028468192 0.68761265
0.0081645353 0.027759433 0.68835545
0.0081955604 0.027045369 0.68910444
0.0082268221 0.026325852 0.68985915
0.0082594417 0.025604278 0.69064665
0.0082928427 0.024878532 0.69145304
0.0083265156 0.024146914 0.69226599
0.0083604911 0.023409396 0.69308615
0.0083947154 0.022665739 0.69391251
0.0084299035 0.021917731 0.69476199
0.0084664486 0.021166116 0.69564426
0.0085033113 0.020407945 0.69653422
0.0085404962 0.019643158 0.69743192
0.008578008 0.018871605 0.6983375
0.0086163851 0.01809442 0.69926405
0.0086564245 0.017312884 0.70023066
0.0086968374 0.016524017 0.70120633
0.0087376302 0.015727788 0.70219111
0.0087788077 0.01492399 0.7031852
0.0088211829 0.014113903 0.70420837
0.008865132 0.013297707 0.70526934
0.0089095514 0.012473404 0.70634174
0.0089543881 0.011640728 0.70742416
0.0089996774 0.010799617 0.70851755
0.0090471609 0.0099518895 0.70966393
0.0090956436 0.0090956688 0.71083438
0.0091446163 0.0082301795 0.7120167
0.0091941524 0.0073553622 0.71321255
0.0092452541 0.0064716935 0.71444631
0.0092983078 0.0055789948 0.71572715
0.0093519744 0.0046760142 0.71702278
0.0094062285 0.0037625134 0.71833253
0.0094607221 0.0028382242 0.71964812
0.0095132459 0.0019026399 0.72091621
0.0095606167 0.0009560883 0.72205985
0.0096030766 -0 0.72308493
0.0096412683 -0.00096410513 0.72400689
0.0096728792 -0.001934588 0.72477013
0.0097037563 -0.0029111207 0.72551548
0.0097357407 -0.0038942993 0.72628772
0.0097732805 -0.0048865974 0.72719395
0.0098155355 -0.0058892965 0.72821409
0.0098603731 -0.0069022179 0.72929657
0.0099128038 -0.007930249 0.73056239
0.0099658361 -0.0089691877 0.73184264
0.010029601 -0.010029584 0.73338211
0.010094471 -0.011103898 0.73494828
0.01017258 -0.012207061 0.73683393
0.010257204 -0.013334364 0.73887694
0.010361024 -0.014505446 0.74138343
0.010542435 -0.015813649 0.745763
0.010933362 -0.017493367 0.7552008
0.011050228 -0.018785387 0.75802225
0.011176406 -0.020117521 0.7610684
0.011312094 -0.021492988 0.76434422
0.01146208 -0.022924185 0.7679652
0.011635168 -0.024433821 0.77214384
0.011846008 -0.026061177 0.77723402
0.012148228 -0.027940899 0.78453028
0.009759564 0.066542476 0.70544314
0.0097262096 0.06543088 0.70471108
0.009693048 0.064326644 0.70398331
0.0096601462 0.063230067 0.70326114
0.0096274326 0.062140703 0.70254314
0.009612971 0.061173439 0.7022258
0.0096752932 0.060690522 0.70359361
0.0097427033 0.060227662 0.70507306
0.010090133 0.061458081 0.71269822
0.010149264 0.060895562 0.71399605
0.01020769 0.060318202 0.71527827
0.010266831 0.059734285 0.71657634
0.010325383 0.059136301 0.71786135
0.010383706 0.058526367 0.71914136
0.010442731 0.057909697 0.72043687
0.010496861 0.057255596 0.72162491
0.010538951 0.056527138 0.7225486
0.010567035 0.05571714 0.72316498
0.010585773 0.054853559 0.72357631
0.010611856 0.054024011 0.72414869
0.010642924 0.053214639 0.72483057
0.010676783 0.052413315 0.72557372
0.010712693 0.051615715 0.72636175
0.010754053 0.050837338 0.72726959
0.010803532 0.050089121 0.72835553
0.010864181 0.049382657 0.72968656
0.010927856 0.048678666 0.73108411
0.010990878 0.047960222 0.73246723
0.0089040715 0.038044721 0.68666726
0.0088762706 0.037118942 0.68605715
0.0088757556 0.036309958 0.68604583
0.01125648 0.045025975 0.73829651
0.0087939296 0.034376293 0.68425
0.0087668402 0.033473432 0.68365538
0.0087398887 0.032575995 0.68306386
0.0087558497 0.03183946 0.68341422
0.0087870788 0.031154215 0.68409961
0.0088197179 0.030468136 0.68481594
0.0088526281 0.02977705 0.68553823
0.0088857859 0.029080749 0.68626601
0.0089191645 0.028379202 0.68699861
0.0089528235 0.02767238 0.68773729
0.0089881159 0.026964366 0.68851185
0.0090241032 0.026251942 0.68930167
0.0090603493 0.025533766 0.69009721
0.0090969177 0.024809808 0.69089973
0.0091337534 0.024079889 0.69170821
0.0091717131 0.023346156 0.69254136
0.0092110373 0.022608936 0.69340444
0.0092507005 0.021865308 0.6942749
0.0092907073 0.021115243 0.695153
0.0093310606 0.020358682 0.6960386
0.0093723098 0.019596636 0.69694388
0.0094153741 0.018830746 0.69788909
0.0094588678 0.018057823 0.69884366
0.0095027331 0.017277718 0.69980633
0.0095470073 0.01649031 0.70077807
0.0095924316 0.015696704 0.70177501
0.0096396739 0.014897704 0.7028119
0.0096873837 0.014090747 0.70385897
0.0097356029 0.013275862 0.70491725
0.0097842701 0.012452722 0.70598537
0.0098350421 0.011623234 0.70709968
0.00988709 0.010785908 0.708242
0.009939692 0.0099397004 0.70939648
0.0099928929 0.0090844631 0.71056408
0.010047363 0.0082205832 0.71175957
0.010104285 0.007348597 0.71300882
0.010161893 0.0064666569 0.71427321
0.010220162 0.0055746734 0.71555197
0.010278987 0.0046722889 0.71684313
0.010336204 0.0037586391 0.71809888
0.01038786 0.0028330684 0.71923256
0.010435089 0.0018973053 0.72026914
0.010477599 0.00095254183 0.72120214
0.010513785 -0 0.72199631
0.010546017 -0.00095868111 0.7227037
0.010580319 -0.0019236505 0.72345662
0.010617548 -0.0028956831 0.72427368
0.010662883 -0.0038774014 0.72526866
0.010708649 -0.0048675537 0.72627306
0.01076398 -0.0058712661 0.72748744
0.010820821 -0.0068859756 0.72873497
0.010885237 -0.0079165399 0.73014873
0.010954695 -0.0089629292 0.73167312
0.011032959 -0.010029942 0.73339087
0.011119083 -0.011119068 0.73528099
0.011225304 -0.012245774 0.73761225
0.011364041 -0.013430208 0.74065721
0.011840162 -0.015069306 0.75110686
0.011965048 -0.016315997 0.75384778
0.012094671 -0.017592251 0.75669265
0.012235995 -0.01891017 0.75979435
0.012391921 -0.020277679 0.76321656
0.01256603 -0.021704912 0.76703781
0.012769585 -0.02321741 0.77150524
0.013026044 -0.024867892 0.77713388
0.010665103 0.066656947 0.70581138
0.010628591 0.065542996 0.70507681
0.010644193 0.064752191 0.70539075
0.010556239 0.063337415 0.70362127
0.010520467 0.062246114 0.7029016
0.010552676 0.061557323 0.7035495
0.010917075 0.062773228 0.71088064
0.010979399 0.06221664 0.71213454
0.011042073 0.061651587 0.71339548
0.011105467 0.061080068 0.7146709
0.011167308 0.060489595 0.71591502
0.011229841 0.059892505 0.7171731
0.011292441 0.059285343 0.71843249
0.011344802 0.05861482 0.71948588
0.011384768 0.057872623 0.72028995
0.011408564 0.057042837 0.72076869
0.011431457 0.056204677 0.72122926
0.011460652 0.055393159 0.7218166
0.011494704 0.054599881 0.72250164
0.011532102 0.053816497 0.72325408
0.011571618 0.053036571 0.72404909
0.011617877 0.052280456 0.72497976
0.011675165 0.051565319 0.72613239
0.011741283 0.050878882 0.72746247
0.011809036 0.050188422 0.72882557
0.011876542 0.049485594 0.73018366
0.011943587 0.048769683 0.73153257
0.012012838 0.048051357 0.73292571
0.01208557 0.047335207 0.73438901
0.012164805 0.046631783 0.73598307
0.012254333 0.04595381 0.73778421
0.012372102 0.04536441 0.74015361
0.012486908 0.04474476 0.74246329
0.0095785633 0.03352499 0.68395191
0.0095491018 0.032626152 0.68335915
0.0095213009 0.031737685 0.68279988
0.0095564574 0.03105846 0.6835072
0.0095918765 0.030374259 0.68421978
0.0096275266 0.029684931 0.684937
0.0096634747 0.028990448 0.68566018
0.0097013852 0.028295696 0.68642294
0.0097398143 0.027596146 0.68719608
0.0097785182 0.026890904 0.68797469
0.0098175304 0.026180089 0.68875957
0.0098568881 0.025463641 0.68955141
0.0098975077 0.024743795 0.69036859
0.0099394843 0.024020463 0.69121307
0.0099818194 0.023290902 0.69206476
0.010024515 0.022555202 0.69292372
0.010067578 0.021813095 0.69379014
0.010111592 0.021065861 0.69467562
0.010157538 0.020315111 0.69559997
0.010203904 0.019557506 0.69653279
0.010250695 0.018792957 0.69747418
0.010297918 0.018021375 0.69842422
0.010346219 0.017243713 0.69939595
0.010396631 0.016461372 0.70041013
0.0104475 0.015671253 0.7014336
0.010498906 0.014873445 0.70246786
0.010550785 0.014067739 0.70351154
0.010604601 0.013255775 0.70459425
0.010660066 0.012436777 0.70571005
0.010716153 0.011609167 0.70683849
0.010772795 0.010772824 0.70797801
0.010830391 0.0099278688 0.70913672
0.010891016 0.0090758801 0.71035647
0.010952363 0.0082142949 0.71159059
0.011014404 0.0073429644 0.71283877
0.011077153 0.0064616799 0.7141012
0.011138595 0.005569309 0.7153374
0.011195126 0.0046646297 0.71647465
0.011247175 0.0037490427 0.71752179
0.011293971 0.0028235018 0.7184633
0.01133388 0.0018890202 0.71926618
0.011368258 0.00094738603 0.71995777
0.011404837 -0 0.72069371
0.011441608 -0.0009534657 0.72143352
0.011489424 -0.0019148886 0.72239548
0.011538086 -0.0028845072 0.72337449
0.011593559 -0.0038644969 0.72449046
0.011654 -0.0048558414 0.72570646
0.011718323 -0.0058591664 0.72700059
0.011792153 -0.0068787336 0.72848594
0.011869499 -0.0079129934 0.73004192
0.01196091 -0.0089706481 0.73188096
0.01206391 -0.010053247 0.73395324
0.012188957 -0.011173218 0.73646903
0.012712097 -0.012712091 0.74699378
0.012851681 -0.013922662 0.74980199
0.012986212 -0.015150577 0.75250852
0.013132834 -0.016416013 0.7554583
0.01329033 -0.017720401 0.75862694
0.013463715 -0.019073576 0.76211512
0.01366304 -0.02049455 0.76612526
0.013907353 -0.022019982 0.7710405
0.014253341 -0.02375555 0.77800119
0.011573762 0.066771716 0.70618099
0.011534031 0.065655261 0.70544314
0.011595715 0.065114439 0.70658863
0.011662744 0.064593673 0.70783341
0.01172975 0.064062506 0.70907778
0.011795776 0.063515753 0.71030396
0.011862549 0.0629628 0.71154404
0.011929032 0.062398046 0.71277863
0.011994893 0.061819851 0.71400177
0.012061485 0.061235249 0.71523839
0.01212516 0.060625821 0.71642089
0.012175317 0.05994004 0.71735239
0.012211294 0.059177816 0.7180205
0.012232834 0.058341205 0.71842051
0.012260227 0.057528764 0.71892923
0.012293501 0.056739241 0.71954715
0.012330507 0.055961549 0.72023439
0.012370701 0.055192411 0.72098082
0.012414 0.054430634 0.72178495
0.012467154 0.053704679 0.72277206
0.012530558 0.053013891 0.72394949
0.012602175 0.052347511 0.72527957
0.012673824 0.051670253 0.72661012
0.012745395 0.050981581 0.72793925
0.012816465 0.050280005 0.72925907
0.012891192 0.049581528 0.73064679
0.012968501 0.048881292 0.73208255
0.013056224 0.048207611 0.7337116
0.013154074 0.047557026 0.73552883
0.013283118 0.047001809 0.73792517
