# .PCD v0.7 - Point Cloud Data file format
VERSION 0.7
FIELDS x y z
SIZE 4 4 4
TYPE F F F
COUNT 1 1 1
WIDTH 1356
HEIGHT 1
VIEWPOINT 0 0 0 1 0 0 0
POINTS 1356
DATA ascii
-0.0049418644 -0.058066905 0.78951401
-0.0049418644 -0.05930236 0.78951406
-0.0049418644 -0.060537815 0.78951395
-0.0049418644 -0.0617733 0.78951406
-0.0049418644 -0.063008755 0.78951401
-0.0049418644 -0.064244211 0.78951401
-0.0049418644 -0.065479726 0.78951406
-0.0049418644 -0.066715121 0.78951401
-0.0049418644 -0.067950606 0.78951401
-0.0049418644 -0.069186091 0.78951406
-0.0049418644 -0.070421547 0.78951401
-0.0049418644 -0.071657002 0.78951401
-0.0049418644 -0.072892457 0.78951395
-0.0049418644 -0.074127942 0.78951406
-0.0049418644 -0.075363398 0.78951395
-0.0049418644 -0.076598912 0.78951401
-0.0049418644 -0.077834338 0.78951401
-0.0049418644 -0.079069793 0.78951401
-0.0049418644 -0.080305308 0.78951401
-0.0049418644 -0.081540704 0.78951395
-0.0049418644 -0.082776219 0.78951401
-0.0049418644 -0.084011704 0.78951401
-0.0049418644 -0.085247129 0.78951395
-0.0049418644 -0.086482644 0.78951406
-0.0031235069 0.091622889 0.74260652
-0.0031158305 0.090359092 0.74198878
-0.0031158305 0.089320481 0.74198878
-0.0031158305 0.08828187 0.74198878
-0.0031158305 0.087243259 0.74198878
-0.0031158305 0.086204648 0.74198872
-0.0031158433 0.085166395 0.74198979
-0.0031158433 0.084127784 0.74198985
-0.0031158433 0.083089143 0.74198985
-0.0031158433 0.082050532 0.74198985
-0.0031158433 0.081011981 0.74198979
-0.0031158563 0.079973668 0.74199086
-0.0031158563 0.078935027 0.7419908
-0.0031158563 0.077896416 0.7419908
-0.0031158563 0.076857805 0.74199086
-0.0031158563 0.075819194 0.74199086
-0.0031158691 0.074780881 0.74199188
-0.0031158691 0.073742241 0.74199188
-0.0031158691 0.07270363 0.74199188
-0.0031158691 0.071665019 0.74199188
-0.0031158691 0.070626378 0.74199188
-0.0031158822 0.069588035 0.74199295
-0.0031158822 0.068549454 0.74199295
-0.0031158822 0.067510784 0.74199301
-0.0031158822 0.066472173 0.74199295
-0.0031158947 0.06543377 0.74199396
-0.0031158947 0.064395189 0.74199396
-0.0031158947 0.063356549 0.74199396
-0.0031158947 0.062317908 0.74199396
-0.0031158947 0.061279327 0.74199402
-0.003115908 0.060240865 0.74199504
-0.003115908 0.059202254 0.74199498
-0.003115908 0.058163673 0.74199504
-0.003115908 0.057125002 0.74199504
-0.003115908 0.056086391 0.74199504
-0.003115921 0.055047959 0.74199605
-0.003115921 0.054009289 0.74199605
-0.003115921 0.052970678 0.74199605
-0.003115921 0.051932037 0.74199605
-0.003115921 0.050893396 0.74199605
-0.003115921 0.049854726 0.74199611
-0.003115921 0.048816085 0.74199605
-0.003115921 0.047777444 0.74199605
-0.003115921 0.046738833 0.74199605
-0.0031158947 0.045699805 0.74199402
-0.0031158691 0.044660836 0.74199188
-0.0031158691 0.043622166 0.74199188
-0.003112148 0.042532682 0.74169242
-0.003112148 0.041495323 0.74169242
-0.003112148 0.040457904 0.74169242
-0.003112135 0.039420426 0.74169147
-0.003112135 0.038383037 0.74169141
-0.003112135 0.037345648 0.74169147
-0.003112135 0.036308259 0.74169141
-0.003112135 0.0352709 0.74169147
-0.003112135 0.03423351 0.74169141
-0.003112135 0.033196121 0.74169147
-0.003112135 0.032158762 0.74169141
-0.0031121224 0.031121254 0.7416904
-0.0031121224 0.030083895 0.7416904
-0.0031121224 0.029046506 0.74169034
-0.0031121224 0.028009146 0.7416904
-0.0031121224 0.026971757 0.74169034
-0.0031121224 0.025934368 0.7416904
-0.0031121224 0.024896979 0.74169034
-0.0031121224 0.02385959 0.7416904
-0.0031121224 0.022822231 0.7416904
-0.0031121091 0.021784782 0.74168938
-0.0031121091 0.020747393 0.74168932
-0.0031121091 0.019710034 0.74168938
-0.0031121091 0.018672675 0.74168932
-0.0031121091 0.017635286 0.74168938
-0.0031121091 0.016597927 0.74168938
-0.0031121091 0.015560567 0.74168932
-0.0031121091 0.014523178 0.74168938
-0.0031120966 0.013485759 0.74168837
-0.0031120966 0.0124484 0.74168831
-0.0031120966 0.011411011 0.74168825
-0.0031120966 0.010373652 0.74168825
-0.0031120966 0.0093363523 0.74168831
-0.0031120966 0.0082989633 0.74168831
-0.0031120966 0.0072615743 0.74168825
-0.0031120966 0.006224215 0.74168831
-0.0031120966 0.0051868558 0.74168825
-0.0031120838 0.0041494668 0.74168724
-0.0031120838 0.0031121075 0.7416873
-0.0031120838 0.0020747185 0.7416873
-0.0031120838 0.001037389 0.74168724
-0.0031120838 -0 0.74168724
-0.0031120838 -0.0010373294 0.74168718
-0.0031120838 -0.0020746589 0.7416873
-0.0031120838 -0.0031120479 0.74168724
-0.0031120838 -0.004149437 0.7416873
-0.0031120707 -0.0051867962 0.74168622
-0.0031120707 -0.0062240958 0.74168622
-0.0031120707 -0.0072614849 0.74168622
-0.0031120707 -0.0082988441 0.74168622
-0.0031120707 -0.0093362331 0.74168622
-0.0031120707 -0.010373563 0.74168622
-0.0031120707 -0.011410892 0.74168622
-0.0031120707 -0.012448281 0.74168622
-0.0031120707 -0.01348561 0.74168622
-0.0031120707 -0.014523 0.74168622
-0.0031120707 -0.015560359 0.74168622
-0.0031120707 -0.016597688 0.74168622
-0.0031120707 -0.017635047 0.74168617
-0.0031120707 -0.018672377 0.74168622
-0.0031120707 -0.019709766 0.74168622
-0.0031120707 -0.020747125 0.74168622
-0.0031120707 -0.021784484 0.74168622
-0.0031120707 -0.022821844 0.74168622
-0.0031120579 -0.023859084 0.74168515
-0.0031120579 -0.024896443 0.74168515
-0.0031120579 -0.025933802 0.74168521
-0.0031120579 -0.026971191 0.74168515
-0.0031120579 -0.028008521 0.74168521
-0.0031120579 -0.02904585 0.74168515
-0.0031120579 -0.030083209 0.74168521
-0.0031120579 -0.031120569 0.74168521
-0.0031120579 -0.032157928 0.74168521
-0.0031120579 -0.033195287 0.74168521
-0.0031120579 -0.034232616 0.74168521
-0.0031120579 -0.035269976 0.74168521
-0.0031120579 -0.036307335 0.74168515
-0.0031120579 -0.037344664 0.74168515
-0.0031120579 -0.038382024 0.74168521
-0.0031120579 -0.039419383 0.74168521
-0.0031120579 -0.040456742 0.74168515
-0.0031120579 -0.041494101 0.74168521
-0.0031120449 -0.042531282 0.74168414
-0.0031120449 -0.043568611 0.74168414
-0.0031120449 -0.044605941 0.74168414
-0.0031120449 -0.0456433 0.74168414
-0.0031120449 -0.046680659 0.7416842
-0.0031120449 -0.047718018 0.74168414
-0.0031120449 -0.048755348 0.74168414
-0.0031120449 -0.049792707 0.74168414
-0.0031120449 -0.050830036 0.74168408
-0.0031120449 -0.051867396 0.74168408
-0.0031120449 -0.052904725 0.74168414
-0.0031120449 -0.053942084 0.74168414
-0.0031120449 -0.054979444 0.7416842
-0.0031120449 -0.056016773 0.74168408
-0.0031120449 -0.057054162 0.74168414
-0.0031120449 -0.058091521 0.74168414
-0.0031120449 -0.059128851 0.74168414
-0.0031120449 -0.06016618 0.74168408
-0.0031120449 -0.06120351 0.74168414
-0.0031120449 -0.062240869 0.74168414
-0.0031120449 -0.063278198 0.74168414
-0.0031120449 -0.064315587 0.74168408
-0.0031120449 -0.065352947 0.74168414
-0.0031120321 -0.066389978 0.74168313
-0.0031120321 -0.067427367 0.74168307
-0.0031120321 -0.068464667 0.74168313
-0.0031120321 -0.069502026 0.74168307
-0.0031120321 -0.070539355 0.74168313
-0.0031120321 -0.071576744 0.74168307
-0.0031120321 -0.072614074 0.74168313
-0.0031120321 -0.073651433 0.74168307
-0.0031120321 -0.074688762 0.74168313
-0.0031120321 -0.075726092 0.74168313
-0.0031120321 -0.076763421 0.74168313
-0.0031120321 -0.077800781 0.74168307
-0.0031120321 -0.07883811 0.74168313
-0.0031120321 -0.079875499 0.74168313
-0.0031120321 -0.080912828 0.74168313
-0.0031120321 -0.081950158 0.74168313
-0.0031120321 -0.082987517 0.74168307
-0.0031120321 -0.084024847 0.74168307
-0.0031120321 -0.085062206 0.74168313
-0.0031120321 -0.086099565 0.74168313
-0.0020816361 0.091591984 0.74252182
-0.0020766598 0.090334713 0.74192119
-0.0020766684 0.089296788 0.74192214
-0.0020766684 0.088258445 0.7419222
-0.0020766684 0.087220073 0.7419222
-0.0020766684 0.08618173 0.74192214
-0.0020766684 0.085143477 0.74192214
-0.002076677 0.084105462 0.74192315
-0.002076677 0.08306706 0.74192321
-0.002076677 0.082028747 0.74192327
-0.002076677 0.080990434 0.74192321
-0.002076677 0.079952061 0.74192315
-0.0020766857 0.078914076 0.74192429
-0.0020766857 0.077875733 0.74192423
-0.0020766857 0.076837391 0.74192429
-0.0020766857 0.075799018 0.74192423
-0.0020766857 0.074760705 0.74192423
-0.0020766857 0.073722363 0.74192429
-0.0020766857 0.07268399 0.74192429
-0.0020766857 0.071645677 0.74192423
-0.0020766857 0.070607334 0.74192429
-0.0020766857 0.069568992 0.74192423
-0.0020766857 0.068530649 0.74192429
-0.0020766857 0.067492306 0.74192423
-0.0020766857 0.066453964 0.74192429
-0.0020766857 0.065415651 0.74192423
-0.0020766857 0.064377278 0.74192429
-0.0020766857 0.063338935 0.74192429
-0.0020766857 0.062300563 0.74192429
-0.0020766857 0.06126228 0.74192429
-0.0020766857 0.060223877 0.74192429
-0.0020766857 0.059185565 0.74192423
-0.0020766857 0.058147192 0.74192423
-0.0020766857 0.057108879 0.74192429
-0.0020766857 0.056070536 0.74192429
-0.0020766857 0.055032194 0.74192423
-0.0020766857 0.053993821 0.74192429
-0.0020766857 0.052955538 0.74192423
-0.0020766857 0.051917136 0.74192423
-0.0020766857 0.050878823 0.74192429
-0.0020766857 0.04984051 0.74192423
-0.0020766857 0.048802108 0.74192429
-0.0020766857 0.047763765 0.74192423
-0.0020766857 0.046725482 0.74192423
-0.0020766857 0.045687109 0.74192423
-0.0020766857 0.044648767 0.74192423
-0.002076677 0.043610245 0.74192321
-0.002074172 0.042520553 0.74162078
-0.0020741634 0.041483313 0.74161977
-0.0020741634 0.040446222 0.74161983
-0.0020741634 0.039409131 0.74161983
-0.0020741634 0.03837207 0.74161977
-0.0020741634 0.037334979 0.74161977
-0.0020741634 0.036297888 0.74161977
-0.0020741634 0.035260767 0.74161983
-0.0020741634 0.034223706 0.74161977
-0.0020741634 0.033186615 0.74161977
-0.0020741548 0.032149434 0.74161875
-0.0020741548 0.031112373 0.74161869
-0.0020741548 0.030075252 0.74161875
-0.0020741548 0.029038191 0.74161875
-0.0020741548 0.02800113 0.74161875
-0.0020741548 0.026964009 0.74161875
-0.0020741548 0.025926948 0.74161875
-0.0020741548 0.024889857 0.74161875
-0.0020741462 0.023852706 0.74161768
-0.0020741462 0.022815645 0.74161768
-0.0020741462 0.021778524 0.74161774
-0.0020741462 0.020741463 0.74161768
-0.0020741462 0.019704431 0.74161768
-0.0020741462 0.01866734 0.74161768
-0.0020741462 0.017630249 0.74161774
-0.0020741462 0.016593188 0.74161768
-0.0020741376 0.015556037 0.74161661
-0.0020741376 0.014519006 0.74161661
-0.0020741376 0.013481945 0.74161661
-0.0020741376 0.012444824 0.74161667
-0.0020741376 0.011407763 0.74161667
-0.0020741376 0.010370702 0.74161667
-0.0020741376 0.0093336403 0.74161673
-0.0020741376 0.0082965493 0.74161673
-0.0020741376 0.0072594881 0.74161661
-0.0020741289 0.0062223673 0.74161559
-0.0020741289 0.0051853657 0.74161559
-0.0020741289 0.0041482747 0.74161559
-0.0020741289 0.0031112134 0.74161559
-0.0020741289 0.0020740926 0.74161565
-0.0020741289 0.001037091 0.74161565
-0.0020741289 -0 0.74161565
-0.0020741289 -0.0010370612 0.74161565
-0.0020741203 -0.0020741224 0.74161464
-0.0020741203 -0.0031111538 0.74161458
-0.0020741203 -0.0041482449 0.74161458
-0.0020741203 -0.0051852763 0.74161458
-0.0020741203 -0.0062223673 0.74161458
-0.0020741203 -0.0072593987 0.74161458
-0.0020741203 -0.0082964599 0.74161458
-0.0020741203 -0.0093335211 0.74161458
-0.0020741203 -0.010370582 0.74161458
-0.0020741117 -0.011407584 0.74161357
-0.0020741117 -0.012444645 0.74161357
-0.0020741117 -0.013481706 0.74161357
-0.0020741117 -0.014518768 0.74161357
-0.0020741117 -0.015555829 0.74161357
-0.0020741117 -0.01659289 0.74161351
-0.0020741117 -0.017629951 0.74161351
-0.0020741117 -0.018666983 0.74161357
-0.0020741031 -0.019703984 0.74161255
-0.0020741031 -0.020741016 0.74161249
-0.0020741031 -0.021778077 0.74161249
-0.0020741031 -0.022815108 0.74161255
-0.0020741031 -0.02385214 0.74161249
-0.0020741031 -0.024889201 0.74161255
-0.0020741031 -0.025926292 0.74161255
-0.0020740947 -0.026963234 0.74161148
-0.0020740947 -0.028000295 0.74161148
-0.0020740947 -0.029037297 0.74161148
-0.0020740947 -0.030074328 0.74161148
-0.0020740947 -0.031111389 0.74161148
-0.0020740947 -0.032148451 0.74161148
-0.0020740947 -0.033185482 0.74161148
-0.0020740947 -0.034222543 0.74161148
-0.0020740947 -0.035259604 0.74161148
-0.0020741031 -0.036296785 0.74161255
-0.0020741031 -0.037333876 0.74161249
-0.0020741031 -0.038370907 0.74161255
-0.0020741031 -0.039407939 0.74161255
-0.0020741117 -0.040445149 0.74161351
-0.0020741117 -0.04148221 0.74161351
-0.0020741117 -0.042519271 0.74161357
-0.0020741117 -0.043556333 0.74161357
-0.0020741203 -0.044593573 0.74161458
-0.0020741203 -0.045630664 0.74161458
-0.0020741203 -0.046667695 0.74161458
-0.0020741203 -0.047704756 0.74161458
-0.0020741289 -0.048742026 0.74161565
-0.0020741289 -0.049779087 0.74161559
-0.0020741289 -0.050816119 0.74161559
-0.0020741289 -0.05185321 0.74161559
-0.0020741376 -0.05289048 0.74161667
-0.0020741376 -0.053927541 0.74161661
-0.0020741376 -0.054964632 0.74161667
-0.0020741376 -0.056001723 0.74161667
-0.0020741462 -0.057038993 0.74161768
-0.0020741462 -0.058076054 0.74161768
-0.0020741462 -0.059113145 0.74161768
-0.0020741462 -0.060150206 0.74161768
-0.0020741548 -0.061187565 0.74161875
-0.0020741548 -0.062224627 0.74161875
-0.0020741548 -0.063261658 0.74161875
-0.0020741548 -0.064298779 0.74161875
-0.0020741634 -0.065336138 0.74161977
-0.0020741634 -0.066373199 0.74161977
-0.0020741634 -0.06741029 0.74161983
-0.002074172 -0.068447679 0.74162084
-0.002074172 -0.06948477 0.74162084
-0.002074172 -0.070521802 0.74162078
-0.002074172 -0.071558923 0.74162084
-0.0020741806 -0.072596312 0.74162185
-0.0020741806 -0.073633403 0.74162185
-0.0020741806 -0.074670494 0.74162185
-0.0020741806 -0.075707555 0.74162185
-0.0020741893 -0.076745003 0.74162292
-0.0020741893 -0.077782124 0.74162292
-0.0020741893 -0.078819185 0.74162287
-0.0020741893 -0.079856247 0.74162287
-0.0020741976 -0.080893725 0.74162394
-0.0020741976 -0.081930816 0.741624
-0.0020741976 -0.082967907 0.74162394
-0.0020741976 -0.084004998 0.74162394
-0.0020742062 -0.085042447 0.74162501
-0.0020742062 -0.086079568 0.74162501
-0.0020742062 -0.087116659 0.74162501
-0.0010406405 0.091576427 0.74247897
-0.0010381963 0.090323091 0.74188888
-0.0010381963 0.089284927 0.74188888
-0.0010381963 0.088246733 0.74188888
-0.0010381963 0.087208509 0.74188888
-0.0010381963 0.086170316 0.74188888
-0.0010381963 0.085132122 0.74188888
-0.0010381963 0.084093928 0.74188888
-0.0010381963 0.083055705 0.74188888
-0.0010381963 0.082017571 0.74188882
-0.0010381963 0.080979317 0.74188888
-0.0010381963 0.079941124 0.74188888
-0.0010381963 0.07890296 0.74188888
-0.0010381963 0.077864736 0.74188894
-0.0010381963 0.076826543 0.74188882
-0.0010381963 0.075788349 0.74188888
-0.0010381963 0.074750155 0.74188888
-0.0010381963 0.073711962 0.74188882
-0.0010381963 0.072673738 0.74188894
-0.0010381963 0.071635604 0.74188882
-0.0010381963 0.070597351 0.74188888
-0.0010381963 0.069559187 0.74188888
-0.0010381963 0.068520993 0.74188888
-0.0010381963 0.067482769 0.74188894
-0.0010381963 0.066444576 0.74188888
-0.0010381963 0.065406382 0.74188888
-0.0010381963 0.064368188 0.74188888
-0.0010381963 0.063330024 0.74188888
-0.0010381963 0.062291771 0.74188888
-0.0010381963 0.061253577 0.74188888
-0.0010381963 0.060215414 0.74188888
-0.0010381963 0.05917722 0.74188888
-0.0010381963 0.058138996 0.74188888
-0.0010381963 0.057100803 0.74188888
-0.0010381963 0.056062669 0.74188888
-0.0010381963 0.055024415 0.74188888
-0.0010381963 0.053986222 0.74188888
-0.0010381963 0.052948058 0.74188888
-0.0010381963 0.051909834 0.74188888
-0.0010382007 0.050871849 0.74188995
-0.0010382007 0.049833655 0.74188995
-0.0010382007 0.048795432 0.74188989
-0.0010382007 0.047757208 0.74188995
-0.0010382007 0.046719044 0.74188995
-0.0010382007 0.045680851 0.74188995
-0.0010382007 0.044642597 0.74188995
-0.0010382007 0.043604463 0.74188989
-0.0010369656 0.042515606 0.74159181
-0.0010369656 0.041478604 0.74159175
-0.0010369656 0.040441692 0.74159175
-0.0010369656 0.03940472 0.74159181
-0.0010369699 0.038367867 0.74159276
-0.0010369699 0.037330955 0.74159282
-0.0010369699 0.036293983 0.74159276
-0.0010369699 0.035257012 0.74159282
-0.0010369699 0.03422001 0.74159276
-0.0010369743 0.033183157 0.74159384
-0.0010369743 0.032146215 0.74159384
-0.0010369743 0.031109244 0.74159378
-0.0010369743 0.030072272 0.74159384
-0.0010369786 0.029035419 0.74159485
-0.0010369786 0.027998418 0.74159491
-0.0010369786 0.026961446 0.74159485
-0.0010369786 0.025924504 0.74159485
-0.0010369828 0.024887592 0.74159592
-0.0010369828 0.02385065 0.74159586
-0.0010369828 0.022813618 0.74159592
-0.0010369828 0.021776676 0.74159586
-0.0010369872 0.020739764 0.74159694
-0.0010369872 0.019702792 0.74159694
-0.0010369872 0.018665761 0.74159694
-0.0010369872 0.017628819 0.74159694
-0.0010369914 0.016591847 0.74159801
-0.0010369914 0.015554905 0.74159801
-0.0010369914 0.014517903 0.74159801
-0.0010369914 0.013480902 0.74159801
-0.0010369914 0.0124439 0.74159795
-0.0010369957 0.011406988 0.74159902
-0.0010369957 0.010369956 0.74159896
-0.0010369957 0.0093329847 0.74159902
-0.0010369957 0.0082959831 0.74159896
-0.001037 0.0072589815 0.7416001
-0.001037 0.0062220097 0.74160004
-0.001037 0.005185008 0.7416001
-0.001037 0.0041480064 0.74160004
-0.0010370043 0.0031110346 0.74160111
-0.0010370043 0.0020739734 0.74160111
-0.0010370043 0.0010370314 0.74160111
-0.0010370043 -0 0.74160111
-0.0010370086 -0.0010370016 0.74160206
-0.0010370086 -0.0020739734 0.74160212
-0.0010370086 -0.0031110048 0.74160212
-0.0010370086 -0.0041480064 0.74160206
-0.0010370129 -0.0051850379 0.74160314
-0.0010370129 -0.0062220395 0.7416032
-0.0010370129 -0.0072590709 0.7416032
-0.0010370172 -0.0082961023 0.74160421
-0.0010370172 -0.0093331337 0.74160415
-0.0010370172 -0.010370165 0.74160415
-0.0010370172 -0.011407167 0.74160421
-0.0010370215 -0.012444228 0.74160528
-0.0010370215 -0.013481259 0.74160528
-0.0010370215 -0.014518291 0.74160528
-0.0010370215 -0.015555322 0.74160528
-0.0010370258 -0.016592413 0.7416063
-0.0010370258 -0.017629415 0.7416063
-0.0010370258 -0.018666446 0.7416063
-0.0010370258 -0.019703478 0.7416063
-0.00103703 -0.020740569 0.74160731
-0.00103703 -0.0217776 0.74160737
-0.00103703 -0.022814661 0.74160731
-0.00103703 -0.023851663 0.74160731
-0.0010370344 -0.024888813 0.74160838
-0.0010370344 -0.025925845 0.74160838
-0.0010370344 -0.026962847 0.74160838
-0.0010370344 -0.027999878 0.74160838
-0.0010370387 -0.029037088 0.74160939
-0.0010370387 -0.03007409 0.74160939
-0.0010370387 -0.031111121 0.74160939
-0.0010370387 -0.032148153 0.74160939
-0.0010370429 -0.033185363 0.74161041
-0.0010370429 -0.034222394 0.74161041
-0.0010370429 -0.035259485 0.74161047
-0.0010370474 -0.036296606 0.74161148
-0.0010370474 -0.037333697 0.74161154
-0.0010370474 -0.038370758 0.74161148
-0.0010370474 -0.03940782 0.74161148
-0.0010370516 -0.04044497 0.74161255
-0.0010370516 -0.041482031 0.74161255
-0.0010370516 -0.042519122 0.74161255
-0.0010370516 -0.043556124 0.74161255
-0.0010370559 -0.044593394 0.74161357
-0.0010370559 -0.045630455 0.74161357
-0.0010370559 -0.046667486 0.74161357
-0.0010370559 -0.047704577 0.74161363
-0.0010370602 -0.048741817 0.74161458
-0.0010370602 -0.049778849 0.74161458
-0.0010370602 -0.05081594 0.74161464
-0.0010370602 -0.051853001 0.74161464
-0.0010370645 -0.052890241 0.74161559
-0.0010370645 -0.053927332 0.74161565
-0.0010370645 -0.054964393 0.74161565
-0.0010370645 -0.056001484 0.74161565
-0.0010370688 -0.057038754 0.74161667
-0.0010370688 -0.058075845 0.74161673
-0.0010370688 -0.059112936 0.74161667
-0.0010370688 -0.060149997 0.74161667
-0.0010370731 -0.061187297 0.74161768
-0.0010370731 -0.062224388 0.74161774
-0.0010370731 -0.063261479 0.74161768
-0.0010370731 -0.064298481 0.74161774
-0.0010370774 -0.06533587 0.74161875
-0.0010370774 -0.066372931 0.74161875
-0.0010370774 -0.067410022 0.74161875
-0.0010370817 -0.068447351 0.74161983
-0.0010370817 -0.069484472 0.74161977
-0.0010370817 -0.070521533 0.74161977
-0.0010370817 -0.071558595 0.74161971
-0.001037086 -0.072596014 0.74162084
-0.001037086 -0.073633105 0.74162078
-0.001037086 -0.074670166 0.74162078
-0.001037086 -0.075707287 0.74162084
-0.0010370903 -0.076744646 0.74162185
-0.0010370903 -0.077781767 0.74162185
-0.0010370903 -0.078818858 0.74162191
-0.0010370903 -0.079855919 0.74162191
-0.0010370946 -0.080893368 0.74162292
-0.0010370946 -0.081930488 0.74162292
-0.0010370946 -0.08296755 0.74162292
-0.0010370946 -0.084004611 0.74162281
-0.0010370988 -0.085042119 0.74162394
-0.0010370988 -0.08607921 0.74162394
-0.0010370988 -0.087116301 0.74162394
0 0.09157753 0.74248213
0 0.090323836 0.74189097
0 0.089285642 0.74189091
0 0.088247418 0.74189091
0 0.087209255 0.74189097
0 0.086171359 0.74189198
0 0.085133195 0.74189198
0 0.084094971 0.74189204
0 0.083056748 0.74189204
0 0.082018554 0.74189198
0 0.080980331 0.74189204
0 0.079942137 0.74189204
0 0.078903913 0.74189198
0 0.077866048 0.74189305
0 0.076827794 0.74189305
0 0.075789601 0.74189299
0 0.074751377 0.74189305
0 0.073713183 0.74189305
0 0.07267496 0.74189299
0 0.071636766 0.74189311
0 0.070598572 0.74189305
0 0.069560617 0.74189407
0 0.068522394 0.74189407
0 0.06748417 0.74189401
0 0.066445947 0.74189413
0 0.065407753 0.74189407
0 0.064369529 0.74189407
0 0.063331276 0.74189413
0 0.062293321 0.74189508
0 0.061255127 0.74189514
0 0.060216904 0.74189514
0 0.05917871 0.74189508
0 0.058140457 0.7418952
0 0.057102233 0.74189514
0 0.05606401 0.74189514
0 0.055025816 0.74189514
0 0.053987801 0.74189615
0 0.052949578 0.74189615
0 0.051911354 0.74189615
0 0.050873131 0.74189615
0 0.049834907 0.74189615
0 0.048796654 0.74189615
0 0.04775843 0.74189615
0 0.046720415 0.74189717
0 0.045682162 0.74189723
0 0.044643939 0.74189723
0 0.043605715 0.74189723
0 0.042515606 0.74159181
0 0.041478604 0.74159175
0 0.040441692 0.74159175
0 0.03940472 0.74159181
0 0.038367867 0.74159276
0 0.037330955 0.74159282
0 0.036293983 0.74159276
0 0.035257012 0.74159282
0 0.03422001 0.74159276
0 0.033183157 0.74159384
0 0.032146215 0.74159384
0 0.031109244 0.74159378
0 0.030072272 0.74159384
0 0.029035419 0.74159485
0 0.027998418 0.74159491
0 0.026961446 0.74159485
0 0.025924504 0.74159485
0 0.024887592 0.74159592
0 0.02385065 0.74159586
0 0.022813618 0.74159592
0 0.021776676 0.74159586
0 0.020739764 0.74159694
0 0.019702792 0.74159694
0 0.018665761 0.74159694
0 0.017628819 0.74159694
0 0.016591847 0.74159801
0 0.015554905 0.74159801
0 0.014517903 0.74159801
0 0.013480902 0.74159801
0 0.0124439 0.74159795
0 0.011406988 0.74159902
0 0.010369956 0.74159896
0 0.0093329847 0.74159902
0 0.0082959831 0.74159896
0 0.0072589815 0.7416001
0 0.0062220097 0.74160004
0 0.005185008 0.7416001
0 0.0041480064 0.74160004
0 0.0031110346 0.74160111
0 0.0020739734 0.74160111
0 0.0010370314 0.74160111
0 -0 0.74160111
0 -0.0010370016 0.74160206
0 -0.0020739734 0.74160212
0 -0.0031110048 0.74160212
0 -0.0041480064 0.74160206
0 -0.0051850379 0.74160212
0 -0.0062220395 0.7416032
0 -0.0072590709 0.7416032
0 -0.0082961321 0.7416032
0 -0.0093331039 0.74160314
0 -0.010370165 0.74160415
0 -0.011407167 0.74160421
0 -0.012444198 0.74160421
0 -0.01348123 0.74160421
0 -0.014518291 0.74160528
0 -0.015555322 0.74160528
0 -0.016592354 0.74160528
0 -0.017629325 0.74160522
0 -0.018666446 0.7416063
0 -0.019703478 0.7416063
0 -0.020740509 0.7416063
0 -0.02177754 0.74160635
0 -0.022814661 0.74160731
0 -0.023851663 0.74160731
0 -0.024888694 0.74160731
0 -0.025925726 0.74160725
0 -0.026962847 0.74160838
0 -0.027999878 0.74160838
0 -0.029036969 0.74160838
0 -0.030074 0.74160838
0 -0.031111002 0.74160832
0 -0.032148153 0.74160939
0 -0.033185214 0.74160939
0 -0.034222275 0.74160939
0 -0.035259306 0.74160939
0 -0.036296487 0.74161041
0 -0.037333488 0.74161041
0 -0.038370579 0.74161041
0 -0.039407611 0.74161041
0 -0.040444821 0.74161148
0 -0.041481882 0.74161148
0 -0.042518914 0.74161148
0 -0.043555975 0.74161148
0 -0.044593245 0.74161249
0 -0.045630246 0.74161243
0 -0.046667337 0.74161249
0 -0.047704369 0.74161249
0 -0.048741609 0.74161351
0 -0.04977867 0.74161357
0 -0.050815731 0.74161357
0 -0.051852793 0.74161357
0 -0.052890092 0.74161458
0 -0.053927124 0.74161458
0 -0.054964155 0.74161458
0 -0.056001216 0.74161458
0 -0.057038546 0.74161565
0 -0.058075607 0.74161565
0 -0.059112668 0.74161559
0 -0.060149729 0.74161559
0 -0.061187029 0.74161661
0 -0.06222412 0.74161667
0 -0.063261181 0.74161667
0 -0.064298272 0.74161673
0 -0.065335602 0.74161768
0 -0.066372663 0.74161768
0 -0.067409724 0.74161768
0 -0.068447113 0.74161875
0 -0.069484174 0.74161875
0 -0.070521265 0.74161875
0 -0.071558326 0.74161875
0 -0.072595716 0.74161977
0 -0.073632777 0.74161977
0 -0.074669838 0.74161977
0 -0.075706929 0.74161983
0 -0.076744348 0.74162084
0 -0.077781439 0.74162084
0 -0.07881853 0.74162078
0 -0.079855621 0.74162084
0 -0.08089301 0.74162185
0 -0.081930131 0.74162185
0 -0.082967222 0.74162185
0 -0.084004283 0.74162179
0 -0.085041732 0.74162287
0 -0.086078852 0.74162292
0 -0.087115914 0.74162292
0.001041 0.091608018 0.74256575
0.0010384765 0.090347439 0.74195647
0.0010384722 0.089308619 0.74195546
0.0010384722 0.088270128 0.74195546
0.0010384722 0.087231696 0.74195546
0.0010384722 0.086193204 0.74195546
0.0010384722 0.085154742 0.74195552
0.0010384722 0.08411628 0.74195546
0.0010384722 0.083077759 0.74195546
0.0010384722 0.082039297 0.74195552
0.0010384722 0.081000865 0.74195546
0.0010384722 0.079962343 0.74195546
0.0010384679 0.078923553 0.74195445
0.0010384679 0.077885091 0.74195445
0.0010384679 0.076846629 0.74195445
0.0010384679 0.075808167 0.74195439
0.0010384679 0.074769706 0.74195445
0.0010384679 0.073731244 0.74195445
0.0010384679 0.072692752 0.74195445
0.0010384679 0.07165426 0.74195445
0.0010384679 0.070615858 0.74195439
0.0010384636 0.069577068 0.74195337
0.0010384636 0.068538606 0.74195337
0.0010384679 0.067500412 0.74195439
0.0010384679 0.066461951 0.74195445
0.0010384679 0.065423518 0.74195439
0.0010384679 0.064384997 0.74195445
0.0010384722 0.063346803 0.74195546
0.0010384722 0.062308311 0.74195546
0.0010384722 0.061269879 0.74195552
0.0010384722 0.060231388 0.7419554
0.0010384722 0.059192926 0.74195546
0.0010384765 0.058154702 0.74195653
0.0010384765 0.05711621 0.74195647
0.0010384765 0.056077749 0.74195647
0.0010384765 0.055039287 0.74195653
0.0010384765 0.054000795 0.74195653
0.0010384808 0.052962542 0.74195755
0.0010384808 0.05192408 0.74195755
0.0010384808 0.050885558 0.74195755
0.0010384808 0.049847066 0.7419576
0.0010384851 0.048808813 0.74195862
0.0010384851 0.047770351 0.74195862
0.0010384851 0.04673183 0.74195862
0.0010384851 0.045693338 0.74195862
0.0010384851 0.044654876 0.74195856
0.0010384894 0.043616563 0.74195963
0.0010372365 0.042526722 0.74165714
0.0010372365 0.041489482 0.74165714
0.0010372365 0.040452212 0.74165714
0.0010372365 0.039415032 0.74165714
0.0010372365 0.038377762 0.74165714
0.0010372321 0.037340403 0.74165606
0.0010372321 0.036303133 0.74165612
0.0010372321 0.035265893 0.74165606
0.0010372321 0.034228683 0.74165612
0.0010372321 0.033191413 0.74165618
0.0010372321 0.032154232 0.74165606
0.0010372321 0.031116992 0.74165612
0.0010372321 0.030079752 0.74165612
0.0010372321 0.029042542 0.74165606
0.0010372279 0.028005153 0.74165505
0.0010372279 0.026967913 0.74165511
0.0010372279 0.025930703 0.74165511
0.0010372279 0.024893492 0.74165505
0.0010372279 0.023856282 0.74165505
0.0010372279 0.022819042 0.74165505
0.0010372279 0.021781802 0.74165505
0.0010372279 0.020744562 0.74165505
0.0010372279 0.019707352 0.74165505
0.0010372236 0.018670022 0.74165404
0.0010372236 0.017632812 0.7416541
0.0010372236 0.016595602 0.74165398
0.0010372236 0.015558362 0.74165404
0.0010372236 0.014521122 0.74165404
0.0010372236 0.013483912 0.74165404
0.0010372236 0.012446702 0.74165404
0.0010372236 0.011409491 0.74165404
0.0010372236 0.010372251 0.74165404
0.0010372192 0.0093349814 0.74165297
0.0010372192 0.0082977712 0.74165303
0.0010372192 0.0072605312 0.74165303
0.0010372192 0.0062232912 0.74165297
0.0010372192 0.0051861405 0.74165297
0.0010372192 0.0041489005 0.74165297
0.0010372192 0.0031116605 0.74165303
0.0010372192 0.0020744801 0.74165303
0.0010372192 0.0010372102 0.74165297
0.001037215 -0 0.74165195
0.001037215 -0.0010371804 0.74165195
0.001037215 -0.0020744205 0.74165201
0.001037215 -0.0031116009 0.74165195
0.001037215 -0.0041488409 0.74165195
0.001037215 -0.0051860511 0.74165195
0.001037215 -0.0062232316 0.74165195
0.001037215 -0.0072604716 0.74165195
0.001037215 -0.0082976818 0.74165201
0.0010372107 -0.0093348622 0.74165094
0.0010372107 -0.010372102 0.74165094
0.0010372107 -0.011409312 0.74165094
0.0010372107 -0.012446523 0.74165094
0.0010372107 -0.013483703 0.74165088
0.0010372107 -0.014520943 0.74165094
0.0010372107 -0.015558153 0.74165094
0.0010372107 -0.016595364 0.74165094
0.0010372064 -0.017632514 0.74164987
0.0010372064 -0.018669724 0.74164993
0.0010372064 -0.019706905 0.74164987
0.0010372064 -0.020744085 0.74164987
0.0010372064 -0.021781325 0.74164987
0.0010372064 -0.022818536 0.74164993
0.0010372064 -0.023855746 0.74164987
0.0010372064 -0.024892896 0.74164987
0.0010372064 -0.025930136 0.74164993
0.0010372021 -0.026967257 0.74164891
0.0010372021 -0.028004438 0.74164879
0.0010372021 -0.029041618 0.74164879
0.0010372021 -0.030078858 0.74164885
0.0010372021 -0.031116009 0.74164885
0.0010372021 -0.032153249 0.74164885
0.0010372021 -0.033190429 0.74164885
0.0010372021 -0.034227669 0.74164879
0.0010372021 -0.03526485 0.74164879
0.0010371978 -0.036301881 0.74164778
0.0010371978 -0.037339091 0.74164784
0.0010371978 -0.038376302 0.74164784
0.0010371978 -0.039413512 0.74164784
0.0010371978 -0.040450722 0.74164778
0.0010371978 -0.041487873 0.74164778
0.0010371978 -0.042525083 0.74164778
0.0010371978 -0.043562263 0.74164778
0.0010371978 -0.044599503 0.74164784
0.0010371935 -0.045636505 0.74164677
0.0010371935 -0.046673715 0.74164677
0.0010371935 -0.047710925 0.74164677
0.0010371935 -0.048748076 0.74164677
0.0010371935 -0.049785286 0.74164677
0.0010371935 -0.050822467 0.74164677
0.0010371935 -0.051859677 0.74164677
0.0010371935 -0.052896827 0.74164677
0.0010371978 -0.053934276 0.74164778
0.0010371978 -0.054971457 0.74164778
0.0010371978 -0.056008697 0.74164784
0.0010372021 -0.057046086 0.74164885
0.0010372021 -0.058083326 0.74164885
0.0010372021 -0.059120506 0.74164879
0.0010372064 -0.060157955 0.74164987
0.0010372064 -0.061195165 0.74164987
0.0010372064 -0.062232375 0.74164993
0.0010372107 -0.063269824 0.74165094
0.0010372107 -0.064307064 0.74165094
0.0010372107 -0.065344244 0.74165094
0.001037215 -0.066381752 0.74165195
0.001037215 -0.067418963 0.74165201
0.001037215 -0.068456173 0.74165201
0.0010372192 -0.069493651 0.74165303
0.0010372192 -0.070530921 0.74165297
0.0010372192 -0.071568102 0.74165297
0.0010372236 -0.07260564 0.74165404
0.0010372236 -0.07364288 0.74165404
0.0010372236 -0.07468009 0.74165404
0.0010372236 -0.0757173 0.74165404
0.0010372279 -0.076754838 0.74165505
0.0010372279 -0.077792108 0.74165511
0.0010372279 -0.078829318 0.74165511
0.0010372321 -0.079866856 0.74165606
0.0010372321 -0.080904096 0.74165612
0.0010372321 -0.081941366 0.74165618
0.0010372365 -0.082978904 0.74165714
0.0010372365 -0.084016114 0.74165708
0.0010372365 -0.085053384 0.7416572
0.0010372407 -0.086090982 0.74165821
0.0010372407 -0.087128222 0.74165815
0.0020830401 0.091653764 0.74269134
0.002077729 0.090381235 0.74205017
0.002077729 0.089342356 0.74205023
0.002077729 0.088303477 0.74205023
0.0020777206 0.087264299 0.74204916
0.0020777206 0.08622542 0.74204916
0.0020777206 0.085186541 0.74204916
0.0020777206 0.084147692 0.74204916
0.0020777206 0.083108842 0.74204916
0.0020777206 0.082069993 0.74204916
0.002077712 0.081030816 0.74204808
0.002077712 0.079991937 0.74204814
0.002077712 0.078953058 0.74204814
0.002077712 0.077914208 0.74204814
0.002077712 0.076875329 0.74204814
0.0020777031 0.075836182 0.74204707
0.0020777031 0.074797362 0.74204707
0.0020777031 0.073758483 0.74204707
0.0020777031 0.072719634 0.74204707
0.0020777031 0.071680754 0.74204707
0.0020777031 0.070641965 0.74204707
0.0020776947 0.069602758 0.742046
0.0020776947 0.068563938 0.742046
0.0020776947 0.067525059 0.742046
0.0020776947 0.066486269 0.74204606
0.0020776947 0.06544736 0.742046
0.0020776859 0.064408243 0.74204504
0.0020776859 0.063369453 0.74204493
0.0020776859 0.062330604 0.74204499
0.0020776859 0.061291784 0.74204499
0.0020776859 0.060252905 0.74204499
0.0020776859 0.059214085 0.74204499
0.0020776775 0.058174998 0.74204397
0.0020776775 0.057136148 0.74204391
0.0020776775 0.056097329 0.74204397
0.0020776775 0.055058479 0.74204397
0.0020776775 0.05401963 0.74204397
0.0020776687 0.052980572 0.7420429
0.0020776687 0.051941752 0.7420429
0.0020776687 0.050902903 0.7420429
0.0020776687 0.049864084 0.7420429
0.0020776687 0.048825264 0.74204296
0.0020776687 0.047786385 0.7420429
0.0020776601 0.046747327 0.74204195
0.0020776601 0.045708567 0.74204183
0.0020776601 0.044669718 0.74204189
0.0020776601 0.043630898 0.74204183
0.0020752216 0.0425421 0.74174744
0.0020752216 0.041504472 0.7417475
0.0020752216 0.040466845 0.74174756
0.0020752216 0.039429218 0.7417475
0.0020752216 0.03839162 0.7417475
0.0020752216 0.037354022 0.7417475
0.0020752216 0.036316395 0.7417475
0.0020752216 0.035278767 0.7417475
0.00207523 0.034241319 0.74174857
0.00207523 0.033203691 0.74174857
0.00207523 0.032166094 0.74174851
0.00207523 0.031128466 0.74174857
0.00207523 0.030090839 0.74174857
0.00207523 0.029053211 0.74174851
0.00207523 0.028015643 0.74174851
0.00207523 0.026978016 0.74174857
0.00207523 0.025940388 0.74174857
0.0020752386 0.02490285 0.74174958
0.0020752386 0.023865253 0.74174958
0.0020752386 0.022827655 0.74174953
0.0020752472 0.021790117 0.74175066
0.0020752472 0.02075249 0.7417506
0.0020752472 0.019714862 0.7417506
0.0020752472 0.018677264 0.74175066
0.0020752558 0.017639726 0.74175167
0.0020752558 0.016602069 0.74175167
0.0020752558 0.015564412 0.74175167
0.0020752647 0.014526874 0.74175268
0.0020752647 0.013489217 0.74175268
0.0020752647 0.012451589 0.74175274
0.0020752731 0.011414051 0.7417537
0.0020752731 0.010376394 0.7417537
0.0020752731 0.0093387663 0.74175376
0.0020752817 0.0083011389 0.74175477
0.0020752817 0.0072635114 0.74175477
0.0020752817 0.0062258542 0.74175477
0.0020752903 0.0051882565 0.74175578
0.0020752903 0.0041505694 0.74175584
0.0020752903 0.003112942 0.74175584
0.0020752989 0.0020753145 0.74175686
0.0020752989 0.0010376871 0.74175686
0.0020752989 -0 0.74175692
0.0020753075 -0.0010376275 0.74175787
0.0020753075 -0.0020752847 0.74175787
0.0020753075 -0.003112942 0.74175793
0.0020753162 -0.004150629 0.74175894
0.0020753162 -0.0051882863 0.74175894
0.0020753162 -0.0062259436 0.74175894
0.0020753248 -0.0072636306 0.74176002
0.0020753248 -0.0083012879 0.74176002
0.0020753248 -0.0093389153 0.74175996
0.0020753334 -0.010376632 0.74176103
0.0020753334 -0.011414349 0.74176103
0.0020753334 -0.012452006 0.74176109
0.002075342 -0.013489693 0.74176204
0.002075342 -0.01452741 0.74176204
0.002075342 -0.015565038 0.74176204
0.0020753506 -0.016602755 0.74176306
0.0020753506 -0.017640442 0.74176306
0.0020753506 -0.018678159 0.74176306
0.0020753592 -0.019715875 0.74176413
0.0020753592 -0.020753562 0.74176407
0.0020753592 -0.02179122 0.74176407
0.0020753678 -0.022829026 0.7417652
0.0020753678 -0.023866713 0.74176514
0.0020753678 -0.0249044 0.74176514
0.0020753765 -0.025942177 0.74176621
0.0020753765 -0.026979864 0.74176621
0.0020753765 -0.028017581 0.74176621
0.0020753851 -0.029055387 0.74176729
0.0020753851 -0.030093074 0.74176729
0.0020753851 -0.031130761 0.74176729
0.0020753937 -0.032168597 0.7417683
0.0020753937 -0.033206284 0.7417683
0.0020753937 -0.034243971 0.7417683
0.0020754023 -0.035281837 0.74176931
0.0020754023 -0.036319524 0.74176931
0.0020754023 -0.037357241 0.74176931
0.0020754023 -0.038394928 0.74176931
0.0020754107 -0.039432794 0.74177039
0.0020754107 -0.040470511 0.74177039
0.0020754107 -0.041508228 0.74177039
0.0020754195 -0.042546093 0.7417714
0.0020754195 -0.04358381 0.7417714
0.0020754195 -0.044621527 0.7417714
0.0020754281 -0.045659393 0.74177241
0.0020754281 -0.04669711 0.74177241
0.0020754281 -0.047734857 0.74177241
0.0020754365 -0.048772752 0.74177355
0.0020754365 -0.049810439 0.74177349
0.0020754365 -0.050848216 0.74177355
0.0020754454 -0.051886141 0.74177456
0.0020754454 -0.052923828 0.7417745
0.0020754454 -0.053961605 0.74177456
0.0020754538 -0.054999501 0.74177557
0.0020754538 -0.056037247 0.74177557
0.0020754538 -0.057074934 0.74177557
0.0020754626 -0.058112919 0.74177659
0.0020754626 -0.059150636 0.74177659
0.0020754626 -0.060188383 0.74177659
0.0020754712 -0.061226368 0.74177766
0.0020754712 -0.062264115 0.7417776
0.0020754712 -0.063301861 0.7417776
0.0020754796 -0.064339846 0.74177867
0.0020754796 -0.065377593 0.74177873
0.0020754796 -0.06641534 0.74177873
0.0020754884 -0.067453355 0.74177969
0.0020754884 -0.068491071 0.74177969
0.0020754884 -0.069528818 0.74177974
0.0020754968 -0.070566863 0.74178076
0.0020754968 -0.071604609 0.74178076
0.0020754968 -0.072642386 0.74178076
0.0020755054 -0.073680431 0.74178183
0.0020755054 -0.074718177 0.74178183
0.0020755054 -0.075755924 0.74178183
0.0020755143 -0.076793998 0.74178278
0.0020755143 -0.077831745 0.74178278
0.0020755143 -0.078869522 0.74178284
0.0020755227 -0.079907626 0.74178386
0.0020755227 -0.080945373 0.74178386
0.0020755227 -0.081983149 0.74178386
0.0020755313 -0.083021253 0.74178487
0.0020755313 -0.08405903 0.74178487
0.0020755313 -0.085096806 0.74178493
0.0020755401 -0.086134911 0.74178594
0.0020755401 -0.087172657 0.74178594
0.003126747 0.091717929 0.74286723
0.0031183159 0.090431184 0.74218881
0.0031183159 0.089391708 0.74218875
0.0031183159 0.088352293 0.74218881
0.0031183029 0.08731252 0.74218774
0.0031183029 0.086273044 0.74218774
0.0031183029 0.085233599 0.74218774
0.0031183029 0.084194213 0.74218774
0.0031183029 0.083154768 0.74218774
0.0031183029 0.082115352 0.74218774
0.0031183029 0.081075877 0.74218774
0.0031183029 0.080036432 0.7421878
0.0031183159 0.078997344 0.74218881
0.0031183159 0.077957898 0.74218881
0.0031183159 0.076918453 0.74218881
0.0031183159 0.075879008 0.74218881
0.003118329 0.07483992 0.74218982
0.003118329 0.073800445 0.74218982
0.003118329 0.072760999 0.74218982
0.0031183418 0.071721882 0.74219084
0.0031183418 0.070682406 0.7421909
0.0031183418 0.069642961 0.74219096
0.0031183418 0.068603545 0.74219084
0.0031183548 0.067564398 0.74219185
0.0031183548 0.066524923 0.74219191
0.0031183548 0.065485477 0.74219191
0.0031183679 0.0644463 0.74219292
0.0031183679 0.063406825 0.74219292
0.0031183679 0.06236738 0.74219292
0.0031183679 0.061327904 0.74219298
0.0031183807 0.060288697 0.742194
0.0031183807 0.059249252 0.74219394
0.0031183807 0.058209777 0.74219406
0.0031183937 0.05717054 0.74219507
0.0031183937 0.056131124 0.74219501
0.0031183937 0.055091619 0.74219507
0.0031183937 0.054052144 0.74219507
0.0031184063 0.053012937 0.74219608
0.0031184063 0.051973462 0.74219608
0.0031184063 0.050933987 0.74219608
0.0031184196 0.04989472 0.74219716
0.0031184196 0.048855275 0.7421971
0.0031184196 0.0478158 0.74219716
0.0031184326 0.046776533 0.74219817
0.0031184326 0.045737028 0.74219823
0.0031184326 0.044697583 0.74219817
0.0031184326 0.043658078 0.74219823
0.0031146021 0.04256624 0.74188995
0.0031146021 0.041528046 0.74188995
0.0031146021 0.040489823 0.74188989
0.0031146021 0.039451629 0.74188995
0.0031146021 0.038413465 0.74188989
0.0031146021 0.037375242 0.74188995
0.0031146149 0.036337227 0.74189091
0.0031146149 0.035298973 0.74189097
0.0031146149 0.03426078 0.74189097
0.0031146149 0.033222586 0.74189091
0.0031146149 0.032184362 0.74189097
0.0031146149 0.031146169 0.74189097
0.0031146149 0.030107975 0.74189091
0.0031146149 0.029069752 0.74189097
0.0031146149 0.028031558 0.74189097
0.0031146149 0.026993334 0.74189091
0.0031146279 0.0259552 0.74189198
0.0031146279 0.024917036 0.74189204
0.0031146279 0.023878843 0.74189198
0.0031146279 0.022840619 0.7418921
0.0031146279 0.021802396 0.74189204
0.0031146279 0.020764202 0.74189198
0.0031146279 0.019725978 0.74189198
0.0031146279 0.018687755 0.74189198
0.0031146279 0.017649561 0.74189198
0.0031146279 0.016611397 0.74189198
0.0031146405 0.015573204 0.74189305
0.0031146405 0.01453501 0.74189299
0.0031146405 0.013496786 0.74189305
0.0031146405 0.012458563 0.74189305
0.0031146405 0.011420369 0.74189299
0.0031146405 0.010382146 0.74189305
0.0031146405 0.0093439221 0.74189299
0.0031146405 0.0083057284 0.74189305
0.0031146405 0.0072675049 0.74189305
0.0031146405 0.0062293112 0.74189305
0.0031146538 0.0051911175 0.74189401
0.0031146538 0.0041528642 0.74189413
0.0031146538 0.0031146407 0.74189407
0.0031146538 0.002076447 0.74189401
0.0031146538 0.0010382235 0.74189413
0.0031146538 2.9802322e-08 0.74189407
0.0031146538 -0.0010382533 0.74189407
0.0031146538 -0.002076447 0.74189407
0.0031146538 -0.0031146109 0.74189407
0.0031146538 -0.004152894 0.74189407
0.0031146668 -0.0051911175 0.74189514
0.0031146668 -0.006229341 0.74189514
0.0031146668 -0.0072675347 0.74189508
0.0031146668 -0.0083057582 0.74189508
0.0031146668 -0.0093440115 0.74189514
0.0031146668 -0.010382205 0.74189508
0.0031146668 -0.011420429 0.74189514
0.0031146668 -0.012458622 0.74189508
0.0031146668 -0.013496876 0.74189514
0.0031146668 -0.014535099 0.74189514
0.0031146794 -0.015573382 0.74189615
0.0031146794 -0.016611606 0.74189621
0.0031146794 -0.017649829 0.74189615
0.0031146794 -0.018688053 0.74189615
0.0031146794 -0.019726276 0.74189615
0.0031146794 -0.02076453 0.74189615
0.0031146794 -0.021802753 0.74189615
0.0031146794 -0.022840947 0.74189615
0.0031146794 -0.0238792 0.74189615
0.0031146926 -0.024917513 0.74189717
0.0031146926 -0.025955737 0.74189723
0.0031146926 -0.02699399 0.74189723
0.0031146926 -0.028032213 0.74189723
0.0031146926 -0.029070437 0.74189723
0.0031146926 -0.03010869 0.74189723
0.0031146926 -0.031146914 0.74189717
0.0031146926 -0.032185167 0.74189723
0.0031146926 -0.033223361 0.74189723
0.0031146926 -0.034261614 0.74189723
0.0031147052 -0.035299987 0.74189818
0.0031147052 -0.03633824 0.7418983
0.0031147052 -0.037376434 0.74189824
0.0031147052 -0.038414687 0.74189824
0.0031147052 -0.03945291 0.74189824
0.0031147052 -0.040491164 0.74189824
0.0031147052 -0.041529387 0.74189824
0.0031147182 -0.042567819 0.74189931
0.0031147182 -0.043606043 0.74189931
0.0031147182 -0.044644296 0.74189931
0.0031147311 -0.045682728 0.74190032
0.0031147311 -0.046720952 0.74190032
0.0031147311 -0.047759235 0.74190032
0.0031147441 -0.048797667 0.74190134
0.0031147441 -0.049835891 0.7419014
0.0031147441 -0.050874144 0.7419014
0.0031147569 -0.051912606 0.74190241
0.0031147569 -0.052950889 0.74190241
0.0031147569 -0.053989112 0.74190235
0.0031147569 -0.055027366 0.74190241
0.0031147699 -0.056065857 0.74190342
0.0031147699 -0.057104141 0.74190348
0.0031147699 -0.058142364 0.74190342
0.003114783 -0.059180856 0.7419045
0.003114783 -0.060219109 0.7419045
0.003114783 -0.061257392 0.7419045
0.0031147958 -0.062295884 0.74190551
0.0031147958 -0.063334167 0.74190551
0.0031147958 -0.06437242 0.74190557
0.0031148088 -0.065410972 0.74190652
0.0031148088 -0.066449255 0.74190658
0.0031148088 -0.067487508 0.74190658
0.0031148216 -0.068526059 0.7419076
0.0031148216 -0.069564372 0.7419076
0.0031148216 -0.070602626 0.7419076
0.0031148347 -0.071641207 0.74190867
0.0031148347 -0.07267943 0.74190867
0.0031148347 -0.073717743 0.74190861
0.0031148475 -0.074756324 0.74190968
0.0031148475 -0.075794607 0.74190962
0.0031148475 -0.076832861 0.74190968
0.0031148605 -0.077871501 0.7419107
0.0031148605 -0.078909785 0.7419107
0.0031148605 -0.079948068 0.74191076
0.0031148733 -0.080986708 0.74191177
0.0031148733 -0.082025021 0.74191177
0.0031148733 -0.083063275 0.74191177
0.0031148863 -0.084101915 0.74191278
0.0031148863 -0.085140198 0.74191284
0.0031148863 -0.086178511 0.74191278
0.0031148994 -0.087217152 0.7419138
0.0041733077 0.091812789 0.74312752
0.0041610044 0.090501875 0.74238497
0.0041610044 0.089461625 0.74238491
0.0041610044 0.088421404 0.74238491
0.0041609877 0.087380767 0.7423839
0.0041609877 0.086340487 0.74238396
0.0041609877 0.085300267 0.74238396
0.00416097 0.084259659 0.74238288
0.00416097 0.083219439 0.74238288
0.00416097 0.082179189 0.74238288
0.00416097 0.081138939 0.74238288
0.00416097 0.080098689 0.74238288
0.0041609528 0.079058141 0.74238181
0.0041609528 0.07801789 0.74238187
0.0041609528 0.07697764 0.74238187
0.0041609528 0.07593742 0.74238181
0.0041609355 0.074896872 0.7423808
0.0041609355 0.073856622 0.74238074
0.0041609355 0.072816372 0.7423808
0.0041609355 0.071776152 0.7423808
0.0041609178 0.070735633 0.74237972
0.0041609178 0.069695354 0.74237972
0.0041609178 0.068655133 0.74237972
0.0041609178 0.067614943 0.74237972
0.0041609011 0.066574425 0.74237871
0.0041609011 0.065534174 0.74237871
0.0041609011 0.064493984 0.74237871
0.0041609011 0.063453764 0.74237871
0.0041608834 0.062413275 0.7423777
0.0041608834 0.061373025 0.74237764
0.0041608834 0.060332805 0.74237764
0.0041608834 0.059292614 0.7423777
0.0041608661 0.058252156 0.74237657
0.0041608661 0.057211906 0.74237657
0.0041608834 0.056171924 0.74237764
0.0041608834 0.055131733 0.7423777
0.0041608834 0.054091513 0.74237764
0.0041608834 0.053051293 0.74237764
0.0041609011 0.052011281 0.74237871
0.0041609011 0.050971061 0.74237871
0.0041609011 0.049930841 0.74237865
0.0041609178 0.048890799 0.74237978
0.0041609178 0.047850609 0.74237972
0.0041609178 0.046810359 0.74237972
0.0041609178 0.045770079 0.74237972
0.0041609355 0.044730067 0.74238086
0.0041609355 0.043689847 0.7423808
0.0041560279 0.04259932 0.74208456
0.0041559241 0.041559249 0.7420783
0.0041559241 0.040520281 0.7420783
0.0041559241 0.039481282 0.7420783
0.0041559241 0.038442343 0.74207836
0.0041559068 0.037403166 0.74207735
0.0041559068 0.036364168 0.74207729
0.0041559068 0.035325199 0.74207735
0.0041559068 0.034286231 0.74207729
0.0041559068 0.033247262 0.74207723
0.0041559068 0.032208294 0.74207729
0.0041559068 0.031169325 0.74207729
0.0041559068 0.030130357 0.74207723
0.0041559068 0.029091388 0.74207729
0.0041559068 0.02805239 0.74207723
0.0041559068 0.027013451 0.74207729
0.0041559068 0.025974452 0.74207723
0.0041558896 0.024935365 0.74207616
0.0041558896 0.023896366 0.74207628
0.0041558896 0.022857398 0.74207628
0.0041558896 0.021818429 0.74207628
0.0041558896 0.020779461 0.74207628
0.0041558896 0.019740462 0.74207622
0.0041558896 0.018701524 0.74207622
0.0041558896 0.017662555 0.74207628
0.0041558896 0.016623557 0.74207622
0.0041558896 0.015584588 0.74207628
0.0041558896 0.014545619 0.74207628
0.0041558896 0.013506681 0.74207622
0.0041558724 0.012467623 0.7420752
0.0041558724 0.011428654 0.7420752
0.0041558724 0.010389715 0.7420752
0.0041558724 0.0093507171 0.7420752
0.0041558724 0.0083117187 0.7420752
0.0041558724 0.0072728097 0.74207526
0.0041558724 0.0062338114 0.7420752
0.0041558724 0.0051948428 0.7420752
0.0041558724 0.0041559041 0.7420752
0.0041558724 0.0031169057 0.7420752
0.0041558724 0.0020779371 0.7420752
0.0041558724 0.0010389686 0.7420752
0.0041558724 2.9802322e-08 0.7420752
0.0041558724 -0.0010389686 0.7420752
0.0041558552 -0.0020779371 0.74207413
0.0041558552 -0.0031168759 0.74207413
0.0041558552 -0.0041558444 0.74207413
0.0041558552 -0.005194813 0.74207413
0.0041558552 -0.0062337518 0.74207419
0.0041558552 -0.0072727501 0.74207413
0.0041558552 -0.0083117187 0.74207413
0.0041558552 -0.0093506575 0.74207419
0.0041558552 -0.010389626 0.74207419
0.0041558552 -0.011428565 0.74207413
0.0041558552 -0.012467563 0.74207419
0.0041558552 -0.013506532 0.74207413
0.0041558552 -0.01454547 0.74207413
0.0041558379 -0.015584379 0.74207306
0.0041558379 -0.016623318 0.74207312
0.0041558379 -0.017662287 0.74207312
0.0041558379 -0.018701285 0.74207306
0.0041558379 -0.019740194 0.74207318
0.0041558379 -0.020779192 0.74207312
0.0041558379 -0.021818131 0.74207306
0.0041558379 -0.0228571 0.74207312
0.0041558379 -0.023896068 0.74207312
0.0041558379 -0.024935007 0.74207312
0.0041558379 -0.025973976 0.74207318
0.0041558379 -0.027012914 0.74207312
0.0041558379 -0.028051913 0.74207318
0.0041558207 -0.029090762 0.74207211
0.0041558207 -0.030129701 0.74207211
0.0041558207 -0.03116864 0.74207205
0.0041558207 -0.032207608 0.74207211
0.0041558207 -0.033246547 0.74207205
0.0041558207 -0.034285516 0.74207205
