# .PCD v0.7 - Point Cloud Data file format
VERSION 0.7
FIELDS x y z
SIZE 4 4 4
TYPE F F F
COUNT 1 1 1
WIDTH 1322
HEIGHT 1
VIEWPOINT 0 0 0 1 0 0 0
POINTS 1322
DATA ascii
-0.0261507 0.013075382 0.75430179
-0.026220132 0.012017578 0.75500023
-0.026289932 0.010954142 0.75570238
-0.026360108 0.0098850429 0.75640833
-0.026430773 0.0088102818 0.75711918
-0.026502172 0.0077298284 0.7578373
-0.026573837 0.0066434741 0.75855827
-0.026645891 0.0055512488 0.75928307
-0.026718337 0.0044530332 0.76001185
-0.026791299 0.0033489466 0.7607457
-0.02686454 0.0022387207 0.76148254
-0.026938183 0.0011224449 0.76222324
-0.027012352 2.9802322e-08 0.76296937
-0.027086806 -0.0011285841 0.76371837
-0.027161673 -0.0022634864 0.76447147
-0.02723708 -0.0034046173 0.76522994
-0.02731278 -0.0045520961 0.76599145
-0.027388904 -0.0057059824 0.76675719
-0.02746759 -0.0068668723 0.76754874
-0.027549004 -0.0080350935 0.76836765
-0.027630774 -0.0092102587 0.76919025
-0.027713159 -0.010392427 0.77001894
-0.027795907 -0.0115816 0.77085137
-0.027879152 -0.012777954 0.77168876
-0.027963027 -0.013981521 0.77253246
-0.028047279 -0.01519224 0.77337998
-0.02813204 -0.016410351 0.77423257
-0.028217446 -0.017635882 0.77509171
-0.028307641 -0.018871695 0.77599895
-0.028403657 -0.02011922 0.77696484
-0.028500322 -0.021375239 0.77793717
-0.028597651 -0.022639781 0.77891624
-0.028695647 -0.023912996 0.77990198
-0.028794315 -0.025195003 0.78089452
-0.028911194 -0.026501894 0.78207028
-0.029056558 -0.02784586 0.7835325
-0.022263203 0.082277089 0.72493362
-0.021925321 0.080075115 0.72138703
-0.021597622 0.077939272 0.71794724
-0.021437498 0.076429367 0.71626651
-0.021479111 0.075643808 0.71670336
-0.020717293 0.072060198 0.70870686
-0.02068668 0.07105425 0.70838553
-0.020656975 0.070054084 0.70807374
-0.020650601 0.069134623 0.70800686
-0.020701343 0.068404436 0.70853949
-0.020752409 0.067670912 0.70907551
-0.020804783 0.066937149 0.70962524
-0.020857422 0.06619963 0.71017778
-0.020910326 0.065458447 0.71073306
-0.020963501 0.064713418 0.71129119
-0.021016948 0.063964635 0.71185219
-0.021070665 0.063212007 0.71241605
-0.021124659 0.062455535 0.71298283
-0.021179007 0.061695397 0.71355331
-0.021233561 0.060931087 0.71412587
-0.021288391 0.060162872 0.71470141
-0.021343509 0.059390634 0.71527994
-0.021398913 0.058614433 0.7158615
-0.021454765 0.057834566 0.71644777
-0.021511069 0.057051152 0.71703875
-0.021567669 0.056263536 0.71763289
-0.021624569 0.055471748 0.71823013
-0.021681771 0.054675758 0.71883059
-0.02174026 0.053878009 0.71944451
-0.021799477 0.053076982 0.72006613
-0.021859022 0.052271575 0.72069108
-0.021918889 0.051461756 0.7213195
-0.021979086 0.050647467 0.72195137
-0.022039616 0.049828708 0.72258669
-0.022100478 0.049005449 0.72322559
-0.022162192 0.048178703 0.72387338
-0.022224249 0.047347337 0.72452474
-0.022286657 0.046511292 0.72517979
-0.022349415 0.045670539 0.7258386
-0.022412527 0.044825107 0.72650099
-0.022475997 0.043974787 0.72716725
-0.02253983 0.043119699 0.7278372
-0.022605887 0.04226321 0.72853065
-0.022672512 0.041401982 0.72922999
-0.022739712 0.040536016 0.72993529
-0.022808125 0.039666295 0.73065346
-0.022876859 0.038791239 0.73137492
-0.022946103 0.037910968 0.73210174
-0.023015672 0.037025213 0.73283195
-0.023085758 0.036134243 0.7335676
-0.023156179 0.0352377 0.73430681
-0.023227124 0.034335762 0.73505145
-0.023299072 0.033429116 0.7358067
-0.023375645 0.032522649 0.73661041
-0.023445364 0.031600267 0.73734224
-0.023414262 0.030540377 0.73701578
-0.023486992 0.029614031 0.7377792
-0.023560176 0.028681993 0.73854738
-0.023637701 0.027748644 0.73936111
-0.023717009 0.026810527 0.74019355
-0.023796847 0.025866151 0.74103165
-0.023877228 0.024915367 0.74187535
-0.023958152 0.023958147 0.74272484
-0.02403963 0.022994459 0.74357998
-0.024121659 0.022024155 0.74444109
-0.02420802 0.021050453 0.7453475
-0.024300953 0.020074725 0.74632305
-0.024394706 0.019091487 0.74730712
-0.024489079 0.018100619 0.74829769
-0.024584187 0.017102033 0.74929601
-0.024678873 0.016094923 0.75028986
-0.024767889 0.015076131 0.75122422
-0.024848964 0.01404506 0.75207531
-0.024929816 0.013006866 0.75292397
-0.025005652 0.011959225 0.75371999
-0.025081515 0.010904998 0.75451624
-0.025153657 0.0098427236 0.75527352
-0.02522633 0.0087743998 0.75603628
-0.025299311 0.0076998174 0.75680238
-0.025372714 0.0066190064 0.75757283
-0.02544621 0.0055317879 0.75834423
-0.025519565 0.0044382215 0.75911427
-0.025590952 0.0033379495 0.75986362
-0.025662741 0.0022315383 0.7606172
-0.025734935 0.0011189282 0.76137495
-0.025807537 -0 0.76213694
-0.025879268 -0.0011251867 0.76288992
-0.025950814 -0.0022565722 0.76364088
-0.026022755 -0.0033942759 0.76439607
-0.0260951 -0.0045382679 0.76515543
-0.026167249 -0.0056885481 0.76591277
-0.026239682 -0.0068450868 0.76667297
-0.026312634 -0.0080082119 0.76743883
-0.026385996 -0.0091777146 0.76820886
-0.026460009 -0.010353923 0.76898575
-0.026534561 -0.011536717 0.76976824
-0.026609536 -0.012726277 0.77055526
-0.026684936 -0.013922542 0.77134669
-0.026760889 -0.015125692 0.77214396
-0.026837146 -0.016335666 0.77294439
-0.026913844 -0.017552495 0.77374947
-0.026991108 -0.018776417 0.77456045
-0.027068686 -0.020007282 0.77537477
-0.027146714 -0.021245271 0.7761938
-0.027225321 -0.022490412 0.7770189
-0.027304256 -0.023742825 0.77784747
-0.02738365 -0.02500245 0.77868074
-0.02746403 -0.026269943 0.77952451
-0.02754884 -0.02754879 0.7804147
-0.027634308 -0.028835803 0.78131187
-0.027720176 -0.030130625 0.78221321
-0.027806578 -0.031433493 0.7831201
-0.027893655 -0.032744706 0.78403407
-0.027981143 -0.034063995 0.78495246
-0.028069181 -0.035391569 0.78587651
-0.028157914 -0.036727697 0.78680789
-0.028247071 -0.038072109 0.78774375
-0.028341681 -0.03943187 0.78873682
-0.028442124 -0.04080829 0.78979123
-0.028543284 -0.042194426 0.79085302
-0.028645167 -0.043590456 0.79192245
-0.028747778 -0.0449965 0.79299945
-0.028851125 -0.046412677 0.79408431
-0.02898702 -0.047891587 0.79551065
-0.029139539 -0.049410522 0.79711163
-0.021415548 0.082741916 0.72625381
-0.021452526 0.081909657 0.72665966
-0.020658517 0.077938974 0.71794647
-0.020604691 0.076799333 0.71735579
-0.020641008 0.075996459 0.7177543
-0.019771907 0.071897864 0.70821702
-0.01967972 0.070668101 0.70720541
-0.019657509 0.069694847 0.70696169
-0.019636819 0.068728864 0.70673466
-0.019675991 0.067971617 0.70716453
-0.019723302 0.067238539 0.70768368
-0.019770913 0.066502184 0.70820618
-0.019819181 0.065763652 0.70873582
-0.019868046 0.065022707 0.70927203
-0.019917151 0.064278096 0.70981091
-0.019966427 0.063529581 0.71035171
-0.02001602 0.062777519 0.7108959
-0.020065861 0.062021792 0.71144277
-0.020115951 0.06126225 0.71199244
-0.020166291 0.060498893 0.71254492
-0.02021681 0.059731483 0.71309924
-0.020267656 0.058960468 0.71365726
-0.02031876 0.058185548 0.71421802
-0.02037012 0.057406723 0.71478164
-0.020421742 0.056623936 0.71534812
-0.020473551 0.055837005 0.71591669
-0.02052585 0.055046558 0.71649063
-0.020578498 0.054252386 0.71706831
-0.020631338 0.053453922 0.71764821
-0.020684525 0.052651525 0.71823186
-0.020737911 0.051844776 0.71881771
-0.020791652 0.051034093 0.71940744
-0.02084575 0.050219327 0.7200011
-0.020901006 0.049402386 0.72060746
-0.020956555 0.048581123 0.72121698
-0.021012397 0.04775548 0.72182983
-0.021068541 0.046925396 0.72244591
-0.021124983 0.046090871 0.72306526
-0.021181731 0.045251906 0.72368801
-0.021239029 0.044408917 0.72431678
-0.021296721 0.043561459 0.72494984
-0.021354726 0.04270947 0.72558641
-0.021413047 0.041852802 0.72622645
-0.02147169 0.040991396 0.72686994
-0.021530654 0.04012534 0.72751701
-0.021589942 0.039254457 0.72816759
-0.02164956 0.038378775 0.72882181
-0.021709505 0.037498266 0.72947961
-0.021769784 0.036612809 0.73014116
-0.021831267 0.035723865 0.73081583
-0.021893704 0.034830898 0.73150098
-0.021956937 0.033933461 0.73219496
-0.022020627 0.033030957 0.73289382
-0.022084687 0.032123208 0.7335968
-0.022149121 0.031210154 0.73430389
-0.022213841 0.030291617 0.73501414
-0.022199774 0.029263347 0.73485976
-0.022265064 0.028337389 0.73557615
-0.022330737 0.027405918 0.73629689
-0.022396797 0.026468962 0.7370218
-0.022463253 0.025526434 0.73775107
-0.022530101 0.024578303 0.73848462
-0.022597348 0.02362451 0.73922253
-0.022665 0.022665024 0.73996502
-0.022733059 0.021699786 0.74071181
-0.022801617 0.020728767 0.7414642
-0.0228705 0.019751817 0.74222004
-0.022941712 0.018770486 0.74300152
-0.023014618 0.017784059 0.74380159
-0.023088086 0.016791314 0.74460781
-0.023162026 0.01579231 0.7454192
-0.023236442 0.014786839 0.74623585
-0.023311334 0.013774902 0.74705768
-0.023386713 0.012756407 0.74788481
-0.023462581 0.011731327 0.74871743
-0.023538942 0.010699511 0.74955541
-0.023616511 0.0096613169 0.75040656
-0.023699388 0.0086179972 0.75131607
-0.023782644 0.0075671971 0.75222969
-0.023866592 0.0065090954 0.75315082
-0.023951132 0.0054434836 0.75407857
-0.024036273 0.0043702424 0.75501293
-0.024122024 0.0032894015 0.75595391
-0.024209453 0.0022008717 0.75691336
-0.024306638 0.0011048317 0.75797987
-0.024404606 -0 0.7590549
-0.024503477 -0.0011138022 0.76013988
-0.024603041 -0.0022366345 0.76123238
-0.024702422 -0.0033684671 0.76232302
-0.024793668 -0.0045079291 0.76332438
-0.024879517 -0.0056544244 0.76426643
-0.024964493 -0.0068084896 0.76519889
-0.025044806 -0.0079688132 0.76608026
-0.025122769 -0.0091355443 0.76693583
-0.025198566 -0.010308474 0.76776755
-0.025274705 -0.011488527 0.76860309
-0.025351193 -0.012675554 0.76944244
-0.025427906 -0.013869762 0.77028424
-0.025505086 -0.015071154 0.77113122
-0.02558214 -0.016279519 0.77197683
-0.025657151 -0.017493516 0.77279997
-0.025732605 -0.018714577 0.77362788
-0.0258085 -0.019942909 0.77446079
-0.0258829 -0.021176904 0.7752772
-0.025957728 -0.022418022 0.77609831
-0.02603299 -0.023666322 0.77692425
-0.026108691 -0.024921924 0.77775502
-0.026184831 -0.026184827 0.77859056
-0.026261166 -0.027454823 0.77942824
-0.026337571 -0.028731883 0.78026664
-0.026414422 -0.030016392 0.78111005
-0.026491849 -0.031308562 0.78195977
-0.02656999 -0.032608628 0.78281713
-0.026648721 -0.033916533 0.78368109
-0.02672779 -0.035232067 0.78454882
-0.026807329 -0.036555409 0.78542167
-0.026887475 -0.037886888 0.78630114
-0.026967971 -0.039226115 0.78718448
-0.027048947 -0.040573388 0.78807312
-0.027130548 -0.041929007 0.7889685
-0.027212506 -0.043292612 0.789868
-0.027294962 -0.044664472 0.7907728
-0.027377916 -0.046044677 0.79168314
-0.027461516 -0.047433525 0.79260051
-0.027548661 -0.048836231 0.79355681
-0.027638027 -0.050250947 0.79453748
-0.027727833 -0.051674604 0.79552305
-0.027818365 -0.053107768 0.79651642
-0.027909352 -0.054550081 0.79751492
-0.028000932 -0.056001872 0.79851991
-0.02809326 -0.057463497 0.79953313
-0.028186053 -0.05893442 0.80055135
-0.028279608 -0.060415506 0.80157799
-0.028378908 -0.061917573 0.80266768
-0.02848421 -0.063442081 0.80382323
-0.028590448 -0.064978302 0.80498904
-0.028697331 -0.066525608 0.80616194
-0.028805016 -0.068084568 0.80734366
-0.028913511 -0.069655269 0.80853426
-0.029070348 -0.071354479 0.81025535
-0.02064543 0.084547997 0.7285912
-0.020549094 0.083174944 0.72748375
-0.020589521 0.082358092 0.72794855
-0.020630188 0.081538409 0.72841603
-0.020671017 0.080715418 0.72888541
-0.020711927 0.07988888 0.72935569
-0.018873116 0.071897596 0.70821625
-0.018695412 0.070330381 0.7061733
-0.018678995 0.069379151 0.70598459
-0.018662538 0.068429321 0.70579541
-0.018679593 0.067602366 0.70599145
-0.018723728 0.066870481 0.70649886
-0.018768342 0.066136092 0.70701176
-0.018813441 0.06539911 0.7075302
-0.018858755 0.064658612 0.7080512
-0.018904286 0.063914508 0.70857459
-0.01895004 0.063166827 0.7091006
-0.018996015 0.062415481 0.70962918
-0.019042214 0.061660528 0.71016026
-0.019088639 0.06090188 0.71069396
-0.019135291 0.060139477 0.71123028
-0.01918217 0.059373409 0.71176922
-0.019229278 0.058603555 0.71231079
-0.019276621 0.057829916 0.7128551
-0.019324197 0.057052404 0.71340203
-0.019372009 0.056271106 0.71395159
-0.019420056 0.055485904 0.714504
-0.019468343 0.054696798 0.71505916
-0.019517018 0.053904146 0.71561873
-0.01956586 0.053107351 0.71618026
-0.019615022 0.052306771 0.71674538
-0.019664433 0.051502109 0.71731341
-0.019714018 0.050693214 0.71788347
-0.01976393 0.049880415 0.71845722
-0.019814093 0.049063504 0.71903396
-0.019864513 0.04824239 0.71961361
-0.019915642 0.047418237 0.72020137
-0.019967338 0.046590477 0.72079575
-0.020019304 0.045758426 0.72139311
-0.020071542 0.044922024 0.72199368
-0.020124052 0.044081241 0.72259736
-0.020176839 0.043236107 0.7232042
-0.020229824 0.042386293 0.72381335
-0.020283401 0.041532665 0.72442931
-0.020337185 0.040674418 0.72504759
-0.020391336 0.039811671 0.7256701
-0.020445693 0.038944185 0.72629505
-0.020500422 0.038072258 0.72692418
-0.020555366 0.037195444 0.72755581
-0.020610685 0.0363141 0.72819179
-0.020666219 0.035427809 0.72883022
-0.020722138 0.034536898 0.72947311
-0.020778276 0.03364104 0.73011851
-0.020834802 0.032740414 0.73076832
-0.020891555 0.031834811 0.73142076
-0.02094895 0.030924648 0.73208058
-0.021007588 0.030010849 0.73275471
-0.021060472 0.02908355 0.73336267
-0.021064609 0.028086156 0.73341024
-0.021122793 0.027157873 0.73407912
-0.021181297 0.026224464 0.7347517
-0.021241071 0.025287002 0.73543894
-0.021301702 0.024344802 0.73613596
-0.021362679 0.023397237 0.73683691
-0.021424007 0.022444248 0.73754191
-0.021485601 0.021485597 0.73825008
-0.021547638 0.020521581 0.73896325
-0.021610033 0.019551963 0.73968059
-0.021672793 0.018576682 0.74040204
-0.021735827 0.017595679 0.74112678
-0.021799318 0.016608983 0.74185669
-0.021863183 0.015616566 0.74259084
-0.021927424 0.014618307 0.74332941
-0.02199195 0.013614088 0.74407113
-0.022056948 0.012603998 0.74481839
-0.022122521 0.011587977 0.74557221
-0.022190452 0.01056692 0.74635321
-0.0222588 0.0095395446 0.74713892
-0.022327667 0.0085057616 0.74793065
-0.022396864 0.0074656308 0.74872619
-0.022466492 0.006419003 0.74952668
-0.022536553 0.0053658485 0.75033212
-0.022607056 0.0043061376 0.75114262
-0.022678001 0.0032397509 0.75195819
-0.02274939 0.0021666586 0.75277889
-0.022821231 0.0010867715 0.75360483
-0.022893526 -0 0.75443596
-0.022968089 -0.0010936856 0.75529313
-0.023044758 -0.0021947026 0.7561745
-0.023121938 -0.0033031404 0.75706184
-0.023199638 -0.0044189394 0.75795507
-0.023277864 -0.0055423677 0.75885433
-0.02335651 -0.0066732764 0.75975853
-0.023435799 -0.007811904 0.76067007
-0.023515625 -0.0089583099 0.76158768
-0.023595998 -0.010112554 0.76251173
-0.02367991 -0.011276126 0.76347643
-0.023767216 -0.012449503 0.76448011
-0.023854954 -0.013631403 0.76548874
-0.023943448 -0.014822125 0.76650614
-0.024032602 -0.016021729 0.76753104
-0.024122424 -0.017230272 0.76856363
-0.024212915 -0.018447936 0.76960397
-0.024312865 -0.019681841 0.77075303
-0.024415573 -0.020927578 0.77193379
-0.024519149 -0.022183985 0.77312446
-0.024623726 -0.02345112 0.77432674
-0.024728382 -0.024728388 0.77552992
-0.024821965 -0.026003927 0.77660573
-0.024912123 -0.027284652 0.77764225
-0.025002223 -0.02857396 0.77867806
-0.025087828 -0.029866397 0.77966213
-0.025168231 -0.031160653 0.78058648
-0.025247814 -0.032461464 0.78150141
-0.02532766 -0.033770204 0.78241932
-0.025407892 -0.035087079 0.78334171
-0.025488632 -0.036412328 0.78426993
-0.025569886 -0.037746012 0.78520405
-0.025651034 -0.039087266 0.78613693
-0.025730051 -0.04043296 0.78704536
-0.025808921 -0.041785896 0.78795207
-0.025886877 -0.043144822 0.78884828
-0.025965303 -0.044511944 0.78974986
-0.026044209 -0.045887411 0.79065692
-0.026123591 -0.047271252 0.79156959
-0.026203461 -0.048663557 0.7924878
-0.026283819 -0.050064415 0.79341161
-0.026364673 -0.051473886 0.79434109
-0.026445493 -0.052890986 0.79527026
-0.026526812 -0.054316789 0.7962051
-0.026609035 -0.055752248 0.79715037
-0.026691634 -0.057196349 0.79809988
-0.026774747 -0.058649451 0.79905546
-0.026858518 -0.06011188 0.80001843
-0.026942676 -0.061583251 0.80098593
-0.027027361 -0.06306383 0.80195957
-0.027112722 -0.064554095 0.80294091
-0.027198482 -0.06605345 0.80392683
-0.027284788 -0.067562312 0.804919
-0.027371643 -0.0690808 0.8059175
-0.027459197 -0.070609331 0.80692399
-0.027548611 -0.072151154 0.80795193
-0.027642099 -0.07371226 0.80902672
-0.027736371 -0.075284421 0.81011051
-0.019662313 0.084547997 0.7285912
-0.019616757 0.083371222 0.72804129
-0.019656675 0.082558036 0.72852319
-0.019696757 0.081741571 0.72900701
-0.019737082 0.080922067 0.72949374
-0.019777494 0.080098838 0.72998154
-0.017974397 0.071897596 0.70821625
-0.017729446 0.070031345 0.7052595
-0.01771733 0.069097608 0.70511317
-0.01770523 0.068165153 0.70496714
-0.017706171 0.067283481 0.70497847
-0.017747747 0.06655407 0.7054804
-0.017789518 0.06582123 0.70598459
-0.017831488 0.065084964 0.70649117
-0.017873654 0.064345181 0.7070002
-0.017916022 0.063601881 0.7075116
-0.017958591 0.062855065 0.70802546
-0.018001363 0.062104702 0.70854175
-0.018044338 0.061350793 0.70906055
-0.018087519 0.060593218 0.70958173
-0.018130908 0.059832007 0.71010554
-0.018174505 0.05906716 0.71063173
-0.018218312 0.058298618 0.7111606
-0.018262332 0.05752635 0.71169198
-0.018306565 0.056750357 0.71222591
-0.018351011 0.055970609 0.71276236
-0.018395675 0.055187047 0.71330154
-0.018440556 0.054399639 0.71384329
-0.018485725 0.053608567 0.71438861
-0.018531116 0.052813709 0.71493644
-0.01857673 0.052014828 0.71548712
-0.018622572 0.051212072 0.71604037
-0.018668637 0.050405353 0.71659648
-0.018714931 0.049594581 0.71715528
-0.018761458 0.048779815 0.71771693
-0.018808214 0.047960967 0.71828139
-0.018855631 0.047139078 0.71885371
-0.018903431 0.046313465 0.71943069
-0.018951474 0.04548353 0.72001064
-0.018999759 0.044649482 0.72059345
-0.019048294 0.043811083 0.72117937
-0.019097077 0.042968452 0.7217682
-0.019146111 0.04212147 0.72236013
-0.019195396 0.041270107 0.72295505
-0.019245084 0.040414691 0.72355485
-0.019295029 0.039554834 0.72415769
-0.019345161 0.038690358 0.7247628
-0.019395627 0.037821501 0.72537202
-0.019446358 0.036948085 0.72598445
-0.019497279 0.036069989 0.7265991
-0.019548545 0.035187423 0.72721791
-0.01960008 0.034300178 0.72784001
-0.01965189 0.033408225 0.72846532
-0.019703893 0.032511443 0.72909313
-0.019756252 0.031610042 0.72972524
-0.01980889 0.030703813 0.73036051
-0.01986173 0.029792637 0.7309984
-0.019914933 0.028876692 0.73164058
-0.019937629 0.027912676 0.73191452
-0.019973602 0.026964396 0.7323488
-0.020027487 0.026035756 0.73299927
-0.020081662 0.025102109 0.73365319
-0.020136133 0.024163365 0.73431075
-0.020190898 0.023219556 0.73497182
-0.020246617 0.022271305 0.7356444
-0.020302976 0.021318138 0.73632467
-0.02035973 0.020359725 0.73700982
-0.020416804 0.019396007 0.73769879
-0.020474199 0.018426806 0.73839158
-0.020531917 0.017452121 0.73908824
-0.020589963 0.016471982 0.73978901
-0.02064825 0.015486181 0.74049246
-0.020706955 0.014494896 0.74120116
-0.020765996 0.013497949 0.7419138
-0.020825373 0.01249522 0.7426306
-0.020885089 0.011486799 0.7433514
-0.02094515 0.010472566 0.74407649
-0.02100556 0.0094525218 0.74480563
-0.021066228 0.0084265172 0.745538
-0.021127338 0.0073946118 0.7462756
-0.021188803 0.0063566566 0.74701756
-0.021251166 0.0053128004 0.74777043
-0.021314809 0.0042629838 0.74853855
-0.021378923 0.0032068491 0.74931252
-0.021443425 0.0021443367 0.7500912
-0.021508224 0.0010754168 0.75087339
-0.02157351 -0 0.75166142
-0.021639194 -0.0010819435 0.75245428
-0.021705279 -0.0021704733 0.75325203
-0.021771673 -0.0032657385 0.75405341
-0.02183857 -0.0043676794 0.75486094
-0.02190588 -0.0054764152 0.75567341
-0.021973606 -0.0065920651 0.75649101
-0.022041652 -0.0077145398 0.75731236
-0.022110222 -0.0088441074 0.75814009
-0.022180302 -0.0099811256 0.758986
-0.022252014 -0.011126012 0.75985169
-0.02232419 -0.012278318 0.76072294
-0.022396836 -0.013438076 0.76159984
-0.022469958 -0.014605433 0.76248246
-0.022543557 -0.015780479 0.76337099
-0.022617744 -0.016963303 0.76426643
-0.022692315 -0.018153846 0.76516664
-0.022767382 -0.019352287 0.76607275
-0.022842947 -0.020558625 0.76698488
-0.022919016 -0.02177307 0.76790309
-0.022997282 -0.02299726 0.76884788
-0.023078 -0.024231881 0.76982224
-0.02315929 -0.025475204 0.77080357
-0.023241045 -0.02672714 0.77179033
-0.023323487 -0.027988195 0.77278554
-0.023406519 -0.029258132 0.77378774
-0.02349014 -0.030537158 0.7747972
-0.023574362 -0.031825423 0.77581382
-0.023659192 -0.033122867 0.77683783
-0.023750044 -0.034437537 0.77793443
-0.023842162 -0.035763204 0.77904648
-0.023935115 -0.037099421 0.78016853
-0.024028681 -0.03844583 0.78129792
-0.02412286 -0.03980273 0.78243482
-0.024217902 -0.041170418 0.78358209
-0.024319721 -0.042559505 0.78481108
-0.024427645 -0.04396975 0.78611392
-0.024536533 -0.045392573 0.78742826
-0.024646517 -0.046828389 0.78875589
-0.024756879 -0.048275888 0.79008812
-0.024853287 -0.049706548 0.79125184
-0.024948211 -0.051143795 0.79239774
-0.025043862 -0.052592099 0.79355228
-0.025134943 -0.054040134 0.79465175
-0.025218302 -0.055480212 0.79565787
-0.025301829 -0.056929111 0.7966662
-0.025385911 -0.058387578 0.79768109
-0.025470553 -0.059855789 0.79870284
-0.025555763 -0.061333805 0.79973149
-0.025641676 -0.062822074 0.80076855
-0.025727242 -0.064318091 0.80180138
-0.025809385 -0.065813899 0.80279297
-0.025891256 -0.067317247 0.80378121
-0.025973642 -0.068830162 0.80477571
-0.026056556 -0.070352703 0.8057766
-0.026140003 -0.07188502 0.80678391
-0.026223984 -0.073427141 0.80779761
-0.026308507 -0.074979216 0.80881786
-0.026393715 -0.076541752 0.80984652
-0.018679272 0.084548295 0.72859216
-0.018651713 0.083441913 0.72824198
-0.018690582 0.082632095 0.72873586
-0.018729614 0.081818849 0.72923183
-0.018768884 0.081002593 0.72973078
-0.018808244 0.080182523 0.73023099
-0.017075676 0.071897596 0.70821625
-0.016834861 0.069997609 0.70515639
-0.01676959 0.068843603 0.70432699
-0.016760837 0.067925513 0.70421582
-0.016752155 0.067008615 0.7041055
-0.016790025 0.066276401 0.70458668
-0.01682896 0.065544367 0.7050814
-0.016868077 0.064808935 0.70557845
-0.016907316 0.064069837 0.70607704
-0.016946798 0.063327521 0.70657867
-0.016986463 0.062581718 0.70708269
-0.017026318 0.061832428 0.70758909
-0.017066296 0.061079383 0.7080971
-0.017106526 0.06032306 0.70860821
-0.017146945 0.059563071 0.70912182
-0.017187493 0.058799326 0.70963705
-0.017228296 0.058032155 0.71015549
-0.017269293 0.057261318 0.71067643
-0.017310485 0.056486905 0.71119982
-0.017351875 0.055708677 0.71172577
-0.017393464 0.054926753 0.71225417
-0.017435251 0.054141074 0.71278512
-0.01747724 0.053351581 0.71331871
-0.017519496 0.052558511 0.71385562
-0.017561892 0.051761389 0.71439433
-0.017604496 0.050960422 0.71493566
-0.017647306 0.050155491 0.71547961
-0.017690521 0.049347281 0.71602875
-0.017734213 0.048535764 0.71658385
-0.017778123 0.047720224 0.71714181
-0.017822249 0.04690069 0.71770245
-0.017866595 0.046077043 0.71826595
-0.017911162 0.045249254 0.71883225
-0.017955953 0.044417381 0.71940136
-0.018000968 0.043581277 0.71997344
-0.01804621 0.04274103 0.72054827
-0.018091677 0.041896552 0.72112602
-0.018137448 0.041047931 0.72170752
-0.018183447 0.040195018 0.72229201
-0.018229682 0.039337754 0.72287947
-0.018276151 0.038476139 0.72346997
-0.018322859 0.037610114 0.72406346
-0.018369805 0.036739647 0.72465998
-0.018416993 0.035864711 0.72525954
-0.018464353 0.034985095 0.72586131
-0.018512027 0.034101129 0.72646707
-0.018559951 0.033212543 0.72707605
-0.018608123 0.032319397 0.72768807
-0.018656544 0.031421572 0.72830337
-0.018705219 0.030519068 0.72892189
-0.018754149 0.029611826 0.72954357
-0.018803334 0.028699815 0.73016858
-0.018852778 0.027783066 0.73079681
-0.018860633 0.026801974 0.73089665
-0.018910531 0.025877565 0.73153067
-0.018960617 0.02494818 0.73216707
-0.01901097 0.024013877 0.73280686
-0.019061666 0.023074657 0.73345101
-0.019112557 0.02213037 0.73409766
-0.019164184 0.021181494 0.73475361
-0.019216403 0.02022782 0.73541719
-0.019268906 0.01926893 0.73608428
-0.019321695 0.018304795 0.73675513
-0.019374777 0.017335355 0.7374295
-0.019428151 0.016360581 0.73810768
-0.019481819 0.015380412 0.73878962
-0.019535784 0.01439479 0.73947537
-0.01959005 0.013403773 0.74016488
-0.019644616 0.012407154 0.7408582
-0.01969949 0.011404991 0.74155545
-0.019754669 0.010397226 0.74225658
-0.019810159 0.0093837678 0.7429617
-0.01986596 0.0083646178 0.7436707
-0.01992208 0.0073397458 0.74438375
-0.019978514 0.0063090026 0.74510086
-0.020035271 0.0052724779 0.74582195
-0.020092435 0.0042299926 0.74654835
-0.020149842 0.0031815767 0.7472778
-0.020207576 0.002127111 0.74801135
-0.020265989 0.0010666549 0.74875361
-0.020325523 2.9802322e-08 0.74951005
-0.020385407 -0.0010729134 0.75027096
-0.020445645 -0.0021521449 0.75103641
-0.02050624 -0.0032378137 0.75180638
-0.020567108 -0.00432989 0.75257969
-0.020628424 -0.0054285228 0.7533589
-0.020690111 -0.0065337121 0.75414264
-0.020752165 -0.0076455176 0.75493121
-0.020814594 -0.0087640285 0.75572443
-0.0208774 -0.0098892748 0.75652242
-0.020940494 -0.011021286 0.7573241
-0.021004062 -0.012160242 0.75813186
-0.021068018 -0.013306111 0.75894451
-0.021132363 -0.014459014 0.75976211
-0.021197105 -0.015618891 0.76058471
-0.021262243 -0.016785949 0.76141238
-0.021329315 -0.017961502 0.76226467
-0.021396907 -0.019144565 0.76312351
-0.021464929 -0.020335138 0.76398778
-0.021533383 -0.02153334 0.76485765
-0.02160218 -0.022739142 0.76573175
-0.021671515 -0.023952693 0.76661277
-0.021741297 -0.025174111 0.76749945
-0.021811429 -0.026403308 0.7683906
-0.021882117 -0.027640551 0.76928878
-0.021953264 -0.028885871 0.77019274
-0.022024874 -0.030139267 0.77110267
-0.022096852 -0.0314008 0.77201736
-0.022169404 -0.032670707 0.77293915
-0.022244517 -0.033952117 0.77389354
-0.022320453 -0.035242796 0.77485842
-0.022396911 -0.036542296 0.77582991
-0.022473894 -0.037850767 0.77680814
-0.022551408 -0.039168209 0.77779305
-0.02262946 -0.0404948 0.77878475
-0.022708051 -0.041830629 0.77978343
-0.022787193 -0.043175727 0.78078902
-0.022866886 -0.044530243 0.78180164
-0.022947252 -0.045894474 0.78282279
-0.023029635 -0.047271341 0.78386956
-0.023114856 -0.048662841 0.78495246
-0.023200601 -0.050064445 0.78604192
-0.023287095 -0.051476747 0.78714097
-0.023374241 -0.052899569 0.78824824
-0.023462037 -0.054333121 0.78936386
-0.023550496 -0.05577749 0.79048783
-0.023639508 -0.057232469 0.79161888
-0.023731209 -0.058703512 0.79278409
-0.023828043 -0.060197145 0.79401445
-0.023925791 -0.061703354 0.7952565
-0.024024222 -0.063221633 0.79650718
-0.024123469 -0.06475246 0.79776829
-0.024223413 -0.066295624 0.79903817
-0.024327178 -0.067860037 0.80035663
-0.024441006 -0.069463909 0.80180293
-0.024555778 -0.071082532 0.80326134
-0.024671631 -0.072716385 0.80473346
-0.024788454 -0.074365318 0.80621779
-0.024887869 -0.075973511 0.80748105
-0.017696083 0.084547997 0.7285912
-0.017661797 0.083402932 0.72813141
-0.017699352 0.082596987 0.72863507
-0.017737137 0.081787914 0.72914183
-0.017775083 0.080975384 0.7296508
-0.017813193 0.080159396 0.73016191
-0.017851394 0.079339564 0.73067433
-0.017889831 0.078516513 0.73118985
-0.015833912 0.068613619 0.70361525
-0.015827456 0.067706347 0.70352864
-0.01582134 0.06680122 0.70344663
-0.015846783 0.066028267 0.70378792
-0.015883002 0.065296799 0.70427364
-0.015919441 0.064562201 0.7047624
-0.01595605 0.063824236 0.70525342
-0.015992826 0.063082874 0.70574665
-0.016029771 0.062338024 0.7062422
-0.01606689 0.061589777 0.70674002
-0.016104123 0.060837805 0.70723939
-0.016141586 0.060082614 0.70774186
-0.016179224 0.059323847 0.70824671
-0.016217038 0.058561534 0.70875382
-0.016255029 0.057795674 0.70926338
-0.016293198 0.057026237 0.70977533
-0.016331546 0.056253105 0.71028972
-0.016370077 0.055476397 0.71080649
-0.016408788 0.054696023 0.71132565
-0.016447745 0.053912073 0.7118482
-0.016487189 0.053125381 0.71237719
-0.016526761 0.052334785 0.71290791
-0.016566582 0.051540494 0.71344209
-0.016606599 0.050742358 0.71397877
-0.01664681 0.049940437 0.71451807
-0.016687153 0.049134403 0.71505916
-0.016727753 0.048324615 0.71560371
-0.016768552 0.047510892 0.71615094
-0.016809488 0.046693057 0.71669996
-0.016850686 0.045871317 0.71725249
-0.016892089 0.045045584 0.71780783
-0.016933694 0.044215769 0.71836591
-0.016975442 0.043381721 0.71892577
-0.017017525 0.042543828 0.71949023
-0.017059749 0.041701645 0.72005653
-0.017102186 0.040855259 0.7206257
-0.017144835 0.040004611 0.72119772
-0.017187696 0.039149791 0.72177261
-0.01723084 0.038290739 0.72235125
-0.017274132 0.037427336 0.72293186
-0.017317643 0.036559463 0.72351551
-0.017361375 0.035687298 0.72410208
-0.017405396 0.034810841 0.72469246
-0.017449571 0.033929735 0.72528493
-0.017493971 0.033044189 0.7258805
-0.0175386 0.032154143 0.72647899
-0.017583456 0.031259507 0.72708058
-0.017628608 0.030360401 0.72768629
-0.017673928 0.029456556 0.72829413
-0.017719477 0.028548062 0.72890502
-0.017765475 0.027635217 0.72952199
-0.017792359 0.026688546 0.72988254
-0.017821087 0.025741607 0.73026782
-0.017867472 0.024815977 0.73088992
-0.01791417 0.023885578 0.73151624
-0.017961042 0.022950232 0.73214495
-0.018008735 0.022010684 0.73278469
-0.018056683 0.021066159 0.7334277
-0.018104887 0.020116538 0.73407423
-0.018153349 0.01916185 0.73472422
-0.018202143 0.018202126 0.73537868
-0.018251127 0.017237186 0.73603565
-0.018300377 0.016267031 0.73669618
-0.018349966 0.015291631 0.73736131
-0.018399751 0.014310956 0.738029
-0.018449806 0.013324827 0.73870039
-0.018500134 0.012333453 0.73937535
-0.018550737 0.011336595 0.74005413
-0.018601695 0.010334313 0.74073756
-0.018652856 0.0093264282 0.74142373
-0.018704299 0.00831303 0.74211377
-0.018756106 0.0072940588 0.74280858
-0.018808121 0.0062693954 0.74350625
-0.018860428 0.0052390397 0.74420774
-0.018913023 0.0042029321 0.74491322
-0.018965993 0.0031610131 0.74562371
-0.019019181 0.0021133125 0.746337
-0.019072669 0.0010596216 0.7470544
-0.019126456 -0 0.74777579
-0.019180795 -0.001065582 0.74850464
-0.019236017 -0.002137363 0.74924535
-0.019291559 -0.0032152236 0.74999022
-0.019347422 -0.0042994022 0.75073946
-0.01940361 -0.005389899 0.7514931
-0.019460127 -0.0064867139 0.75225115
-0.019516971 -0.0075899363 0.75301355
-0.019574149 -0.0086995959 0.75378042
-0.019631663 -0.0098158121 0.75455177
-0.019689603 -0.010938644 0.75532889
-0.019747797 -0.012068093 0.75610948
-0.01980634 -0.013204187 0.75689459
-0.019865228 -0.014347076 0.75768447
-0.019924469 -0.01549679 0.758479
-0.019984063 -0.016653359 0.7592783
-0.020044016 -0.017816871 0.76008236
-0.020104328 -0.018987447 0.76089138
-0.020165006 -0.020164996 0.76170516
-0.02022605 -0.021349728 0.76252395
-0.020287648 -0.022541791 0.76335001
-0.020350542 -0.023742259 0.76419365
-0.02041392 -0.024950325 0.76504368
-0.020477694 -0.026165962 0.76589906
-0.020541865 -0.027389139 0.76675975
-0.020606443 -0.028620034 0.76762581
-0.020671425 -0.029858679 0.76849747
-0.020736823 -0.03110522 0.76937449
-0.020802632 -0.03235966 0.77025717
-0.020868765 -0.033621877 0.77114421
-0.020935416 -0.03489235 0.77203816
-0.021002496 -0.036170959 0.77293789
-0.021070005 -0.037457764 0.77384329
-0.021137951 -0.038752913 0.77475464
-0.021206336 -0.040056378 0.77567178
-0.021275064 -0.041368157 0.77659363
-0.021345556 -0.042691112 0.77753907
-0.021416923 -0.044023663 0.77849627
-0.02148887 -0.045365363 0.77946126
-0.021561304 -0.046716124 0.78043276
-0.021634124 -0.048075765 0.78140938
-0.02170754 -0.049444944 0.78239405
-0.021781458 -0.05082339 0.78338552
-0.02185588 -0.052211255 0.78438371
-0.021930706 -0.053608358 0.78538728
-0.022006154 -0.055015385 0.78639925
-0.022082122 -0.056432098 0.78741813
-0.022158509 -0.057858288 0.78844261
-0.022236194 -0.059296489 0.78948462
-0.022316305 -0.060749918 0.79055905
-0.022396995 -0.062213868 0.79164124
-0.022478271 -0.063688397 0.79273134
-0.022560138 -0.065173686 0.79382938
-0.022642605 -0.066669881 0.79493552
-0.022725679 -0.068176985 0.79604965
-0.022809362 -0.069695264 0.79717201
-0.022893663 -0.071224719 0.79830277
-0.022978593 -0.072765529 0.79944181
-0.023065686 -0.07432273 0.80060995
-0.023155827 -0.075899631 0.80181897
-0.023246795 -0.077489287 0.80303907
-0.023338478 -0.079091489 0.80426872
-0.016978713 0.086891115 0.73236513
-0.016712967 0.084547997 0.7285912
-0.016701482 0.083507448 0.72842813
-0.016734997 0.082690567 0.72890407
-0.016768649 0.081870466 0.72938204
-0.016802436 0.081047058 0.7298618
-0.016836356 0.080220342 0.73034346
-0.016870417 0.079390258 0.73082721
-0.016904615 0.078556746 0.73131287
-0.014910213 0.068411529 0.70298982
-0.014904465 0.067508489 0.70290822
-0.014899451 0.066609353 0.70283705
-0.014915389 0.06580317 0.70306337
-0.014949151 0.065072775 0.70354283
-0.014983067 0.064339072 0.70402443
-0.015017138 0.06360203 0.7045083
-0.015051363 0.062861592 0.70499438
-0.015085745 0.062117785 0.70548266
-0.015120284 0.061370552 0.70597315
-0.015155035 0.060620129 0.70646667
-0.015190165 0.059867173 0.70696551
-0.015225457 0.059110612 0.70746672
-0.015260912 0.058350593 0.70797026
-0.015296536 0.057586968 0.70847613
-0.015332269 0.056819618 0.7089836
-0.015368225 0.05604884 0.70949417
-0.015404351 0.055274427 0.71000725
-0.015440645 0.054496408 0.71052271
-0.015477112 0.053714752 0.71104056
-0.015513753 0.052929282 0.71156085
-0.01555051 0.052139938 0.71208286
-0.015587498 0.051347077 0.71260816
-0.015624662 0.050550371 0.71313596
-0.015662005 0.049749911 0.71366626
-0.015699526 0.048945606 0.71419913
-0.015737228 0.048137426 0.71473449
-0.015775053 0.047325164 0.71527171
-0.015813118 0.046509176 0.71581227
-0.015851367 0.045689255 0.71635544
-0.015889803 0.04486534 0.71690124
-0.015928425 0.044037431 0.71744972
-0.015967296 0.043205649 0.71800172
-0.016006297 0.042369604 0.71855557
-0.016045487 0.041529506 0.71911222
-0.01608487 0.040685266 0.71967149
-0.016124448 0.039836884 0.72023356
-0.016164221 0.038984329 0.72079837
-0.01620419 0.038127542 0.72136593
-0.016244357 0.037266463 0.72193646
-0.016284725 0.036401182 0.72250962
-0.016325293 0.035531491 0.72308582
-0.016366063 0.034657508 0.72366476
-0.016407039 0.033779174 0.72424668
-0.016448284 0.032896578 0.72483242
-0.01648967 0.032009393 0.72542018
-0.016531525 0.031118214 0.72601449
-0.016573656 0.030222565 0.72661287
-0.016616069 0.029322475 0.72721517
-0.016658764 0.028417885 0.72782147
-0.016701613 0.027508557 0.72842997
-0.016744683 0.02659452 0.72904164
-0.016753653 0.025623262 0.72916907
-0.01679706 0.024701566 0.72978544
-0.016840758 0.02377522 0.73040605
-0.016884616 0.022843957 0.73102885
-0.016928772 0.021907836 0.7316559
-0.016973091 0.020966768 0.73228526
-0.017017711 0.020020843 0.73291904
-0.017062496 0.01906988 0.73355496
-0.017107589 0.018113941 0.73419535
-0.01715285 0.017152846 0.73483813
-0.017198352 0.016186684 0.7354843
-0.017244166 0.015215486 0.73613495
-0.017290153 0.014238954 0.73678797
-0.017336458 0.013257295 0.73744559
-0.01738294 0.012270331 0.73810571
-0.017429743 0.011278093 0.73877037
-0.017476728 0.01028043 0.73943758
-0.017524039 0.009277463 0.74010944
-0.017571535 0.008269012 0.74078393
-0.017619288 0.007254988 0.74146211
-0.017667374 0.0062355697 0.742145
-0.01771565 0.005210489 0.74283063
-0.017764265 0.0041798651 0.74352098
-0.017813072 0.0031434894 0.74421412
-0.017862223 0.0021014512 0.74491215
-0.017911572 0.0010536313 0.74561292
-0.017961269 2.9802322e-08 0.7463187
-0.01801132 -0.0010595024 0.74702954
-0.018062111 -0.0021249056 0.74775082
-0.018113188 -0.0031964481 0.74847615
-0.018164556 -0.0042739809 0.74920571
-0.018216295 -0.0053577125 0.7499404
-0.018268248 -0.0064476132 0.75067818
-0.018320501 -0.0075437129 0.7514202
-0.018373052 -0.0086461306 0.75216657
-0.018425986 -0.009754926 0.75291824
-0.018479146 -0.010870069 0.7536732
-0.018532613 -0.01199165 0.7544325
-0.018586392 -0.013119787 0.75519621
-0.018640563 -0.01425454 0.75596553
-0.018694969 -0.01539582 0.75673819
-0.018749695 -0.016543865 0.75751537
-0.018804742 -0.017698586 0.75829709
-0.018860195 -0.018860191 0.75908458
-0.018915894 -0.020028591 0.75987554
-0.01897192 -0.021203876 0.76067126
-0.019028282 -0.022386193 0.76147157
-0.019085065 -0.023575664 0.76227802
-0.019142102 -0.024772108 0.76308799
-0.019199479 -0.025975704 0.76390284
-0.019257989 -0.027187765 0.76473373
-0.019316941 -0.028407246 0.76557088
-0.019376345 -0.029634416 0.76641458
-0.019436026 -0.030868948 0.7672621
-0.019496078 -0.032111168 0.76811492
-0.019556498 -0.033361048 0.76897299
-0.019617297 -0.034618735 0.76983637
-0.019678473 -0.035884261 0.7707051
-0.019740034 -0.037157685 0.77157938
-0.019801982 -0.038439155 0.77245915
-0.019864317 -0.039728642 0.7733444
-0.019927047 -0.041026235 0.77423519
-0.019990174 -0.042332113 0.7751317
-0.020053703 -0.043646276 0.77603394
-0.020117639 -0.044968814 0.77694184
-0.02018198 -0.046299845 0.77785563
-0.020246737 -0.04763937 0.77877522
-0.020312006 -0.048987746 0.77970213
-0.020378675 -0.050347298 0.78064889
-0.020445978 -0.051716298 0.78160471
-0.020513728 -0.053094357 0.78256685
-0.020581929 -0.054481596 0.78353536
-0.020650584 -0.055878073 0.78451031
-0.020719599 -0.057283521 0.78549039
-0.020789176 -0.058698833 0.78647852
-0.020859225 -0.060123652 0.78747332
-0.020929746 -0.061558038 0.7884748
-0.021000745 -0.063002199 0.78948307
-0.021072229 -0.064456224 0.79049826
-0.021144198 -0.065920115 0.79152036
-0.021216558 -0.06739375 0.79254788
-0.02128952 -0.068877846 0.79358411
-0.021363629 -0.07037428 0.79463649
-0.021439338 -0.071884811 0.79571164
-0.021515694 -0.073406458 0.79679596
-0.021592593 -0.074938983 0.7978881
-0.021669935 -0.076482117 0.79898643
-0.021747945 -0.078036726 0.80009425
-0.021826521 -0.079602599 0.80121017
-0.021905662 -0.081179827 0.80233407
-0.016006676 0.087036341 0.73276818
-0.016040031 0.086215138 0.73327148
-0.016073588 0.085390955 0.73377776
-0.01610722 0.084562927 0.73428524
-0.016140994 0.083731413 0.73479497
-0.016174387 0.082893759 0.73529875
-0.016207919 0.082052588 0.73580474
-0.016241523 0.081207693 0.73631179
-0.016275268 0.080359131 0.73682094
-0.013994969 0.068225503 0.70241386
-0.013991154 0.067332476 0.70235634
-0.013987292 0.066439629 0.70229805
-0.013995361 0.065603256 0.70241982
-0.014026945 0.064874649 0.70289636
-0.014058672 0.064142734 0.70337504
-0.014090542 0.063407451 0.70385593
-0.014122557 0.06266886 0.70433903
-0.014154717 0.061926931 0.70482433
-0.014187026 0.061181575 0.70531178
-0.014219481 0.060432792 0.70580155
-0.014252086 0.059680611 0.70629346
-0.01428484 0.058924973 0.70678771
-0.014317745 0.058165878 0.70728421
-0.014350802 0.057403207 0.70778298
-0.014384013 0.056637019 0.70828414
-0.014417377 0.055867344 0.7087875
-0.014450897 0.055094063 0.70929331
-0.014484571 0.054317147 0.70980138
-0.014518405 0.053536654 0.71031189
-0.014552396 0.052752435 0.71082479
-0.014586546 0.051964581 0.71134007
-0.014620859 0.051173031 0.71185786
-0.014655332 0.050377727 0.71237803
-0.014689969 0.049578637 0.71290064
-0.014724769 0.048775822 0.7134257
-0.014759734 0.047969133 0.71395332
-0.014794866 0.047158659 0.71448338
-0.014830166 0.04634428 0.71501601
-0.014865634 0.045526028 0.7155512
-0.014901329 0.04470402 0.71608979
-0.014937139 0.04387787 0.7166301
-0.014973122 0.043047726 0.71717304
-0.015009278 0.042213619 0.7177186
-0.015045609 0.041375399 0.71826684
-0.015082118 0.040533185 0.71881771
-0.015118803 0.039686888 0.7193712
-0.015155667 0.03883642 0.71992749
-0.015192713 0.037981778 0.7204864
-0.015230228 0.03712371 0.72105247
-0.01526793 0.03626135 0.72162139
-0.015305818 0.035394728 0.72219306
-0.015343896 0.034523785 0.72276759
-0.015382163 0.033648491 0.72334504
-0.015420562 0.032768726 0.7239244
-0.015459273 0.03188476 0.72450846
-0.015498118 0.030996263 0.72509468
-0.01553716 0.030103236 0.72568375
-0.015576398 0.029205769 0.7262758
-0.015615835 0.028303742 0.72687089
-0.015655473 0.027397066 0.72746897
-0.015695311 0.02648586 0.72807008
-0.015705349 0.025521189 0.72822154
-0.015745506 0.024602354 0.72882748
-0.015785929 0.023678899 0.72943735
-0.015826499 0.022750586 0.73004955
-0.015867278 0.021817565 0.73066485
-0.015908265 0.020879596 0.73128331
-0.015949467 0.01993683 0.73190498
-0.015990883 0.018989205 0.73252988
-0.016032578 0.018036664 0.73315907
-0.016074426 0.017079115 0.73379046
-0.016116494 0.01611647 0.73442525
-0.016158782 0.015148878 0.73506331
-0.016201358 0.01417622 0.73570573
-0.016244095 0.013198376 0.73635054
-0.016287057 0.012215346 0.7369988
-0.016330246 0.011227041 0.73765051
-0.016373664 0.010233551 0.73830557
-0.016417315 0.0092347562 0.73896426
-0.016461268 0.0082306564 0.73962748
-0.016505387 0.0072211325 0.74029315
-0.016549742 0.0062061846 0.74096245
-0.016594339 0.0051857531 0.74163538
-0.016639175 0.0041598082 0.74231184
-0.016684325 0.00312832 0.74299312
-0.016729649 0.002091229 0.74367702
-0.016775502 0.0010484755 0.74436891
-0.01682175 2.9802322e-08 0.7450667
-0.016868323 -0.0010542572 0.74576944
-0.016915083 -0.0021143556 0.74647498
-0.016962174 -0.0031803548 0.74718559
-0.017009458 -0.0042523444 0.747899
-0.017057078 -0.0053303242 0.74861759
-0.017104892 -0.006414324 0.74933898
-0.017153049 -0.0075044334 0.75006568
-0.017201403 -0.008600682 0.75079525
-0.017250106 -0.0097031593 0.75153005
-0.017299011 -0.010811865 0.75226796
-0.017348269 -0.011926949 0.75301123
-0.017397732 -0.013048291 0.7537576
-0.017447477 -0.0141761 0.75450826
-0.017497584 -0.015310377 0.75526428
-0.017547904 -0.01645115 0.75602359
-0.017598592 -0.017598569 0.75678831
-0.017649494 -0.018752605 0.75755644
-0.017700771 -0.019913375 0.75833017
-0.017752267 -0.021080792 0.75910711
-0.017804144 -0.022255152 0.7598899
-0.017856246 -0.023436308 0.76067603
-0.017908731 -0.024624497 0.76146793
-0.017961446 -0.02581957 0.76226342
-0.018014474 -0.027021706 0.76306355
-0.018068222 -0.028231561 0.76387447
-0.018122539 -0.029449075 0.76469409
-0.018177265 -0.03067413 0.76551986
-0.018232239 -0.031906426 0.76634938
-0.018287549 -0.033146173 0.76718396
-0.018343193 -0.034393489 0.76802355
-0.018399179 -0.035648406 0.76886833
-0.018455591 -0.03691116 0.76971954
-0.018512266 -0.038181543 0.77057463
-0.018569289 -0.039459705 0.77143502
-0.018626664 -0.040745825 0.77230078
-0.018684397 -0.042039901 0.7731719
-0.018742574 -0.043342173 0.7740497
-0.018801026 -0.044652402 0.77493167
-0.018859847 -0.045970857 0.77581924
-0.018919034 -0.047297627 0.77671236
-0.018978685 -0.04863289 0.77761233
-0.019038621 -0.049976349 0.77851677
-0.019098939 -0.051328361 0.77942687
-0.019159641 -0.052688986 0.78034276
-0.01922082 -0.054058552 0.78126591
-0.019282857 -0.055438191 0.78220195
-0.019345669 -0.056827903 0.78314972
-0.019408891 -0.058226675 0.78410369
-0.01947253 -0.059634596 0.78506386
-0.019536585 -0.061051786 0.78603041
-0.019601064 -0.062478364 0.78700334
-0.01966597 -0.063914388 0.78798264
-0.019731307 -0.06535992 0.78896856
-0.019797079 -0.066815138 0.78996098
-0.019863293 -0.068280041 0.79096001
-0.019929949 -0.069754779 0.79196584
-0.019997155 -0.071239859 0.7929799
-0.020064715 -0.072734594 0.79399931
-0.020132734 -0.074239463 0.79502559
-0.020201216 -0.075754493 0.79605889
-0.020270163 -0.077279955 0.79709923
-0.020339584 -0.078815877 0.79814672
-0.020410419 -0.080366015 0.79921556
-0.020482061 -0.081928223 0.80029655
-0.014988098 0.08693099 0.73247594
-0.015019833 0.086113781 0.73298669
-0.015051702 0.085292965 0.73349965
-0.015083706 0.084468782 0.73401469
-0.015116151 0.083642691 0.73453689
-0.015149042 0.082814783 0.73506624
-0.015182015 0.081982881 0.7355969
-0.015215131 0.081147432 0.73612994
-0.015248454 0.080308527 0.73666632
-0.013105805 0.068150222 0.70218086
-0.013084784 0.067168593 0.70184255
-0.013082412 0.066284239 0.70180434
-0.013085195 0.065425992 0.70184916
-0.013114461 0.064698011 0.70232016
-0.013143905 0.063967049 0.70279408
-0.013173434 0.063232481 0.70326936
-0.013203097 0.062494665 0.7037468
-0.013232893 0.061753541 0.70422632
-0.013262825 0.06100902 0.70470804
-0.013292893 0.06026113 0.70519197
-0.013323096 0.059509844 0.70567811
-0.013353438 0.05875513 0.70616651
-0.013383918 0.057996988 0.70665705
-0.013414538 0.05723539 0.7071498
-0.013445297 0.056470245 0.70764488
-0.013476198 0.055701643 0.70814228
-0.013507241 0.054929465 0.70864183
-0.01353843 0.05415374 0.70914388
-0.01356976 0.05337438 0.70964813
-0.013601237 0.052591443 0.71015471
-0.01363286 0.05180487 0.71066368
-0.01366468 0.051014811 0.7111758
-0.013696599 0.050220907 0.71168953
-0.013728667 0.049423188 0.71220565
-0.013760886 0.048621804 0.71272421
-0.013793256 0.047816604 0.71324527
-0.013825832 0.047007859 0.71376956
-0.013858713 0.046195716 0.71429878
-0.013891753 0.045379728 0.71483052
-0.013924949 0.044559866 0.71536475
-0.013958305 0.04373607 0.71590161
-0.013991821 0.042908251 0.71644104
-0.014025497 0.042076498 0.71698308
-0.014059337 0.041240752 0.71752775
-0.01409334 0.040400952 0.71807498
-0.01412751 0.03955704 0.71862495
-0.014161843 0.038709044 0.71917754
-0.014196344 0.037856936 0.71973282
-0.014231014 0.037000656 0.72029084
-0.014265855 0.036140174 0.7208516
-0.014300866 0.035275489 0.72141504
-0.014336049 0.034406543 0.72198129
-0.014371405 0.033533305 0.72255039
-0.014406938 0.032655716 0.7231223
-0.014442645 0.031773865 0.72369695
-0.01447853 0.030887544 0.72427452
-0.014514593 0.029996872 0.72485495
-0.014550839 0.0291017 0.72543824
-0.014587265 0.028202027 0.72602457
-0.014623872 0.027297884 0.72661376
-0.014660664 0.026389211 0.72720599
-0.014691601 0.025465488 0.72770393
-0.014708358 0.02451399 0.72797352
-0.014745635 0.023593038 0.72857356
-0.014783101 0.022667468 0.72917652
-0.014820758 0.021737128 0.72978258
-0.014858608 0.02080211 0.73039174
-0.014896712 0.019862324 0.73100507
-0.014934951 0.01891762 0.73162055
-0.014973388 0.017968088 0.73223913
-0.015012023 0.017013669 0.73286098
-0.015050857 0.016054273 0.733486
-0.015089953 0.015089989 0.73411524
-0.015129193 0.014120549 0.73474681
-0.015168637 0.013146192 0.7353816
-0.015208286 0.012166619 0.73601985
-0.015248144 0.011181951 0.73666131
-0.015288212 0.010192126 0.73730618
-0.015328553 0.0091971755 0.73795545
-0.015369045 0.0081968307 0.73860717
-0.015409752 0.0071912408 0.73926234
-0.015450927 0.0061803758 0.73992503
-0.015492389 0.0051641762 0.7405923
-0.015534137 0.0041424334 0.74126422
-0.015576049 0.0031152368 0.74193883
-0.015618185 0.0020824373 0.74261701
-0.01566055 0.0010440648 0.74329889
-0.015703145 2.9802322e-08 0.7439844
-0.015746038 -0.0010496974 0.7446748
-0.015789101 -0.0021051764 0.74536788
-0.0158324 -0.0031664968 0.74606478
-0.015875937 -0.0042335689 0.74676549
-0.015919715 -0.0053065419 0.74747002
-0.0159638 -0.006385535 0.74817961
-0.016008066 -0.0074703991 0.74889207
-0.016052574 -0.0085613728 0.7496084
-0.016097331 -0.0096583962 0.75032872
-0.01614234 -0.010761559 0.75105321
-0.016187672 -0.01187098 0.75178272
-0.016233185 -0.012986541 0.75251532
-0.016278958 -0.014108419 0.75325203
-0.016324989 -0.015236616 0.75399286
-0.016371282 -0.01637128 0.75473785
-0.016417909 -0.017512441 0.7554884
-0.016464731 -0.018660039 0.75624192
-0.016511818 -0.019814193 0.75699985
-0.016559178 -0.020974904 0.75776207
-0.016606811 -0.02214238 0.75852865
-0.016654717 -0.023316622 0.75929976
-0.016702974 -0.024497688 0.7600764
-0.016751438 -0.025685519 0.76085645
-0.016800335 -0.026880533 0.76164341
-0.01684982 -0.028082997 0.76243985
-0.016899673 -0.029292762 0.76324224
-0.016949745 -0.030509531 0.76404822
-0.017000195 -0.031733692 0.76486009
-0.017050864 -0.032965004 0.76567566
-0.017101917 -0.034203798 0.76649725
-0.017153198 -0.035449892 0.7673226
-0.017204866 -0.036703676 0.7681542
-0.017256767 -0.037964821 0.7689895
-0.01730906 -0.039233893 0.7698313
-0.017361593 -0.040510356 0.77067673
-0.017414525 -0.041794837 0.77152866
-0.0174677 -0.043086976 0.77238452
-0.017521283 -0.044387192 0.77324688
-0.017575113 -0.045695245 0.77411324
-0.017629359 -0.047011584 0.77498633
-0.017683856 -0.04833585 0.77586341
-0.017738774 -0.04966855 0.77674741
-0.017793952 -0.051009297 0.77763546
-0.017849473 -0.052358449 0.77852911
-0.017905427 -0.053716242 0.77942961
-0.017961647 -0.055082381 0.78033447
-0.018018309 -0.056457341 0.78124642
-0.018075239 -0.057840794 0.78216279
