# .PCD v0.7 - Point Cloud Data file format
VERSION 0.7
FIELDS x y z
SIZE 4 4 4
TYPE F F F
COUNT 1 1 1
WIDTH 699
HEIGHT 1
VIEWPOINT 0 0 0 1 0 0 0
POINTS 699
DATA ascii
0.0025891869 -0.064729631 0.69960773
0.0034545376 -0.063477054 0.69974589
-0.00086619094 -0.065830499 0.7003631
-0.0095647927 -0.066083997 0.70116842
-0.0095647927 -0.066083997 0.70116842
-0.0017409229 -0.060061812 0.70139408
0.0026181708 -0.059345216 0.7019403
0.0026181708 -0.059345216 0.7019403
0.012240549 -0.066448659 0.70232677
-0.0026296468 -0.057852209 0.70286375
0.01231769 -0.06246829 0.70365703
-0.0061472864 -0.058398709 0.7032584
-0.0026354084 -0.057100505 0.70332742
0.003515668 -0.057129622 0.70343542
0.0017639815 -0.055565417 0.7041775
0.0061949668 -0.055754691 0.70490289
0.0017678769 -0.054804146 0.70464772
-0.013320684 -0.060387105 0.7056393
-0.013320684 -0.060387105 0.7056393
-0.0026587385 -0.054060996 0.70520484
-0.0026587385 -0.054060996 0.70520484
-0.017848112 -0.065591261 0.70669186
0.01245718 -0.058726698 0.70606244
-0.01885361 -0.065538704 0.70799208
-0.01885361 -0.065538704 0.70799208
0.010750537 -0.054648578 0.70753026
0.018858619 -0.065556139 0.7080496
0.01169895 -0.053995162 0.70850587
0.0071844421 -0.051189154 0.70805585
-0.0072001824 -0.050401241 0.70853078
0.004496458 -0.049461007 0.70835429
-0.0018036532 -0.047796756 0.70896631
0.019878451 -0.071381688 0.70938623
-0.020756753 -0.069489986 0.70912111
-0.020756753 -0.069489986 0.70912111
0.016253561 -0.058693379 0.70924371
0.013536671 -0.055049121 0.70911556
-0.01908219 -0.0617899 0.71061981
0.015439132 -0.055399239 0.71050119
-0.010910384 -0.049550802 0.71074611
-0.0090785101 -0.048569471 0.71042073
0.0072498149 -0.048029989 0.71002859
0.0081861392 -0.047297686 0.71083599
-0.017346175 -0.056603283 0.71165335
0.015512112 -0.053836137 0.7115376
0.013678495 -0.051521778 0.71139818
0.010923788 -0.049156994 0.71101576
0.0054620733 -0.045517266 0.71102297
-0.0036519065 -0.043822885 0.71165818
-0.022918506 -0.071505696 0.71256679
-0.015581444 -0.05224365 0.71252221
0.014653293 -0.051286519 0.71234727
-0.0091727469 -0.044946462 0.71269578
0.022062967 -0.066188872 0.71318245
-0.018388981 -0.056086361 0.71322072
0.010109816 -0.045034617 0.71313018
-0.0064373501 -0.042302579 0.71326244
-0.004599798 -0.041398168 0.71334398
-0.021251632 -0.061444327 0.71431553
0.020371703 -0.058337152 0.71479905
-0.014788635 -0.04806304 0.71438932
0.0074013448 -0.040707409 0.71460152
0.0036942654 -0.039713353 0.71421474
0.0036942654 -0.039713353 0.71421474
-0.003702603 -0.038877308 0.71471798
0.022327889 -0.075356632 0.71584737
0.015773004 -0.048246801 0.71524256
-0.015805654 -0.047416955 0.71570623
-0.013015405 -0.043694586 0.71568877
0.014898722 -0.045627296 0.71605039
0.00046659232 -0.035458565 0.71652126
0.0037374087 -0.035505354 0.71681869
0.019664874 -0.05243966 0.71731853
0.015006409 -0.043143392 0.71767533
-0.01313982 -0.040358007 0.71783423
-0.016966552 -0.04430151 0.71880651
0.011289044 -0.037630141 0.71836412
-0.0046970216 -0.033818513 0.71803838
0.0065901577 -0.033892214 0.71853256
0.0065901577 -0.033892214 0.71853256
-0.019854752 -0.049164116 0.71950144
0.018903859 -0.047259629 0.71943587
-0.015148212 -0.039764047 0.71981496
-0.018081425 -0.042824417 0.72099566
-0.016115038 -0.04076156 0.72009993
-0.016115038 -0.04076156 0.72009993
0.0095033441 -0.03231135 0.72067714
0.0037905818 -0.030324638 0.72002792
-0.0028478338 -0.029427588 0.72042209
0.00047433117 -0.029406324 0.72025651
0.0047532069 -0.029469848 0.72075123
-0.0028546033 -0.028546035 0.72096682
0.019048803 -0.044764638 0.72118551
0.017164303 -0.040526241 0.72145891
0.0066849971 -0.028649986 0.72180343
-0.016274318 -0.037335187 0.72236186
0.016281795 -0.037352353 0.72246808
0.011508937 -0.030690491 0.72278804
0.0086204996 -0.028735012 0.72248751
-0.006700113 -0.027757585 0.72232473
-0.0028682398 -0.026770234 0.72206426
0.005750522 -0.026835769 0.72262925
0.0019159307 -0.025865048 0.7225194
0.010576578 -0.028845191 0.72337449
0.0038459399 -0.021152645 0.72336912
-0.016396474 -0.034721941 0.72409672
-0.013528379 -0.029955655 0.72453463
-0.010626158 -0.027048409 0.72446257
0.0048337108 -0.023201823 0.72463834
-0.0048396583 -0.022262424 0.72492546
-0.0038615819 -0.019307852 0.72431314
0.0029033232 -0.016452163 0.72488749
0.022297712 -0.047503829 0.72529584
0.018463422 -0.035955101 0.72584951
-0.0097104227 -0.024276048 0.72567648
-0.00097010849 -0.013581544 0.72545099
0.00048512954 -0.013579696 0.7254197
-0.021453863 -0.041932523 0.72667432
-0.020457394 -0.039452881 0.72642952
0.018511092 -0.035073668 0.72645521
0.015573187 -0.030173004 0.7262274
0.010706691 -0.024333328 0.72623008
0.0097360071 -0.023366362 0.7262941
-0.0097431345 -0.022409171 0.72646618
0.0068222405 -0.020466715 0.72653675
-0.017615024 -0.031315595 0.72750407
-0.015683934 -0.027446866 0.72789836
-0.0097911805 -0.020561486 0.72762614
-0.0068379031 -0.019536853 0.72707695
-0.0048988494 -0.016656071 0.7277835
0.021657567 -0.039377391 0.72890973
0.020670041 -0.036418617 0.72887415
-0.018690802 -0.031479239 0.72873867
0.010822864 -0.019677937 0.72877979
-0.0039303317 -0.012773544 0.72846264
0.018789435 -0.084057987 0.72999203
-0.020696424 -0.081800103 0.72917742
-0.020733586 -0.080959707 0.72960472
0.017764496 -0.028620571 0.72950882
-0.015763549 -0.025615752 0.72909969
0.015822807 -0.023734212 0.72999382
0.010849874 -0.018740714 0.72937262
-0.010874526 -0.017794669 0.72991365
0.0078850975 -0.016755819 0.72919995
0.0039448952 -0.011834651 0.72934157
0.0039448952 -0.011834651 0.72934157
-0.016849097 -0.08028096 0.73052442
-0.016828163 -0.024747312 0.73022717
-0.016828163 -0.024747312 0.73022717
-0.013846599 -0.020769864 0.73002213
0.014892042 -0.02084884 0.73092991
-0.011890889 -0.017836303 0.73047233
-0.010901752 -0.016848147 0.73051113
-0.0079424223 -0.013899237 0.73092991
0.0079443138 -0.013902545 0.73098701
0.017878681 -0.07946077 0.73104024
-0.022921972 -0.038867682 0.73184842
-0.0079622651 -0.012938708 0.73152876
-0.0049859169 -0.0099718273 0.73198748
0.0039859219 -0.007971853 0.73181778
0.0029850774 -0.0059701204 0.73146653
-0.00099466182 -0.0039786398 0.73137873
-0.017003557 -0.021004379 0.73271799
0.0079842778 -0.011976391 0.73219299
-0.0059848418 -0.010972232 0.73205751
-0.0040015574 -0.0060023367 0.7327615
-0.015037106 -0.017042011 0.73326468
-0.015037106 -0.017042011 0.73326468
0.012016685 -0.01401943 0.73300314
0.013054862 -0.014059097 0.73368627
0.0090206377 -0.01102519 0.73322105
-0.014132659 -0.013123155 0.73495507
-0.0080630193 -0.0080630481 0.73456925
-0.01416925 -0.012145013 0.73558611
-0.01011635 -0.0080930889 0.73547643
0.0081066843 -0.0060799718 0.73588693
0.0020242603 0.0020242631 0.735596
0.0010128185 0.0030384362 0.73576218
0.015234897 -0.08328408 0.73644805
-0.011164417 -0.08221069 0.73627591
-0.022307206 -0.028390974 0.73603863
0.02131138 -0.025370687 0.73624712
-0.014243002 -0.010173559 0.73685789
-0.007117189 -0.0040669143 0.73670912
0.0010213444 -0.086814284 0.73782051
-0.014272603 -0.083596677 0.73736835
-0.024464129 -0.038734853 0.73733622
0.020421971 -0.020421952 0.73776108
0.020421971 -0.020421952 0.73776108
0.017333349 -0.014274508 0.73740143
-0.0071353996 -0.0030580163 0.73733723
0.0081692887 -0.0030634701 0.73777628
0.0010180735 0.0050903857 0.7370308
-0.023550244 -0.030717701 0.73844314
-0.003076972 0.0061539412 0.73886168
0.0051482529 -0.087520301 0.73982579
0.0072099874 -0.086519837 0.73990971
-0.02368986 -0.027809799 0.73990864
0.012330586 -0.0041101873 0.73931837
-0.011298118 -0.0030813217 0.73921037
0.008211554 -0.0010264218 0.73905164
-0.008230024 5.9604645e-08 0.73960906
-0.0071905968 -0 0.73924094
-0.0020551146 0.008220464 0.7393204
-0.0051626801 -0.086733013 0.74052238
0.0020633009 -0.083563715 0.74030864
0.0010343888 -0.081716716 0.74096972
0.011367609 -0.081640065 0.74073553
-0.019623287 -0.013426423 0.74058717
0.013434224 -0.0031002164 0.74073136
0.0072296024 0.0020656288 0.74058616
0.0062041273 0.0031020641 0.74088097
0 0.010307312 0.74008697
0.0082798358 -0.083833307 0.74111223
-0.0051953369 -0.084164411 0.74209917
-0.0072881524 -0.082251966 0.74260545
-0.021837646 -0.01663819 0.74229723
0.020831354 -0.013540387 0.74270284
0.018703135 -0.0093515515 0.74209809
0.0083192075 0.0041595995 0.74230039
-0.0083380267 0.0052112639 0.7428683
0 0.01458326 0.74272478
0.0062663117 -0.081462085 0.74338305
0.0073012481 -0.081356734 0.74305713
0.011483157 0.003131777 0.74327153
0.0062692952 0.0073142052 0.74350309
-0.0073420829 0.0083909631 0.74446547
-0.026373871 -0.027428806 0.74593472
-0.022098048 -0.012627423 0.74529094
0.016864698 2.9802322e-08 0.74571478
0.0094762119 0.0084232688 0.74544168
0.0094762119 0.0084232688 0.74544168
-0.0052662026 0.011585653 0.74552089
0.013724308 0.0052785873 0.74611849
0.013724308 0.0052785873 0.74611849
0.0042282525 0.01479888 0.74644369
0.0010564383 0.020072311 0.74629289
0.027621824 -0.026559442 0.7477268
0.022280227 -0.010609597 0.74738526
-0.015943997 0.0053147078 0.74786079
-0.011661545 0.0095412731 0.7471866
-0.010633126 0.011696428 0.74795252
0.009552558 0.011675358 0.74748963
0 0.022288352 0.74747872
-0.027665764 -0.02553758 0.74813479
-0.02664737 -0.023449659 0.74857587
-0.02664737 -0.023449659 0.74857587
-0.019210087 0.001067251 0.74889755
0.0053266827 0.015980065 0.7484411
0.024645787 -0.018216431 0.7499426
-0.017083431 0.0053385794 0.74901521
0.0085431738 0.014950544 0.7490592
-0.025773419 -0.019330025 0.75050664
0.023590295 -0.011795133 0.75011891
0.022559682 -0.0064456463 0.75059795
-0.019320777 0.0032201409 0.75038207
0.01395114 0.011804789 0.75033098
-0.0085859438 0.017171919 0.75034988
0.0085894438 0.017178893 0.7504555
0.0032155768 0.023580909 0.75001574
0.0053846482 0.020461649 0.7512399
0.0053846482 0.020461649 0.7512399
-0.0053956807 0.021582752 0.75177264
0.027087415 -0.017335922 0.75282532
-0.025979279 -0.01623702 0.75257742
-0.023827432 -0.0075814724 0.75272119
-0.016210677 0.011887848 0.75215304
-0.013004494 0.017339319 0.75287634
-0.0043268846 0.024879605 0.75239664
-0.0021627597 0.029197276 0.75231433
-0.0021627597 0.029197276 0.75231433
0.022778684 -0.0032540858 0.75311565
0.020636037 0.0043444335 0.75345558
0.013014021 0.017352045 0.75306797
0.013014021 0.017352045 0.75306797
-0.026184911 -0.013092458 0.75464594
0.018531241 0.010900736 0.75441301
-0.0076440331 0.025116116 0.75487936
0.028453352 -0.016415387 0.75544792
-0.019718571 0.010954767 0.75571746
-0.0054703625 0.027351826 0.7553786
0.004372485 0.028421164 0.75514895
-0.0032839698 0.032839745 0.75551957
-0.0032839698 0.032839745 0.75551957
-0.021940459 0.0054851472 0.75609088
-0.015365868 0.019756138 0.75622106
0.014306782 0.022010446 0.75693554
-0.0087756831 0.026327074 0.75607574
0.0098982062 0.026395202 0.75676155
-0.001097432 0.036215276 0.75618964
0.027545393 -0.011018127 0.75724792
-0.012118638 0.025338978 0.75721866
-0.012118638 0.025338978 0.75721866
0.0077315737 0.029821813 0.75789857
0.0077315737 0.029821813 0.75789857
0.027703516 -0.008865118 0.75877488
-0.013260097 0.025415182 0.75801873
-0.0099472702 0.028736562 0.75807762
-0.0099751214 0.029925346 0.75882471
-0.02774333 -0.0077681243 0.75915945
0.025509268 -0.0055454969 0.7590062
0.016697623 0.023376703 0.75999027
0.013309242 0.026618481 0.75900745
-0.02675155 -0.0044585764 0.76034594
-0.021229386 0.015642703 0.76099491
0.020047942 0.016706645 0.76013505
0.0089277644 0.033479095 0.76066524
0.0011165432 0.043545187 0.76080346
0.0145541 0.029108256 0.76152849
0.010066275 0.033554286 0.76126987
0.024751522 0.0022501349 0.76286185
-0.016922459 0.02933225 0.76360899
0.01578554 0.030443549 0.76345801
-0.011269392 0.036062062 0.76331335
-0.027118983 0.0011299849 0.76404202
-0.011301617 0.037295371 0.76409131
0.011309792 0.037322342 0.7642886
0.011309792 0.037322342 0.7642886
0.017045908 0.031819046 0.76559585
-0.013645032 0.037523866 0.76576293
0.011342403 0.038564175 0.76507598
0.0056778169 0.043151408 0.7653954
-0.0011354862 0.051096886 0.76537669
0.028495925 0.0011398792 0.76642704
0.022805572 0.018244475 0.76653373
-0.021628425 0.022766769 0.76606518
-0.019400917 0.029672027 0.76676345
0.0091333436 0.04338342 0.76686907
-0.026342388 0.0080172718 0.7677511
-0.0080408445 0.047096372 0.76856488
0.027626831 0.0080578625 0.76915056
-0.026489487 0.010365456 0.76929522
-0.025381353 0.012690663 0.76977336
0.01845389 0.035754412 0.76969385
-0.0092080971 0.04719153 0.76912498
-0.0092080971 0.04719153 0.76912498
0.0092128869 0.047216058 0.76926959
-0.0069209747 0.049600333 0.76972473
-0.015012334 0.042727441 0.77003819
-0.015012334 0.042727441 0.77003819
0.010420186 0.048627555 0.7707634
0 0.058900535 0.77006656
0.00581099 0.053461134 0.77182555
-0.0011589248 0.060264111 0.77103531
-0.019826073 0.038485914 0.77280128
-0.008158505 0.053613096 0.77262282
-0.0034998117 0.060663402 0.77288926
0.018682651 0.040868342 0.7731455
-0.014011858 0.04904151 0.77314293
0.01167922 0.051388592 0.77320743
-0.0011692701 0.064309895 0.77353287
0.017569354 0.044509083 0.77402055
0.017569354 0.044509083 0.77402055
0.010543784 0.053890467 0.77407879
-0.0070433719 0.057520866 0.7746495
0.027045913 0.018814564 0.7751357
-0.011772815 0.055332273 0.77546704
0.0023529797 0.065883458 0.77527595
-0.025984075 0.022440821 0.77638751
0.010638387 0.057920128 0.77661651
-0.0082799336 0.060325235 0.77681088
0.026084315 0.023713022 0.77748752
0.022509333 0.036725789 0.7772584
0.020190507 0.045131773 0.77797663
0.013044754 0.056922585 0.7775445
0.011855214 0.058090538 0.77745628
0.0011874853 0.071249127 0.77793038
0.027374269 0.023803771 0.77858233
0.027374269 0.023803771 0.77858233
-0.011915404 0.060768574 0.77890944
0.0059504188 0.064264536 0.77855778
-0.0035636735 0.068897694 0.77802843
0.02623613 0.026236147 0.77915347
0.020323265 0.047819465 0.77986205
-0.016742166 0.056205869 0.77995443
0.0059682759 0.065651029 0.77941996
-0.021583004 0.046763182 0.78072381
-0.0024084081 0.077069074 0.78196669
-0.028956925 0.026543856 0.78253037
-0.025352839 0.033803791 0.78270882
-0.020533437 0.053145379 0.78284669
0.02780268 0.03022033 0.78307915
0.02780268 0.03022033 0.78307915
-0.026673 0.033947468 0.78394759
0.018131306 0.058020175 0.78306514
0.0060591968 0.072710395 0.78381002
-0.025513262 0.036447525 0.78455305
-0.010924175 0.070400298 0.78428274
-0.0072793579 0.072793603 0.78414488
0.0048629278 0.075375408 0.78474981
0.0012131734 0.081282616 0.784132
0.015837455 0.065786332 0.78536147
0.0012169384 0.08275184 0.78504097
0.011001356 0.073342383 0.78635299
-0.026991244 0.03926 0.78743982
-0.013519756 0.073744148 0.78796953
-0.013519756 0.073744148 0.78796953
-0.0061300155 0.07846421 0.78722948
-0.0024536052 0.085876197 0.78742248
-0.014761372 0.072576761 0.78822196
-0.0012315676 0.088672936 0.78857279
0.02838628 0.038259774 0.78920501
-0.025908578 0.043181002 0.78909773
-0.022261806 0.059364855 0.78982806
0.012339001 0.076501787 0.78913593
-0.011129142 0.079140574 0.78978086
-0.027234994 0.043328375 0.7901147
-0.018627938 0.070786178 0.79105824
0.0049709538 0.085748971 0.79126966
-0.01744887 0.074780911 0.79214108
0.014972733 0.078606904 0.79247427
-0.014997342 0.079985857 0.79296935
0.020003451 0.070012063 0.79307485
0.026335863 0.050163567 0.79400992
0.028112918 0.056225836 0.79974884
-0.02679359 0.058690757 0.79927206
0.028218281 0.057719201 0.80090499
0.026996668 0.061706692 0.80160671
-0.028717397 0.06657216 0.80638206
0.026109448 0.070495546 0.80641496
0.026109448 0.070495546 0.80641496
-0.0030220817 -0.063461736 0.69969553
-0.0091436673 -0.063131973 0.70147401
-0.0091436673 -0.063131973 0.70147401
0.0030404944 -0.061023623 0.70096457
0.0071889451 -0.061647378 0.70160699
0.012518235 -0.063246891 0.70332098
-0.003205522 -0.058866888 0.70231283
0.016867239 -0.065693468 0.70556778
-0.012831625 -0.061056785 0.70487994
0.0030959425 -0.05483906 0.70478863
0.0084444694 -0.055556521 0.70584726
-0.0044464152 -0.053356946 0.70593798
-0.0092564905 -0.054865904 0.70662665
-0.0046996931 -0.051136512 0.70736384
0.00098273589 -0.051015653 0.7069484
-0.0063351886 -0.047966421 0.70973897
-0.0049732062 -0.047697879 0.7095468
0.020992752 -0.065259457 0.71159822
0.011041718 -0.04917261 0.71108913
0.0051414124 -0.046575211 0.71029174
-0.0013696242 -0.043369606 0.71167713
0.0045684343 -0.043856978 0.71182966
0.022925146 -0.071068108 0.71263087
-0.022994678 -0.0694433 0.71330237
-0.022048788 -0.066146344 0.71303976
-0.021062028 -0.064101785 0.71232539
0.019253092 -0.059133947 0.71258456
0.018439742 -0.05531922 0.71383345
-0.016600048 -0.051644593 0.71389091
0.013297976 -0.049062058 0.71264356
-0.010640969 -0.043024033 0.71462363
0.0092374366 -0.042492181 0.7142576
-0.0068045277 -0.039278693 0.71525383
-0.017418746 -0.048832804 0.71651936
-0.014509914 -0.043060735 0.71724337
0.001396731 -0.036313668 0.71603835
0.007523682 -0.034797013 0.71829331
-0.021875016 -0.052784696 0.72085893
0.020877972 -0.050770789 0.72035468
0.020021746 -0.046717376 0.72142124
0.012857362 -0.034760073 0.72116309
-0.010498104 -0.031494319 0.72165215
-0.018287888 -0.038981438 0.7236191
-0.005424283 -0.027121266 0.72234321
0.0009622022 -0.016993061 0.72346687
0.011593604 -0.028017849 0.72449142
0.0068055647 -0.021388918 0.72596163
0.0068055647 -0.021388918 0.72596163
-0.0019288037 -0.016394824 0.72407335
-0.0019288037 -0.016394824 0.72407335
-0.0029125097 -0.015047342 0.72562683
0.020517737 -0.038835317 0.72712326
0.020517737 -0.038835317 0.72712326
0.018607175 -0.033297062 0.72767615
-0.020659475 -0.082637906 0.72875273
-0.020659475 -0.082637906 0.72875273
-0.0094983783 -0.018996179 0.72846162
0.011343572 -0.0192331 0.72937077
0.0054195304 -0.015270762 0.72910661
-0.0029566074 -0.0093619525 0.72917557
-0.0029566074 -0.0093619525 0.72917557
0.019356418 -0.079412252 0.73089385
0.019356418 -0.079412252 0.73089385
0.0029850774 -0.0059701204 0.73146653
-0.020555884 -0.028577209 0.73331165
0.019972567 -0.028960198 0.73233634
0.019972567 -0.028960198 0.73233634
-0.018088887 -0.02110368 0.7338596
0.017014999 -0.021016758 0.73288047
-0.013988166 -0.016985595 0.73246342
-0.013988166 -0.016985595 0.73246342
0.01198617 -0.01498273 0.73238927
-0.02022812 -0.023262322 0.73542112
0.010447821 -0.0087621715 0.73533726
-0.0010074107 0.0010073781 0.7344566
-0.0010074107 0.0010073781 0.7344566
-0.002023319 0.0020233393 0.73548234
0.013284584 -0.083795041 0.73795241
-0.016284321 -0.080912203 0.73695755
-0.0086520538 -0.0045795888 0.73697293
0.006664189 -0.088688761 0.73877788
-0.0041195522 -0.087540478 0.73988307
-0.0020585284 -0.08285518 0.7397325
0.011320752 -0.083361864 0.73970711
0.016751669 -0.010939281 0.73883963
0.0087330341 -0.0010273457 0.73927319
0.004658517 -0.085141443 0.74115896
0.021715432 -0.019129515 0.74089229
-0.018683657 -0.009341836 0.74183691
0.014516916 -0.0031107664 0.74158144
-0.0113571 -0.0010324717 0.74050486
0.004142384 0.0067320764 0.74126112
-0.0030973135 0.0087764263 0.7404986
-0.0067642112 -0.082734764 0.74249238
-0.011111001 0.0027780533 0.74271888
0.0088594165 0.0046907291 0.74286216
0.02410529 -0.024105281 0.74426925
-0.022065196 -0.013133228 0.74491322
0.015399399 0.00070014596 0.74471873
-0.0031472393 0.015212357 0.74451643
-0.0031472393 0.015212357 0.74451643
0.002798514 0.015388618 0.74454796
0.002798514 0.015388618 0.74454796
0.024388501 -0.021207392 0.74724203
-0.020097021 -0.0047590584 0.74660665
0.019046087 -0.002644524 0.7466979
-0.019102441 -0.0010612309 0.74745375
-0.013410944 0.0070584519 0.74684525
0.022489188 -0.0074963868 0.74978757
-0.015445075 0.0069231391 0.74839687
0.011356877 0.01135693 0.74828243
0.011356877 0.01135693 0.74828243
-0.0046245297 0.018493464 0.7488271
-0.013246816 0.013246655 0.7505399
-0.01401837 0.014018357 0.75157952
0.0069899252 0.018818699 0.75084943
0.0043112258 0.02263394 0.75145167
0.025961407 -0.016765997 0.75239766
-0.020628113 0.0048864633 0.75335491
0.024119804 -0.0054817498 0.75592953
0.016411303 0.016411304 0.75538206
-0.012759957 0.021509301 0.75528324
-0.0076231365 0.023958474 0.75415862
0.012059215 0.023022115 0.75591451
0.010963066 0.024118781 0.75591797
0.010963066 0.024118781 0.75591797
-0.0032702326 0.031067997 0.75441408
-0.0187761 0.016567171 0.75789034
0.0047756238 0.031221032 0.75727105
-0.026679162 -0.0055581331 0.75961775
-0.017178517 0.021055847 0.75878966
-0.0071915444 0.030977145 0.75833678
0.0088778269 0.031072438 0.75915819
0 0.042271882 0.75980747
0.026845923 -0.0033557415 0.76129526
0.018999849 0.020677179 0.76106781
0.018999849 0.020677179 0.76106781
-0.0044777039 0.039179951 0.7614994
-0.025363185 0.0028167963 0.76337588
0.015739502 0.029230505 0.76266408
0.010487849 0.035208672 0.76252359
-0.02612531 0.0045435727 0.76547253
-0.0022756821 0.051202863 0.76594526
0.026365081 0.0080241561 0.76798928
0.024033701 0.013733536 0.76754373
-0.008586376 0.045223176 0.76764548
0.0030450523 0.050989501 0.76684141
-0.002669811 0.053000689 0.76740682
-0.002669811 0.053000689 0.76740682
0.023006447 0.021282002 0.76895851
-0.021875378 0.027057335 0.76920313
-0.021875378 0.027057335 0.76920313
-0.02076254 0.031143844 0.76971948
-0.02076254 0.031143844 0.76971948
-0.0069109835 0.048953652 0.76932269
-0.025534786 0.015088737 0.7714572
-0.008674657 0.049731314 0.77046001
-0.0011606397 0.060934454 0.77144933
-0.0011606397 0.060934454 0.77144933
0.01633535 0.044923097 0.77293915
0.010512622 0.052563131 0.77324295
0.024701526 0.022349 0.77522117
0.019930691 0.039861381 0.77428693
-0.011170126 0.0552589 0.77509022
0.020190507 0.045131773 0.77797663
0.0047450988 0.06405887 0.7776382
-0.0011869275 0.071215659 0.77779573
0.0023743957 0.070044696 0.77786106
-0.026772622 0.024986893 0.77850175
-0.017476529 0.053220987 0.77890265
-0.017476529 0.053220987 0.77890265
-0.01111215 0.061115474 0.77867091
-0.0071594538 0.065032616 0.7793203
0.0055594048 0.065119676 0.77882874
-0.0023864338 0.072786242 0.77931416
-0.022733031 0.041876674 0.78010076
0.0089804754 0.065260157 0.78033102
-0.027365934 0.030987462 0.78271198
0.015688634 0.061547726 0.78259778
0.01328647 0.065224499 0.78284949
-0.0060553253 0.072663933 0.7836231
0.0048404178 0.073212266 0.78339112
-0.0024195593 0.079241514 0.78331274
-0.018210052 0.060700178 0.78433251
0.017092094 0.064705789 0.78598869
-0.015220294 0.066963404 0.78518045
-0.020879705 0.06018272 0.78776419
0.013452609 0.070931941 0.78649592
-0.011059934 0.07619068 0.78792435
-0.0028622064 0.085021332 0.78729308
-0.025986752 0.04454872 0.78999645
-0.025986752 0.04454872 0.78999645
0.015989127 0.070106179 0.78817815
0.011087574 0.076998025 0.78866577
0.011087574 0.076998025 0.78866577
0.016759314 0.073236853 0.790923
-0.009326458 0.083310172 0.79143786
-0.014973444 0.079235494 0.79248857
-0.014973444 0.079235494 0.79248857
0.0062300013 0.085974038 0.79205716
0.017657259 0.07945767 0.79573464
0.020211926 0.074531496 0.79622048
0.028112918 0.056225836 0.79974884
0.028112918 0.056225836 0.79974884
0.024229476 0.063125685 0.79911518
-0.02168441 0.076533228 0.79919195
-0.028299386 0.060457796 0.80179501
0.023138575 0.073272169 0.80158758
0.021940129 0.080016971 0.80282354
-0.0021581911 -0.063440487 0.69962573
0.010190319 -0.06625241 0.70209718
0.010190319 -0.06625241 0.70209718
-0.012517852 -0.063244976 0.7033146
-0.012517852 -0.063244976 0.7033146
-0.0098714978 -0.062257838 0.70238531
0.020042036 -0.063314036 0.71118134
0.013921829 -0.054164089 0.71000785
0.019091073 -0.057534866 0.71335888
0.0054873796 -0.038505584 0.71538246
0.015632881 -0.045904808 0.71656257
-0.014173823 -0.041997753 0.71765774
-0.0022852039 -0.030808816 0.71952319
0.0199684 -0.07607007 0.72080791
0.0199684 -0.07607007 0.72080791
-0.021634249 -0.050076481 0.72207904
0.019242667 -0.046086073 0.72065592
-0.020498544 -0.038799018 0.7269026
-0.015449786 -0.032830775 0.72436535
-0.014700355 -0.029589219 0.72573102
-0.0088182399 -0.0195961 0.72779185
0.0032306365 -0.017230794 0.72506785
-0.016350348 -0.085777014 0.73416376
0.018127521 -0.022202132 0.73345608
-0.0064104623 -0.009544014 0.73304242
0.023396853 -0.033821359 0.73683304
-0.019154772 -0.017394513 0.73750591
0.016603999 -0.010097971 0.73919624
0.0015912357 0.0056775338 0.73786682
0.0012849401 0.0084776804 0.73932338
0.022814844 -0.021946898 0.74160928
0.0059384322 0.002839908 0.74054694
0.0098849274 0.0019331299 0.74167126
0.02135976 -0.010018744 0.74588442
0.018093087 -0.0016532949 0.74614513
0.010560846 0.0063597821 0.74477148
-0.0031472393 0.015212357 0.74451643
0.0042516422 0.017006606 0.74785542
-0.021035369 -0.0017410442 0.74999696
-0.0061226855 0.015438966 0.74830192
0.028094016 -0.020530224 0.75211132
0.021772359 0.0016300157 0.75402331
-0.014800802 0.014800499 0.7526924
-0.010126283 0.024355296 0.75550961
0.01975031 0.01097244 0.75614309
0.013554384 0.02573962 0.75868672
0.002932915 0.034819555 0.75670326
0.0095826928 0.037390709 0.76341164
0.028307367 -0.0011322498 0.76460624
-0.028453518 0.0017118305 0.76601756
0.015831849 0.031663686 0.76425654
-0.0056046783 0.045488313 0.76635522
0.025465634 0.014177307 0.77066648
0.0091167018 0.049481634 0.77067238
-0.011258867 0.05085814 0.7724247
-0.020618822 0.045597132 0.77841115
-0.014613512 0.054892801 0.77726179
-0.002296071 0.069928482 0.77770233
-0.024103776 0.039169833 0.78220439
0.017469257 0.057676189 0.78208721
0.017469257 0.057676189 0.78208721
0.0096101929 0.069482833 0.78325766
-0.00491584 0.081111372 0.78794336
-0.022704458 0.058196735 0.79019606
0.0033932682 0.086054809 0.78910249
-0.013721287 0.085541666 0.79544365
-0.029175444 0.049471408 0.79748851
0.02546641 0.065591738 0.80251014
-0.028505307 0.063489109 0.80405474
