# .PCD v0.7 - Point Cloud Data file format
VERSION 0.7
FIELDS x y z
SIZE 4 4 4
TYPE F F F
COUNT 1 1 1
WIDTH 1347
HEIGHT 1
VIEWPOINT 0 0 0 1 0 0 0
POINTS 1347
DATA ascii
-0.0099444203 -0.02841261 0.71151018
-0.0099647501 -0.029894233 0.71186078
-0.0099988729 -0.031425029 0.71244919
-0.01003559 -0.032974064 0.71308231
-0.010074122 -0.034539849 0.71374673
-0.010115515 -0.036126792 0.71446055
-0.010159753 -0.037736207 0.71522343
-0.010207207 -0.039370626 0.71604174
-0.010258523 -0.041034043 0.71692663
-0.010313768 -0.042728454 0.7178793
-0.010373944 -0.04445973 0.71891701
-0.010441279 -0.046239942 0.72007817
-0.010515445 -0.04807058 0.72135711
-0.010600503 -0.049973786 0.72282386
-0.010702325 -0.051982701 0.72457975
-0.010829022 -0.054145098 0.72676456
-0.011054886 -0.056853712 0.73065948
-0.0081214504 0.035192937 0.70341575
-0.0081179086 0.033824593 0.70334446
-0.0081411432 0.03256458 0.70381188
-0.0081651201 0.031299621 0.70429432
-0.0081892395 0.030027211 0.70477951
-0.0082102343 0.028735787 0.70520192
-0.0082226368 0.027408808 0.70545143
-0.008230947 0.026064664 0.70561862
-0.0082506537 0.024751991 0.70601511
-0.0083055124 0.023532301 0.70711881
-0.008337032 0.022232115 0.70775288
-0.0083621787 0.020905465 0.70825881
-0.0083874436 0.019570738 0.70876706
-0.0084128957 0.018227965 0.70927918
-0.008434508 0.016869038 0.70971394
-0.0084251007 0.015446037 0.70952469
-0.0083113071 0.013852179 0.7072354
-0.008044268 0.012066394 0.70186287
-0.008029242 0.01070568 0.70156062
-0.0080250083 0.0093625486 0.70147544
-0.0085139722 0.0085139871 0.71131265
-0.00847538 0.0070628226 0.71053624
-0.0084141176 0.0056094527 0.70930374
-0.0083537679 0.0041769147 0.70808959
-0.0082942452 0.0027647316 0.70689213
-0.0082355961 0.0013726056 0.7057122
-0.0081765847 -0 0.70452493
-0.0080935154 -0.0013489425 0.70285368
-0.0079832468 -0.0026610792 0.70063525
-0.0078961961 -0.0039480627 0.69888395
-0.0079030208 -0.0052686632 0.69902128
-0.0079114186 -0.0065928102 0.69919014
-0.008249511 -0.0082494617 0.7059921
-0.008261214 -0.0096380413 0.70622754
-0.0082745263 -0.011032701 0.7064954
-0.0082933875 -0.012440056 0.70687479
-0.008393826 -0.013989717 0.7088955
-0.0085400948 -0.015656829 0.71183825
-0.0085874423 -0.01717487 0.71279079
-0.0086125592 -0.018660545 0.71329612
-0.0085599758 -0.019973278 0.71223819
-0.0084621701 -0.021155387 0.71027052
-0.0084232967 -0.02246213 0.70948839
-0.0084473584 -0.023934186 0.7099725
-0.008473279 -0.025419801 0.71049392
-0.0085011274 -0.026920229 0.71105421
-0.0085301008 -0.028433681 0.71163708
-0.0085614175 -0.029964954 0.71226716
-0.0088779796 -0.0325526 0.71863592
-0.0087407455 -0.033506185 0.71587503
-0.0086672334 -0.034668922 0.714396
-0.0087075969 -0.036281645 0.71520805
-0.008751275 -0.037922174 0.71608686
-0.0087983627 -0.039592624 0.71703422
-0.0088496404 -0.0412983 0.71806574
-0.0089068059 -0.043049544 0.71921587
-0.0089699598 -0.044849783 0.7204864
-0.0090423618 -0.046718866 0.72194302
-0.0091293948 -0.04869011 0.72369397
-0.0092368647 -0.050802737 0.72585613
-0.009429289 -0.053432614 0.72972745
-0.0067829355 0.039341062 0.70377928
-0.00672676 0.037669897 0.70242316
-0.0067368546 0.036379039 0.70266682
-0.0067565567 0.035134107 0.70314246
-0.0067763748 0.033881873 0.70362091
-0.0067963088 0.032622308 0.70410216
-0.0068163876 0.031355381 0.70458692
-0.0068365582 0.030080885 0.70507383
-0.0068426975 0.028739333 0.70522207
-0.006825841 0.027303368 0.70481515
-0.0068061599 0.025863439 0.70433998
-0.0067687975 0.02436769 0.70343804
-0.0069222534 0.023535669 0.70714271
-0.0069600237 0.02227208 0.7080546
-0.006981167 0.020943493 0.708565
-0.0070022973 0.019606441 0.70907515
-0.007023585 0.018261343 0.70958912
-0.0070427754 0.016902685 0.71005237
-0.0070446315 0.015498191 0.71009719
-0.0070048948 0.014009774 0.70913786
-0.0067907302 0.012223333 0.70396751
-0.0066535971 0.010645777 0.70065677
-0.0066529857 0.0093141794 0.70064205
-0.0066611995 0.0079934597 0.70084035
-0.0069179535 0.0069179833 0.70703888
-0.0068689939 0.0054952204 0.70585692
-0.0068206959 0.0040924549 0.70469093
-0.0067730988 0.0027092695 0.70354187
-0.0067261611 0.0013452768 0.70240861
-0.0066798441 -0 0.70129049
-0.006634186 -0.0013268292 0.70018816
-0.0065838792 -0.0026335418 0.69897366
-0.0065616737 -0.0039369762 0.69843757
-0.0065716016 -0.0052572787 0.6986773
-0.0065823076 -0.0065822899 0.69893575
-0.0068639736 -0.0082367659 0.70573568
-0.0068756542 -0.0096259117 0.70601767
-0.0068878392 -0.011020541 0.70631194
-0.0069018216 -0.012423277 0.70664948
-0.0069168243 -0.013833672 0.7070117
-0.0069325287 -0.015251547 0.70739079
-0.0069500282 -0.016680032 0.70781326
-0.0069718659 -0.018126816 0.70834041
-0.0070335371 -0.019693881 0.70982933
-0.0070113405 -0.021034032 0.70929348
-0.0070280745 -0.022489786 0.70969748
-0.0070511503 -0.023973912 0.71025461
-0.0070752134 -0.025470734 0.71083552
-0.0071010669 -0.026984066 0.7114597
-0.0074009644 -0.029603869 0.71869987
-0.007433835 -0.031222075 0.71949339
-0.0074054752 -0.032584071 0.71880871
-0.0073152063 -0.033649951 0.71662951
-0.0072583314 -0.034839988 0.71525639
-0.007297324 -0.036486596 0.71619773
-0.0073397439 -0.038166642 0.71722186
-0.0073869922 -0.039889723 0.71836251
-0.0074392464 -0.041659772 0.71962404
-0.0074991332 -0.04349497 0.72106987
-0.0075720516 -0.04543227 0.72283018
-0.0076602241 -0.047493368 0.72495896
-0.0078195445 -0.050045073 0.7288053
-0.0053811581 0.041703999 0.70241559
-0.0053550145 0.040162623 0.7016266
-0.0053675883 0.038915038 0.70200604
-0.0053832214 0.037682533 0.70247787
-0.0053989673 0.036443055 0.70295298
-0.0054147849 0.035196096 0.70343035
-0.0054306951 0.033941835 0.70391047
-0.005446699 0.032680243 0.70439339
-0.0054627978 0.031411082 0.70487928
-0.0054789917 0.030134439 0.70536792
-0.0054845265 0.028793782 0.70553499
-0.0054599005 0.027299523 0.70479184
-0.0053601358 0.02546066 0.70178115
-0.0053434647 0.024045587 0.70127809
-0.0053386618 0.022689313 0.70113313
-0.0055759712 0.022303909 0.70829463
-0.0055949152 0.020980954 0.70886624
-0.0056091179 0.019631922 0.70929486
-0.0056191413 0.018262208 0.70959735
-0.005624576 0.016873717 0.70976138
-0.0056235064 0.015464664 0.70972908
-0.0055860332 0.0139651 0.70859826
-0.0054834881 0.012337893 0.70550358
-0.005328449 0.010656923 0.70082486
-0.0052860337 0.0092505813 0.69954491
-0.0052718781 0.0079078376 0.69911778
-0.0053958651 0.0067448616 0.7028594
-0.0053855157 0.0053855181 0.70254707
-0.0053483997 0.004011333 0.70142698
-0.0053118113 0.0026559234 0.70032287
-0.0052757203 0.0013189614 0.69923371
-0.0052400967 -0 0.69815868
-0.0052248104 -0.001306206 0.6976974
-0.0052328361 -0.0026164055 0.69793952
-0.005241361 -0.0039310157 0.69819683
-0.0052500726 -0.0052500665 0.69845974
-0.0052594496 -0.0065743029 0.69874269
-0.0056496109 -0.0084743798 0.71051687
-0.0056603323 -0.0099056065 0.7108404
-0.0056696609 -0.011339307 0.71112192
-0.0055352882 -0.012454391 0.70706683
-0.0055355532 -0.013838887 0.70707482
-0.0055480595 -0.01525715 0.7074523
-0.0055633383 -0.016689986 0.70791328
-0.0055791494 -0.01813224 0.70839047
-0.0055963122 -0.0195871 0.70890844
-0.0056146467 -0.021054894 0.70946169
-0.0056338324 -0.022535324 0.71004069
-0.0056542992 -0.024030745 0.71065831
-0.0056760283 -0.02554211 0.71131408
-0.0056993025 -0.027071655 0.7120164
-0.0058642887 -0.029321432 0.7169953
-0.0059111021 -0.031033278 0.71840805
-0.0058772829 -0.032325059 0.7173875
-0.0058299494 -0.033522189 0.71595901
-0.0058440939 -0.035064548 0.7163859
-0.0058815605 -0.036759704 0.71751654
-0.0059230928 -0.03850013 0.71876991
-0.0059706485 -0.040301859 0.72020495
-0.0060292608 -0.042204797 0.72197384
-0.0060987081 -0.04421562 0.7240696
-0.0062253471 -0.046690077 0.72789115
-0.0040046885 0.044051588 0.70116097
-0.0039983909 0.042649508 0.70090759
-0.0040094173 0.041430682 0.70135123
-0.0040210481 0.040210485 0.70181924
-0.004032746 0.038983226 0.70228994
-0.0040445128 0.037748814 0.70276332
-0.004056348 0.036507159 0.70323956
-0.0040682685 0.035258323 0.70371926
-0.0040802434 0.034002036 0.70420104
-0.0040922887 0.032738298 0.70468581
-0.0041043898 0.031467021 0.70517266
-0.0041165785 0.030188262 0.70566308
-0.0041261762 0.028883278 0.70604926
-0.0041202395 0.027468264 0.70581043
-0.0040147915 0.025427043 0.70156747
-0.0039695678 0.02381745 0.69974786
-0.0039636507 0.022460699 0.69950974
-0.0041829515 0.022309095 0.70833373
-0.0041948184 0.020974129 0.70881122
-0.004198079 0.019591033 0.70894241
-0.0041967607 0.018186003 0.70888937
-0.0041861096 0.016744465 0.70846081
-0.0041580903 0.015246361 0.70733333
-0.0041281208 0.013760388 0.70612752
-0.0040828963 0.012248695 0.70430779
-0.0040148529 0.010706276 0.70156997
-0.0039239922 0.0091559887 0.697914
-0.0038974369 0.007794857 0.69684553
-0.0038914424 0.0064857304 0.69660431
-0.0038922562 0.0051896572 0.69663703
-0.0039315694 0.003931582 0.69821888
-0.0039069466 0.0026046634 0.69722813
-0.0039002076 0.0013000667 0.69695699
-0.003906507 -0 0.69721049
-0.0039128712 -0.0013042688 0.69746649
-0.0039192559 -0.0026128292 0.69772345
-0.0039263717 -0.0039263368 0.69800973
-0.0040148222 -0.0053530931 0.70156878
-0.0040342133 -0.0067236722 0.70234895
-0.0042356928 -0.0084713399 0.71045589
-0.0042462177 -0.0099078119 0.71087939
-0.0042529223 -0.011341125 0.71114916
-0.0042407932 -0.012722343 0.71066105
-0.0041976566 -0.01399219 0.70892549
-0.0041650017 -0.015271664 0.70761144
-0.0041777878 -0.016711146 0.70812595
-0.0041914452 -0.018162936 0.7086755
-0.0042058197 -0.019627124 0.70925391
-0.0042210454 -0.02110523 0.70986652
-0.0042372597 -0.022598714 0.71051896
-0.0042550922 -0.024112195 0.71123642
-0.0042735836 -0.025641501 0.71198046
-0.0042929612 -0.027188748 0.71276021
-0.0043152999 -0.028768629 0.71365905
-0.0043384326 -0.030369043 0.71458977
-0.0043629096 -0.031994641 0.71557468
-0.0043903627 -0.033659399 0.71667928
-0.0044212919 -0.03537029 0.71792382
-0.0044567157 -0.037139267 0.71934921
-0.0045008785 -0.039007604 0.72112614
-0.004552159 -0.040969461 0.72318953
-0.0046466575 -0.043368787 0.72699177
-0.0026757133 0.048162848 0.70151836
-0.0026518214 0.046406895 0.70007634
-0.0026545362 0.045127153 0.70024014
-0.0026621833 0.04392609 0.70070171
-0.0026698746 0.042717993 0.70116597
-0.0026776104 0.041502982 0.70163286
-0.0026853911 0.040280879 0.70210242
-0.002693217 0.039051652 0.70257485
-0.002701089 0.037815243 0.7030499
-0.0027090071 0.036571622 0.70352781
-0.0027169823 0.035320759 0.70400918
-0.002724994 0.034062415 0.70449269
-0.0027330422 0.032796532 0.70497847
-0.0027411492 0.031523228 0.7054677
-0.0027493043 0.030242354 0.70595998
-0.0027572014 0.028950602 0.70643663
-0.0027585914 0.027585924 0.7065205
-0.0027419603 0.026048601 0.7055167
-0.0026276468 0.023648828 0.69861728
-0.0026245802 0.022308916 0.69843221
-0.002623223 0.020985812 0.69835025
-0.002783753 0.020878166 0.70803916
-0.0027744507 0.01942116 0.70747763
-0.002754797 0.017906189 0.7062915
-0.0027353875 0.016412348 0.70511997
-0.0027162496 0.014939427 0.70396495
-0.0026973777 0.013486922 0.7028259
-0.0026787559 0.012054414 0.701702
-0.0026530768 0.010612309 0.7001521
-0.0026138006 0.0091482997 0.69778156
-0.002580778 0.0077423453 0.6957885
-0.0025818136 0.0064545274 0.69585097
-0.0025843964 0.0051687956 0.69600689
-0.0025881403 0.0038822293 0.69623286
-0.0025923788 0.0025923848 0.69648868
-0.0025965923 0.0012983382 0.69674301
-0.0026008098 2.9802322e-08 0.69699752
-0.0026055488 -0.0013027787 0.69728357
-0.0027891269 -0.0027891099 0.70836347
-0.0027593912 -0.0041390955 0.70656878
-0.0026909853 -0.0053819716 0.70244002
-0.002691861 -0.0067296028 0.70249295
-0.0026947733 -0.0080842674 0.70266867
-0.0028134605 -0.0098471045 0.70983213
-0.0027960958 -0.011184365 0.70878404
-0.0027789217 -0.012505144 0.70774758
-0.0027730558 -0.013865262 0.70739347
-0.0027813797 -0.015297562 0.70789587
-0.002790964 -0.016745776 0.70847428
-0.0028010206 -0.018206626 0.70908129
-0.0028117758 -0.019682407 0.70973039
-0.0029356 -0.022017002 0.71720392
-0.0029581175 -0.023664922 0.7185629
-0.002980229 -0.025331944 0.71989751
-0.0029750362 -0.026775301 0.71958405
-0.0028827139 -0.027385741 0.71401197
-0.002894758 -0.028947562 0.71473885
-0.0029131542 -0.03058809 0.71584916
-0.0029336545 -0.032270163 0.71708643
-0.002957098 -0.034006596 0.71850139
-0.0029866586 -0.035839885 0.72028553
-0.0030203299 -0.037754118 0.72231781
-0.0030830391 -0.040079504 0.72610265
-0.0013272528 0.050435632 0.70023835
-0.0013192756 0.048813254 0.69927537
-0.0013219558 0.047590435 0.69959897
-0.0013257489 0.046401232 0.70005679
-0.0013295636 0.045205176 0.7005173
-0.0013334004 0.044002205 0.70098042
-0.0013372594 0.04279229 0.70144629
-0.0013411408 0.041575372 0.70191479
-0.0013450447 0.040351361 0.70238602
-0.0013487726 0.039114416 0.70283604
-0.0013515688 0.037843943 0.70317352
-0.001356799 0.036633581 0.70380485
-0.0013609014 0.035383433 0.70430011
-0.0013649162 0.034122884 0.70478475
-0.00136896 0.032855064 0.70527285
-0.0013730279 0.031579673 0.70576388
-0.00137712 0.030296654 0.70625782
-0.001380858 0.028998047 0.70670909
-0.0013828859 0.027657747 0.70695382
-0.001378836 0.02619791 0.70646501
-0.0013336563 0.02400583 0.7010113
-0.0013050007 0.022185028 0.69755226
-0.0013048782 0.020878077 0.69753748
-0.0013625504 0.020438254 0.70449919
-0.0013592937 0.019030154 0.70410603
-0.0013498415 0.017547965 0.70296502
-0.00134052 0.016086251 0.7018398
-0.0013313211 0.014644504 0.70072949
-0.0013222527 0.013222545 0.69963485
-0.001313302 0.01181972 0.69855434
-0.0013044765 0.01043582 0.69748902
-0.0012937088 0.0090559721 0.69618922
-0.0012861857 0.0077171028 0.69528115
-0.001288112 0.0064405799 0.69551367
-0.0012902261 0.0051609278 0.69576877
-0.0012923423 0.0038770437 0.69602424
-0.0012944414 0.0025888979 0.69627762
-0.0012968086 0.0012968183 0.69656342
-0.0013922948 -0 0.70808959
-0.0013950729 -0.0013950467 0.70842499
-0.0013962389 -0.0027924478 0.70856571
-0.0013880233 -0.0041640401 0.70757401
-0.0013605178 -0.0054420531 0.70425379
-0.0013402046 -0.0067009926 0.70180172
-0.0013355889 -0.0080134869 0.70124459
-0.001331469 -0.0093202591 0.70074731
-0.0013800025 -0.011040002 0.70660579
-0.0013842962 -0.012458652 0.70712411
-0.001389072 -0.013890684 0.70770055
-0.001394071 -0.015334755 0.70830399
-0.001399433 -0.016793162 0.70895123
-0.0014052 -0.018267572 0.70964742
-0.0014112898 -0.019758016 0.71038252
-0.0014831307 -0.022246927 0.71905446
-0.0014909712 -0.023855537 0.72000092
-0.001493278 -0.025385737 0.72027934
-0.0014857054 -0.026742697 0.7193653
-0.0014712244 -0.027953237 0.71761727
-0.0014602437 -0.029204845 0.71629173
-0.0014715858 -0.03090328 0.7176609
-0.0014864363 -0.032701582 0.71945345
-0.0015031032 -0.03457135 0.72146535
-0.0015342298 -0.036821514 0.72522265
0 0.050081342 0.69911289
0 0.048857003 0.69941819
0 0.0476726 0.69987446
0 0.04648158 0.70033389
0 0.045283705 0.70079595
0 0.044078827 0.70126069
0 0.042867064 0.70172817
0 0.041636139 0.7021513
0 0.040336221 0.70232511
0 0.038906306 0.70196974
0 0.037408143 0.70129478
0 0.036540151 0.70338702
0 0.035443395 0.70457852
0 0.034183621 0.70507777
0 0.032913655 0.7055676
0 0.031623632 0.70599473
0 0.030305058 0.70630395
0 0.028959334 0.70648682
0 0.027583301 0.70650464
0 0.026110262 0.70590806
0 0.024283022 0.70287013
0 0.022099286 0.69694352
0 0.020746708 0.69654644
0 0.019406796 0.69619858
0 0.018569082 0.7001307
0 0.017203689 0.69976848
0 0.01577282 0.69868684
0 0.014361143 0.69761974
0 0.012968361 0.69656634
0 0.011593997 0.6955269
0 0.010247588 0.69464868
0 0.008975476 0.69480103
0 0.0077058375 0.69505388
0 0.0064320266 0.69530761
0 0.0051540434 0.69556206
0 0.0038730204 0.695862
0 0.0027713776 0.70729005
0 0.00138852 0.70763087
0 -0 0.70794493
0 -0.0013920069 0.70805794
0 -0.00278157 0.70790726
0 -0.0041399896 0.70660579
0 -0.0054487586 0.70445597
0 -0.006696254 0.70168644
0 -0.0079430938 0.69982755
0 -0.0092715323 0.69990671
0 -0.011061519 0.70693058
0 -0.012490183 0.70754659
0 -0.014301658 0.71266133
0 -0.015545875 0.71062088
0 -0.016856909 0.70959246
0 -0.018347859 0.71039283
0 -0.020770788 0.71911484
0 -0.022287875 0.71938366
0 -0.023711354 0.7189132
0 -0.025050789 0.71790117
0 -0.026376694 0.71691096
0 -0.027855814 0.71699828
0 -0.029590249 0.71861768
0 -0.031421334 0.72063869
0.0013237286 0.050301671 0.69981295
0.001322147 0.048919439 0.69962204
0.0013244097 0.047678769 0.69989514
0.0013281559 0.046485484 0.7003473
0.0013338509 0.045350939 0.70103478
0.0013371925 0.044127345 0.70143819
0.0013379082 0.042813092 0.70152456
0.0013337946 0.041347653 0.70102799
0.0013285418 0.039856255 0.70039392
0.0013245359 0.038411587 0.6999104
0.0013212822 0.036995947 0.69951761
0.0013201578 0.035644293 0.69938189
0.0013599161 0.035357833 0.70418119
0.0013689385 0.034223467 0.70527029
0.0013712615 0.032910287 0.70555061
0.001372529 0.031568199 0.70570368
0.0013724098 0.030193031 0.70568931
0.001369964 0.028769284 0.70539403
0.0013616427 0.027232885 0.70438963
0.0013521527 0.025690913 0.70324403
0.0013373058 0.024071544 0.70145178
0.0013105874 0.022279978 0.69822669
0.0012806583 0.020490557 0.69461393
0.0012751268 0.019126952 0.69394618
0.0012727121 0.017817944 0.69365478
0.0012920395 0.016796529 0.69598776
0.0012892782 0.015471369 0.69565439
0.0012807717 0.014088511 0.69462758
0.0012747152 0.012747169 0.69389647
0.0012763586 0.011487275 0.69409484
0.0012784343 0.010227501 0.69434547
0.0012805167 0.0089636147 0.69459683
0.0012825965 0.0076956153 0.69484782
0.0012853435 0.0064267218 0.69517946
0.0013153701 0.0052614808 0.69880402
0.0013221671 0.0039665401 0.69962448
0.0013843569 0.002768755 0.70713139
0.0013851571 0.0013851821 0.70722806
0.0013837615 2.9802322e-08 0.7070595
0.0013768582 -0.0013768375 0.70622623
0.001368491 -0.0027369559 0.70521623
0.0013602249 -0.0040806532 0.70421839
0.0013504553 -0.0054018199 0.70303917
0.001335517 -0.0066775382 0.70123589
0.0013203484 -0.0079220831 0.69940495
0.0013231791 -0.009262234 0.69974661
0.0013271818 -0.010617435 0.70022976
0.001435385 -0.012918442 0.71329105
0.001419784 -0.014197826 0.71140778
0.0014067645 -0.015474409 0.70983624
0.0014118633 -0.016942352 0.71045172
0.0014785175 -0.01922074 0.71849763
0.0014746021 -0.020644426 0.71802497
0.0014662949 -0.021994412 0.71702218
0.0014582397 -0.023331821 0.71604985
0.0014593054 -0.024808198 0.71617848
0.0014724089 -0.026503354 0.71776021
0.0014890544 -0.02829203 0.71976954
0.00264153 0.048868299 0.69945514
0.0026390622 0.047503114 0.69930625
0.0026455121 0.046296507 0.69969547
0.0026600026 0.045220077 0.70057011
0.0026520744 0.043759257 0.7000916
0.0026425242 0.042280406 0.69951522
0.00263457 0.040835857 0.69903517
0.0026286803 0.039430201 0.69867969
0.002623213 0.038036585 0.69834971
0.002619426 0.036671966 0.69812107
0.0026158274 0.035313666 0.69790393
0.0026374096 0.03428635 0.69920647
0.0027258277 0.034072846 0.70454299
0.0027312057 0.032774478 0.7048676
0.0027245667 0.031332523 0.70446694
0.0027066227 0.029772878 0.70338386
0.0026878838 0.028222799 0.70225286
0.0026694026 0.026694059 0.70113742
0.0026511739 0.025186151 0.70003724
0.0026327835 0.023695052 0.69892728
0.0026016179 0.02211374 0.69704628
0.0025473463 0.020378768 0.69377071
0.0025314051 0.01898554 0.69280863
0.0025319122 0.017723411 0.69283921
0.0025338971 0.016470343 0.69295895
0.0025371257 0.015222758 0.69315386
0.0025411241 0.013976187 0.69339514
0.0025452471 0.012726218 0.69364405
0.0025493461 0.011472076 0.69389141
0.0025534395 0.010213792 0.69413847
0.0025597599 0.0089591742 0.69451994
0.0027266191 0.0081798434 0.7045908
0.0026482139 0.0066205561 0.69985861
0.00263778 0.0052755773 0.69922882
0.0026421426 0.0039632022 0.6994921
0.0027528873 0.0027529001 0.70617622
0.0027390316 0.0013695359 0.70533991
0.0027224747 -0 0.70434058
0.0027061168 -0.001353085 0.7033534
0.0026899541 -0.0026899278 0.7023778
0.0026739838 -0.0040109754 0.70141399
0.0026582016 -0.0053164065 0.70046139
0.0026419216 -0.0066047907 0.69947881
0.0026421726 -0.0079264939 0.699494
0.002650901 -0.0092781186 0.70002079
0.0026598906 -0.010639548 0.70056331
0.0028516508 -0.012832403 0.7121371
0.0028203228 -0.014101624 0.71024626
0.0028257703 -0.015541703 0.7105751
0.0029346331 -0.017607778 0.7171455
0.0029181819 -0.018968195 0.71615267
0.002902338 -0.020316362 0.71519637
0.0029048494 -0.021786362 0.71534789
0.0029307471 -0.023445934 0.71691096
0.0029639336 -0.025193393 0.71891403
0.0040260954 0.050997257 0.70202231
0.0039367662 0.048553467 0.69842803
0.0039087045 0.046904474 0.69729888
0.0038961258 0.0454548 0.69679272
0.0039414251 0.044669509 0.69861549
0.0039307391 0.043238133 0.6981855
0.0039224271 0.041839242 0.69785106
0.0039148405 0.040453374 0.69754577
0.0039093639 0.039093673 0.69732541
0.0039041808 0.037740439 0.69711685
0.0039007913 0.036407411 0.69698048
0.0038977575 0.035079837 0.69685841
0.0038996094 0.033796638 0.69693291
0.0039846655 0.033205569 0.70035529
0.0040343539 0.032274842 0.70235461
0.0040074908 0.030724108 0.70127374
0.0039801016 0.029187411 0.70017171
0.0039530839 0.027671605 0.69908452
0.0039264159 0.026176095 0.69801152
0.00390012 0.024700761 0.69695348
0.0038741739 0.023245066 0.6959095
0.0038470654 0.021800041 0.69481874
0.0037986159 0.020259291 0.69286931
0.0037834088 0.018917084 0.69225734
0.0037884 0.017679185 0.69245827
0.0037944678 0.016442716 0.69270229
0.0038005272 0.015202135 0.69294614
0.0038066059 0.01395756 0.69319075
0.0038127322 0.012709111 0.69343728
0.0038236408 0.011470944 0.69387615
0.0040982259 0.010928631 0.70492464
0.0041065402 0.0095819235 0.7052592
0.0040991283 0.0081982613 0.70496094
0.0040359781 0.0067266524 0.70241994
0.0039469772 0.0052626431 0.69883883
0.0039415741 0.0039415956 0.69862151
0.00392411 0.0026160479 0.69791877
0.0040356657 0.0013452172 0.70240742
0.0040138946 2.9802322e-08 0.70153141
0.0039901873 -0.0013300478 0.7005775
0.003966758 -0.0026445091 0.69963479
0.0039440054 -0.0039439797 0.69871926
0.003945319 -0.0052604377 0.69877219
0.0039582774 -0.0065971017 0.69929349
0.0039717606 -0.007943511 0.69983602
0.0039857323 -0.0093000233 0.70039821
0.0042957738 -0.011455387 0.71287334
0.0042465115 -0.012739509 0.71089113
0.0042434521 -0.014144868 0.7107681
0.0042696972 -0.015655547 0.71182412
0.0043325 -0.017329991 0.71435112
0.0043368801 -0.018793166 0.71452737
0.004375197 -0.020417571 0.7160691
0.0044253464 -0.022126704 0.71808696
0.0053972062 0.053972065 0.70289987
0.0053277542 0.051945657 0.70080394
0.0052647889 0.050015539 0.6989038
0.0052043856 0.048140615 0.69708097
0.005146286 0.046316594 0.6953277
0.0051309164 0.0448955 0.69486386
0.0051898686 0.044113904 0.69664294
0.0051936698 0.042847782 0.69675756
0.0051867892 0.04149434 0.69654995
0.0051799077 0.040144295 0.69634235
0.005175394 0.038815469 0.69620609
0.005172255 0.037498891 0.69611132
0.0051698498 0.03618896 0.69603872
0.005168024 0.034884214 0.69598365
0.0051680044 0.033592045 0.69598311
0.0052047949 0.03252995 0.69709337
0.0052722981 0.031633794 0.69913042
0.0052395831 0.030127615 0.69814312
0.0052044438 0.028624475 0.6970827
0.0051697921 0.027141422 0.69603705
0.0051355991 0.025678009 0.69500518
0.0051018363 0.024233729 0.6939863
0.0050685336 0.022808403 0.6929813
0.0050356626 0.021401584 0.6919893
0.0050284662 0.020113856 0.69177216
0.0050364472 0.018886685 0.69201297
0.0050444356 0.017655522 0.69225407
0.0050524483 0.016420454 0.69249588
0.0050607268 0.015182197 0.69274569
0.0050782743 0.013965249 0.69327521
0.005439281 0.013598174 0.70416963
0.0054500308 0.012262583 0.704494
0.0054580993 0.010916203 0.70473748
0.005459772 0.0095546246 0.70478797
0.0054437122 0.0081655681 0.70430332
0.0053763911 0.0067204833 0.70227176
0.005272998 0.0052730143 0.69915152
0.0051967576 0.0038976073 0.69685078
0.005195417 0.0025977492 0.69681036
0.0052000824 0.0013000369 0.69695115
0.0052544987 2.9802322e-08 0.69859326
0.0052326 -0.0013081431 0.69793248
0.0052363849 -0.0026181638 0.69804668
0.0052539622 -0.0039404333 0.69857711
0.005271778 -0.0052717626 0.69911468
0.0052900775 -0.0066126287 0.69966698
0.0054945 -0.0082417727 0.705836
0.0054796399 -0.0095893443 0.70538753
0.0054893568 -0.010978699 0.70568073
0.0056676031 -0.012752086 0.71105975
0.005706674 -0.01426664 0.71223891
0.0057513523 -0.015816182 0.71358716
0.0058059855 -0.017417967 0.71523589
0.005873309 -0.019088268 0.71726757
0.006721477 0.05646044 0.70229554
0.0066343383 0.054401606 0.70019186
0.0065853763 0.052683026 0.69900978
0.0065501207 0.051090986 0.69815862
0.0065077725 0.04945907 0.69713628
0.0064742328 0.047909349 0.69632655
0.0063803871 0.04593879 0.69406092
0.0063609513 0.044526637 0.69359171
0.0063665924 0.04329285 0.69372791
0.0064426376 0.042521447 0.69556379
0.0064385789 0.041206926 0.6954658
0.0064346916 0.039895117 0.69537193
0.0064312378 0.038587451 0.69528854
0.0064298813 0.037293315 0.69525588
0.0064298576 0.036007196 0.69525522
0.0064298338 0.034721106 0.69525468
0.0064315475 0.033444077 0.69529605
0.0064381496 0.03219077 0.69545543
0.006465463 0.031034261 0.69611484
0.0064247213 0.029553741 0.69513124
0.00638245 0.028082788 0.69411075
0.0063407542 0.026631176 0.69310409
0.0062995995 0.02519843 0.69211054
0.0062589757 0.023784131 0.6911298
0.0062573524 0.022526473 0.69109064
0.0062672393 0.021308631 0.6913293
0.0062771346 0.020086855 0.69156826
0.0062870611 0.018861204 0.69180781
0.0062975218 0.01763308 0.69206035
0.0063298042 0.016457528 0.69283974
0.0067559001 0.016214192 0.70312661
0.006780765 0.014917731 0.70372689
0.0067902259 0.013580471 0.70395529
0.0067916596 0.012225002 0.70398992
0.0067776698 0.01084429 0.7036522
0.0067397295 0.0094356239 0.7027362
0.0066996268 0.0080395639 0.70176804
0.0066533168 0.0066533387 0.70065004
0.0065737399 0.0052590072 0.69872892
0.0064727375 0.0038836598 0.69629049
0.006479932 0.0025919974 0.69646412
0.0064958497 0.0012991726 0.69684845
0.0065159979 2.9802322e-08 0.69733489
0.006538067 -0.0013076067 0.69786763
0.0065601375 -0.0026240647 0.6984005
0.0065825819 -0.003949523 0.69894236
0.0071442253 -0.0057154 0.71250165
0.0070891576 -0.0070891678 0.71117216
0.0069542844 -0.0083450973 0.70791602
0.0068343263 -0.0095680654 0.70502001
0.0068269675 -0.010923117 0.70484239
0.0068217404 -0.012279123 0.70471609
0.0072234753 -0.014446944 0.71441483
0.0073079751 -0.016077518 0.71645486
0.0078759715 0.055131823 0.69847709
0.0078305341 0.053508669 0.69756293
0.0077979644 0.051986486 0.69690764
0.0077714543 0.05051446 0.69637436
0.0077473978 0.049066871 0.69589037
0.007711919 0.047556877 0.6951766
0.0076309904 0.045785964 0.69354844
0.0075816773 0.044226438 0.69255632
0.0075763869 0.042932868 0.69244993
0.0076745027 0.042209774 0.69442379
0.0076805814 0.040963143 0.6945461
0.0076800436 0.039680243 0.69453526
0.0076800436 0.038400233 0.69453526
0.0076800436 0.037120193 0.69453537
0.0076821945 0.035850286 0.69457859
0.0076851682 0.034583271 0.69463837
0.007687123 0.03331089 0.69467771
0.0076651629 0.031938195 0.69423592
0.007615047 0.030460209 0.69322765
0.0075655547 0.029001355 0.69223195
0.0075167282 0.027561367 0.69124961
0.0074713118 0.026149601 0.69033593
0.0074752495 0.024917513 0.69041514
0.0074870079 0.02370888 0.69065171
0.0074987761 0.022496343 0.69088852
0.0075105815 0.021279991 0.69112599
0.0075235097 0.020062685 0.6913861
0.0080189584 0.020047426 0.70135367
0.0077355541 0.018049657 0.69565207
0.0077539384 0.016800195 0.69602197
0.0077712517 0.015542507 0.69637024
0.0081063872 0.014861733 0.70311266
0.0080917254 0.013486236 0.70281774
0.008045448 0.012068182 0.70188665
0.0079978248 0.010663778 0.70092857
0.0079507614 0.0092758834 0.69998175
0.0079042194 0.0079042017 0.69904536
0.0078582484 0.0065485537 0.69812053
0.0078073088 0.0052048862 0.69709569
0.0077604614 0.0038802624 0.69615322
0.0077841636 0.0025947392 0.69663006
0.0078104385 0.0013017654 0.69715863
0.0078369211 -0 0.69769144
0.0078634061 -0.0013105571 0.69822425
0.0085419137 -0.0028472841 0.71187478
0.0085392203 -0.0042695999 0.7118206
0.0085142851 -0.0056761503 0.71131897
0.008449995 -0.0070416331 0.71002555
0.0083521614 -0.0083521307 0.70805728
0.0082165441 -0.0095859766 0.70532888
0.0081482073 -0.010864258 0.70395404
0.0081630424 -0.012244552 0.70425248
0.0090740025 0.054444075 0.69650036
0.0090329582 0.052907348 0.69579256
0.0090077007 0.051472604 0.69535702
0.0089879958 0.050075978 0.69501722
0.0089705596 0.048697323 0.69471651
0.0089326408 0.047215402 0.69406265
0.0089095719 0.045820653 0.69366485
0.0088053262 0.044026643 0.69186711
0.0087941838 0.042714596 0.69167507
0.0088553373 0.041746587 0.69272959
0.0089186868 0.040771157 0.69382203
0.0089186868 0.039497048 0.69382197
0.008921206 0.038233757 0.69386548
0.0089248726 0.036974519 0.69392866
0.0089263786 0.035705537 0.69395471
0.0088913664 0.034295261 0.69335091
0.0088335639 0.03281042 0.69235408
0.0087765101 0.031344682 0.69137025
0.0087201558 0.02989769 0.69039845
0.0086739138 0.028500021 0.689601
0.008682305 0.027287275 0.68974566
0.0086958697 0.026087612 0.68997967
0.008709508 0.024884313 0.69021487
0.0087232832 0.023677498 0.6904524
0.0087389853 0.022471696 0.69072318
0.0093688564 0.022752941 0.70158494
0.0093866456 0.021455199 0.70189166
0.0093807811 0.020101726 0.70179051
0.0092089502 0.018417925 0.69882739
0.0090352735 0.01677984 0.69583243
0.009033897 0.015486658 0.69580877
0.0092554512 0.014544308 0.69962931
0.0092794625 0.013256401 0.70004332
0.009228237 0.011864901 0.69915998
0.0091745276 0.010485172 0.69823384
0.0091214394 0.009121418 0.69731838
0.0090689622 0.0077733994 0.69641346
0.0090262871 0.0064474046 0.69567746
0.009041016 0.0051663518 0.69593143
0.0090713967 0.0038877726 0.69645542
0.0091019832 0.0026005805 0.69698286
0.0091327755 0.0013047159 0.69751382
0.0099179009 -0 0.71105283
0.0099146664 -0.0014163852 0.7109971
0.0098854117 -0.0028243959 0.71049261
0.0098313102 -0.0042133927 0.70955968
0.0097778374 -0.0055873394 0.70863754
0.0097249039 -0.0069463253 0.70772469
0.0096637011 -0.0082831681 0.70666927
0.0095644072 -0.0095643997 0.70495701
0.0095086945 -0.010867089 0.70399636
0.0095578292 -0.01228863 0.70484358
0.0102888 0.054016203 0.69527078
0.010234214 0.052450418 0.69444716
0.010214584 0.051072925 0.69415092
0.010198731 0.049718857 0.69391167
0.010185876 0.048382938 0.69371778
0.010168773 0.047030598 0.69345969
0.010144132 0.045648605 0.69308794
0.010043198 0.043938994 0.69156492
0.0099966424 0.042485744 0.69086242
0.0099806702 0.041170269 0.69062144
0.010136734 0.040546954 0.6929763
0.010152839 0.039342284 0.69321924
0.010151764 0.038069129 0.69320303
0.010103575 0.036625475 0.69247591
0.01003823 0.035133779 0.69148993
0.0099737942 0.033661574 0.69051766
0.0099101113 0.032207876 0.68955678
0.0098667741 0.030833662 0.68890285
0.0098786606 0.029635966 0.68908221
0.0098940264 0.028445303 0.68931413
0.0099094398 0.027250975 0.68954664
0.0099253971 0.026054144 0.68978745
0.0099443579 0.024860919 0.69007355
0.010658327 0.025313556 0.70084649
0.010679539 0.024029016 0.70116651
0.010700176 0.02273789 0.70147794
0.010711927 0.021423846 0.70165527
0.010701165 0.020064712 0.70149285
0.010565196 0.018489093 0.69944125
0.01027006 0.016688854 0.69498801
0.010210119 0.015315205 0.69408357
0.010198731 0.014023274 0.69391173
0.010358271 0.012947857 0.69631898
0.010369902 0.011666119 0.69649452
0.010312465 0.010312468 0.69562781
0.01026729 0.0089839101 0.69494623
0.010286668 0.0077150166 0.69523859
0.010321119 0.0064506829 0.69575846
0.010355763 0.0051779151 0.69628114
0.010390524 0.0038964748 0.6968056
0.01073012 0.0026825666 0.70192975
0.010760066 0.0013450384 0.70238161
0.011236238 -0 0.70956647
0.011182133 -0.0013977587 0.70875007
0.011121602 -0.0027803779 0.70783681
0.011061678 -0.0041481256 0.70693254
0.01100244 -0.0055012405 0.70603877
0.01094379 -0.0068398416 0.70515382
0.010885762 -0.0081643164 0.70427817
0.010878988 -0.0095190704 0.70417601
0.010939139 -0.010939121 0.70508361
0.011010677 -0.012387007 0.70616305
0.011535065 0.053830326 0.69473648
0.011435268 0.052094012 0.69339794
0.011417649 0.05074513 0.69316173
0.011405447 0.049423635 0.69299805
0.011396844 0.048119992 0.69288266
0.011389374 0.046822995 0.6927824
0.01136004 0.045440167 0.69238901
0.011331186 0.044065714 0.69200206
0.011158542 0.042154491 0.68968642
0.011077904 0.040619016 0.68860489
0.011129947 0.039573163 0.68930292
0.011269811 0.03881824 0.6911788
0.011229343 0.037431151 0.69063604
0.011157626 0.035952359 0.68967414
0.01108682 0.034492314 0.68872452
0.011049449 0.033148348 0.68822324
0.011064461 0.031964034 0.68842459
0.011081594 0.030782223 0.68865442
0.011098782 0.029596746 0.68888491
0.01111693 0.028409928 0.68912834
0.011140217 0.027231634 0.68944067
0.011913965 0.027799249 0.69981837
0.011959757 0.026577234 0.7004326
0.01198267 0.025296777 0.70073992
0.011994528 0.023989081 0.70089895
0.011987493 0.022643059 0.70080459
0.011952124 0.021248221 0.70033014
0.011882052 0.019803435 0.69939035
0.011780357 0.018325031 0.69802642
0.011589657 0.01674065 0.69546866
0.011422487 0.01523 0.69322658
0.011434055 0.013974994 0.69338173
0.01145529 0.012728125 0.69366652
0.011487355 0.011487335 0.69409657
0.011521338 0.01024121 0.69455236
0.011559711 0.0089909136 0.69506705
0.011598211 0.0077321827 0.6955834
0.011637184 0.0064651072 0.69610614
0.01260378 0.0056016743 0.70907038
0.0124484 0.0041494668 0.70698643
0.012085287 0.0026856363 0.70211619
0.012074182 0.0013415813 0.7019673
0.012059747 -0 0.70177364
0.012375002 -0.0013749897 0.706002
0.012319864 -0.0027377605 0.70526248
0.012254496 -0.0040848255 0.7043857
0.012189867 -0.0054177046 0.70351887
0.012184927 -0.0067693889 0.70345265
0.012249265 -0.0081661642 0.70431548
0.012328946 -0.0095891953 0.70538425
0.012972105 -0.011530727 0.71401048
0.014482914 -0.024138212 0.73427391
0.014392067 -0.02558586 0.73305541
0.01432607 -0.02706036 0.73217028
0.012644682 0.051843226 0.69265956
0.012617774 0.050471127 0.69233477
0.012609532 0.04917717 0.69223523
0.012605004 0.047899008 0.69218063
0.012601438 0.046625346 0.6921376
0.012589796 0.045323282 0.69199705
0.012574896 0.044012129 0.69181716
0.012265637 0.041703194 0.68808413
0.012196665 0.04024899 0.68725157
0.012191743 0.039013594 0.68719214
0.012232604 0.037921101 0.68768537
0.012247565 0.036742717 0.68786597
0.012222406 0.035445005 0.68756223
0.012239843 0.034271568 0.68777275
0.012258713 0.033098549 0.6880005
0.012277642 0.031921893 0.68822902
0.012298022 0.030745059 0.68847501
0.012326948 0.029584706 0.68882418
0.012765274 0.029360116 0.69411528
0.01289685 0.028373063 0.69570351
0.013197968 0.027715743 0.69933832
0.013264928 0.026529849 0.70014662
0.013257639 0.025189549 0.70005864
0.013211767 0.02378121 0.69950485
0.013134757 0.022329092 0.69857526
0.013058541 0.020893693 0.69765526
0.012983252 0.019474924 0.69674647
0.01290806 0.018071264 0.69583881
0.01278298 0.016617894 0.69432896
0.012671057 0.015205294 0.69297796
0.012705063 0.01397559 0.69338846
0.012745141 0.012745142 0.69387221
0.012787308 0.011508614 0.69438124
0.012829565 0.010263681 0.69489133
0.012872769 0.0090109706 0.69541281
0.013968115 0.0083808899 0.70863485
0.01396267 0.0069813132 0.70856911
0.013914752 0.0055659115 0.70799065
0.013777426 0.0041332543 0.70633298
0.0135537 0.0027107596 0.70363241
0.013324545 0.0013324916 0.70086622
0.013331651 2.9802322e-08 0.70095199
0.013357787 -0.0013357699 0.70126754
0.013463216 -0.00269261 0.70254016
0.013476531 -0.0040429533 0.70270085
0.013547201 -0.0054188371 0.70355397
0.013635664 -0.0068178475 0.70462179
0.014641942 -0.0087851584 0.71676862
0.01448465 -0.010139227 0.71486998
0.014769902 -0.011815876 0.71831322
0.015259158 -0.013733238 0.72421914
0.015464799 -0.015464783 0.72670138
0.016237641 -0.021108925 0.7360304
0.016084827 -0.022518754 0.73418581
0.016011376 -0.024017066 0.73329914
0.0158995 -0.025439203 0.73194873
0.015707098 -0.026702046 0.72962624
0.015634798 -0.028142631 0.72875345
0.013872751 0.051707566 0.69226015
0.013817335 0.050244868 0.691652
0.013812391 0.048971206 0.69159776
0.013811792 0.047713488 0.6915912
0.013812541 0.04646039 0.69159937
0.013814438 0.045210928 0.69162017
0.013792355 0.043884784 0.69137788
0.013754484 0.042513877 0.69096231
0.013365709 0.040097147 0.68669599
0.013368747 0.038890928 0.68672931
0.013385837 0.03772372 0.68691695
0.013404944 0.036558956 0.68712658
0.01342552 0.035394579 0.6873523
0.013446396 0.034227192 0.68758142
0.013468808 0.033059835 0.68782735
0.01350512 0.031921208 0.68822587
0.013980733 0.031774402 0.69344509
0.014007786 0.030562431 0.69374198
0.014036852 0.029349804 0.69406092
0.01408475 0.028169513 0.69458658
0.014388187 0.027468383 0.69791639
0.014458562 0.026288301 0.69868869
0.014374659 0.024829 0.69776791
0.014291724 0.023386508 0.69685781
0.014209741 0.021960527 0.69595814
0.014128692 0.020550817 0.69506878
0.014048563 0.019157171 0.69418943
0.013969339 0.017779201 0.69332004
0.013922576 0.016453981 0.6928069
0.013958116 0.01522705 0.69319689
0.014003937 0.014003962 0.69369972
0.014050061 0.012772799 0.69420588
0.014097789 0.011534601 0.69472963
0.015292876 0.011122108 0.7078442
0.015286637 0.0097278655 0.70777571
0.015240131 0.0083128214 0.70726538
0.015158294 0.0068901479 0.70636731
0.015077391 0.0054827332 0.70547944
0.014991758 0.0040886998 0.70453978
0.01484791 0.0026996136 0.70296121
0.014639372 0.0013308525 0.70067281
0.014669374 2.9802322e-08 0.701002
0.0147435 -0.00134027 0.70181549
0.014833792 -0.0026970506 0.70280635
0.014930445 -0.0040719509 0.70386696
0.016367182 -0.0059517026 0.71963334
0.016225651 -0.0073752999 0.71808016
0.016163485 -0.0088163912 0.71739793
0.016371598 -0.010418296 0.71968174
0.016467102 -0.011976063 0.72072977
0.016786695 -0.013734579 0.72423691
0.01684618 -0.015314698 0.72488964
0.016926153 -0.01692614 0.72576725
0.017557176 -0.019153267 0.73269182
0.017525056 -0.020711392 0.73233938
0.01745726 -0.022218317 0.73159546
0.017378598 -0.023698092 0.7307322
0.017300645 -0.025164545 0.72987682
0.01722331 -0.026617825 0.72902817
0.017172007 -0.028099626 0.72846514
0.015023327 0.050077796 0.69114774
0.015015213 0.048799485 0.69106609
0.015018458 0.047558457 0.69109875
0.015023923 0.046323776 0.69115376
0.015030205 0.045090616 0.69121695
0.015022786 0.043816477 0.69114232
0.015015861 0.042544961 0.69107264
0.014573283 0.040076524 0.68662071
0.014559899 0.038826406 0.68648607
0.014582151 0.037670553 0.68670988
0.014605187 0.036512971 0.68694156
0.014629425 0.035354435 0.68718541
0.014676592 0.034245402 0.68765986
0.015185444 0.03416729 0.69277853
0.015214534 0.032964855 0.69307113
0.01524669 0.031763971 0.69339466
0.015280214 0.030560464 0.69373184
0.015315179 0.029354095 0.69408357
0.01535364 0.028148353 0.69447041
0.015494508 0.027115434 0.69588745
0.015512493 0.025854141 0.69606841
0.015423952 0.024421275 0.69517767
0.015336416 0.023004651 0.69429719
0.015249869 0.021604002 0.69342661
0.015164291 0.020219088 0.69256574
0.01512167 0.018902123 0.692137
0.015160322 0.017687082 0.6925258
0.015209872 0.016477376 0.69302422
0.015259747 0.015259773 0.69352591
0.01531231 0.014036298 0.69405472
0.015811317 0.013176143 0.69907427
0.016568452 0.012426347 0.70669049
0.016547345 0.011031568 0.70647824
0.016458904 0.0096010268 0.70558858
0.01637147 0.0081857741 0.70470905
0.016284894 0.006785363 0.70383817
0.016199294 0.0053997934 0.70297706
0.016114525 0.0040286481 0.70212436
0.016024726 0.0026707947 0.70122111
0.01601045 0.0013342202 0.70107746
0.016108923 2.9802322e-08 0.70206797
0.016213404 -0.0013511181 0.70311904
0.01779324 -0.0029655099 0.71901095
0.017704543 -0.0044261217 0.71811873
0.017682768 -0.0058942437 0.71789968
0.017775642 -0.007406503 0.71883386
0.017878305 -0.0089391172 0.71986663
0.018227819 -0.010632902 0.72338247
0.018291229 -0.012194157 0.72402036
0.018356049 -0.013767034 0.72467238
0.018421333 -0.015351087 0.72532904
0.018487081 -0.016946495 0.72599041
0.01856933 -0.01856932 0.72681779
0.018707212 -0.020266116 0.72820473
0.018748259 -0.021872938 0.72861767
0.018709898 -0.023387372 0.72823179
0.018656489 -0.024875283 0.72769451
0.018710401 -0.026506394 0.72823691
0.018778911 -0.02816835 0.728926
0.018848177 -0.029842943 0.72962278
0.016248694 0.049996018 0.69090092
0.016219171 0.048657537 0.69062686
0.016226338 0.047430843 0.69069338
0.016237011 0.046213031 0.6907925
0.016247641 0.04499346 0.69089121
0.016260099 0.043777198 0.69100684
0.016246121 0.042489856 0.69087708
0.015840873 0.040211469 0.68711418
0.015760677 0.038795531 0.68636948
0.015780002 0.037629247 0.68654895
0.015844708 0.036564708 0.68714976
0.016379373 0.036538631 0.69211441
0.016411986 0.035348892 0.69241726
0.016446523 0.03415817 0.69273794
0.01648199 0.032963991 0.69306725
0.016520025 0.031769305 0.69342041
0.016560968 0.030574143 0.69380057
0.016601566 0.029372007 0.69417751
0.016628273 0.028140157 0.69442558
0.016621236 0.026849687 0.69436026
0.016532179 0.025434166 0.69353324
0.016439341 0.024026752 0.69267118
0.016347483 0.022635013 0.69181824
0.016309001 0.021327198 0.69146097
0.016352098 0.020125657 0.69186115
0.016405251 0.018929183 0.69235468
0.016458809 0.017724872 0.69285202
0.01651622 0.016516238 0.69338506
0.017771274 0.016404271 0.70503879
0.017107064 0.014475226 0.69887131
0.017119773 0.01316905 0.69898933
0.017124251 0.011855274 0.69903094
0.01762531 0.010846376 0.7036835
0.01756056 0.0094556808 0.7030822
0.017468678 0.0080624819 0.70222902
0.017377684 0.006683737 0.70138413
0.017287701 0.0053192973 0.70054859
0.017281152 0.0039879978 0.70048785
0.017372137 0.0026726425 0.70133263
0.017484095 0.001344949 0.70237219
0.018389415 2.9802322e-08 0.71077847
0.018807936 -0.0014467537 0.71466464
0.01904857 -0.002930522 0.71689904
0.019166494 -0.0044230223 0.71799403
0.019276667 -0.005931288 0.71901703
0.020362435 -0.010964364 0.72909892
0.020429477 -0.012571961 0.72972143
0.020507107 -0.014197201 0.73044223
0.02042412 -0.01571086 0.72967172
0.020097174 -0.017005265 0.72663575
0.020147732 -0.018597931 0.72710526
0.020179683 -0.020179689 0.72740191
0.020118836 -0.021666408 0.72683692
0.020171573 -0.023274899 0.72732663
0.020245072 -0.024917006 0.7280091
0.02031911 -0.026571125 0.72869658
0.020403825 -0.028251469 0.72948313
0.017525511 0.050072879 0.69113308
0.017432062 0.048560768 0.69032729
0.017436998 0.047328979 0.6903699
0.017452952 0.04612565 0.69050747
0.017469184 0.044920743 0.69064742
0.017487772 0.043719441 0.6908077
0.017483436 0.042459786 0.69077027
0.01748859 0.041223109 0.69081473
0.017353274 0.039664656 0.68964797
0.017378133 0.038480163 0.68986237
0.017442251 0.037376314 0.69041514
0.017629864 0.036519021 0.69203281
0.017673418 0.035346836 0.69240838
0.017714543 0.034163803 0.69276297
0.017758453 0.032980025 0.69314152
0.017801277 0.031787992 0.69351083
0.017827438 0.030561358 0.69373631
0.017809816 0.029258996 0.69358444
0.017716156 0.02783969 0.69277686
0.017617095 0.02642566 0.69192272
0.0175192 0.025027424 0.69107866
0.017485823 0.023730755 0.69079089
0.017533533 0.022543103 0.69120222
0.017590275 0.021359622 0.69169152
0.017647387 0.020168483 0.69218391
0.017709706 0.018974692 0.69272125
0.0191941 0.019194126 0.70551991
0.019185396 0.017815024 0.70544487
0.019043818 0.016323298 0.70422417
0.018678285 0.014675796 0.70107257
0.018333495 0.013095349 0.69809967
0.018316926 0.011775196 0.6979568
0.01836367 0.010493547 0.69835985
0.018614104 0.0093070865 0.70051908
0.01853326 0.0079428256 0.69982207
0.018526413 0.0066166222 0.699763
0.018623225 0.0053209364 0.70059776
0.018742766 0.0040163398 0.70162845
0.020337855 0.0029053986 0.71538162
0.019910086 0.0014221668 0.71169335
0.020205567 2.9802322e-08 0.71424103
0.020544253 -0.0014674366 0.71716124
0.020661792 -0.0029516518 0.71817464
0.02188576 -0.010942876 0.728728
0.021713147 -0.012407511 0.72723967
0.021625021 -0.0139018 0.72647983
0.021741483 -0.015529603 0.72748399
0.02164571 -0.017007291 0.72665823
0.02156893 -0.018487662 0.72599626
0.021618774 -0.020074546 0.72642595
0.021697167 -0.021697134 0.72710186
0.021776132 -0.023331583 0.72778273
0.021856949 -0.024979353 0.72847956
0.018665904 0.048531353 0.69023633
0.018652879 0.047253937 0.69013155
0.018673195 0.046060562 0.69029498
0.018695632 0.044869512 0.69047558
0.018718528 0.043676585 0.69065982
0.018742897 0.042483896 0.69085598
0.018738449 0.041224629 0.69082016
0.018684238 0.039859742 0.69038391
0.018645138 0.0385333 0.69006926
0.018664969 0.037329942 0.69022882
0.018852726 0.036448628 0.69173974
0.018944753 0.035363555 0.69248039
0.018990656 0.034183174 0.69284976
0.019015184 0.0329597 0.69304711
0.018990794 0.031651348 0.69285089
0.018888455 0.030221552 0.69202733
0.018783424 0.028801262 0.69118208
0.018679485 0.02739659 0.69034564
0.01865221 0.026113123 0.69012618
0.018704891 0.024939835 0.69055009
0.018764962 0.023768991 0.69103348
0.018825894 0.022591054 0.69152385
0.018892907 0.021411985 0.69206309
0.020471331 0.021836102 0.70476532
0.020460803 0.020460814 0.70468056
0.020395948 0.019036233 0.70415866
0.020288527 0.01758337 0.70329422
0.020171925 0.01613757 0.70235586
0.019950401 0.014630318 0.70057321
0.019564357 0.013042897 0.69746655
0.019585382 0.011751235 0.69763577
0.019645547 0.010477632 0.69811994
0.019742958 0.009213388 0.6989038
0.019863041 0.0079452395 0.69987011
0.019989347 0.0066631436 0.70088661
0.021949131 0.0058531165 0.7166577
0.021839226 0.0043678582 0.71577328
0.021765718 0.0029021502 0.71518171
0.021909272 0.0014606118 0.71633703
0.022034034 -0 0.71734095
0.023731107 -0.011074513 0.73099792
0.023175642 -0.012360305 0.72652793
0.022892756 -0.013735622 0.72425145
0.022993853 -0.015329242 0.72506499
0.023052024 -0.016904801 0.72553319
0.023135213 -0.018508166 0.72620261
0.023219004 -0.020123124 0.72687691
0.023303404 -0.021749824 0.72755611
0.019945584 0.048617393 0.69050258
0.019879613 0.047214091 0.69000489
0.019899253 0.046017021 0.690153
0.019928498 0.044839144 0.69037366
0.019957757 0.043657601 0.69059443
0.019992134 0.0424833 0.69085371
0.019991703 0.041232914 0.6908505
0.020010339 0.040020704 0.6909911
0.019870093 0.038498342 0.689933
0.019788546 0.037103534 0.68931782
0.019728227 0.035757452 0.68886274
0.020145571 0.035254776 0.6920113
0.020159816 0.034019709 0.69211882
0.02004938 0.032580227 0.69128567
0.019938361 0.031153709 0.69044811
0.019828634 0.029742926 0.68962026
0.019808428 0.028474629 0.68946779
0.019866258 0.027316093 0.68990409
0.019929498 0.026157469 0.69038123
0.019994363 0.024992973 0.69087058
0.020067472 0.023830146 0.6914221
0.021731187 0.02444762 0.70397389
0.021724477 0.023082256 0.70392334
0.021655174 0.021655202 0.70340043
0.021541562 0.020195216 0.70254332
0.02142914 0.018750519 0.70169514
0.021317963 0.017320871 0.70085633
0.021207854 0.015905887 0.70002568
0.021073125 0.014487803 0.69900918
0.020879777 0.013049871 0.69755054
0.020964496 0.011792541 0.69818968
0.021091672 0.01054585 0.69914913
0.021224532 0.009285748 0.7001515
0.023309629 0.0087411106 0.7158823
0.023193423 0.0072479844 0.71500564
0.02315112 0.00578776 0.71468651
0.023261646 0.0043615401 0.71552038
0.023393491 0.0029242039 0.716515
0.025014438 -0.0125072 0.72874415
0.02448163 -0.013770908 0.72472441
0.024559498 -0.015349686 0.72531188
0.02464802 -0.016945481 0.72597969
0.024737183 -0.018552899 0.72665238
0.021131761 0.047235727 0.69007349
0.021133877 0.045997292 0.69008851
0.021171145 0.044833034 0.69035321
0.021209991 0.043667644 0.69062901
0.021248978 0.042497993 0.69090587
0.021283047 0.041314185 0.6911478
0.021289952 0.040075213 0.6911968
0.021100435 0.038477272 0.68985111
0.020820715 0.036742449 0.6878649
0.020803556 0.035488456 0.68774307
0.020944221 0.034496397 0.68874186
0.021057108 0.033443689 0.68954343
0.020966746 0.032066792 0.68890184
0.020955365 0.030816734 0.68882102
0.021017624 0.029671967 0.68926311
0.021084016 0.028525442 0.68973446
0.021152798 0.027374238 0.69022286
0.021232557 0.026228487 0.69078922
0.022177016 0.026090652 0.69749546
0.022449335 0.025090456 0.69942915
0.022869302 0.024214596 0.70241117
0.022783127 0.02278313 0.70179927
0.022664851 0.021331608 0.70095944
0.022547709 0.019895047 0.70012766
0.022431858 0.018473297 0.69930506
0.022317108 0.017066061 0.6984902
0.022203607 0.015673161 0.69768429
0.022195766 0.014361948 0.69762862
0.022308595 0.013122708 0.69842982
0.022448482 0.011884511 0.69942307
0.023610638 0.011110902 0.7076751
0.02452871 0.010100067 0.71419406
0.024487427 0.0086426139 0.71390086
