# .PCD v0.7 - Point Cloud Data file format
VERSION 0.7
FIELDS x y z
SIZE 4 4 4
TYPE F F F
COUNT 1 1 1
WIDTH 1336
HEIGHT 1
VIEWPOINT 0 0 0 1 0 0 0
POINTS 1336
DATA ascii
-0.017842382 0.0068624616 0.70569909
-0.017927926 0.0055162907 0.70649338
-0.018335074 0.0042311847 0.71027398
-0.018451687 0.0028387308 0.7113567
-0.018569794 0.0014284849 0.71245337
-0.01868942 -0 0.71356422
-0.018787989 -0.0014452338 0.71447945
-0.018803004 -0.0028927624 0.71461886
-0.018748453 -0.0043265522 0.71411234
-0.018638602 -0.0057349205 0.71309233
-0.018529421 -0.0071267188 0.71207857
-0.018469492 -0.0085243583 0.71152204
-0.018545397 -0.0099859536 0.71222687
-0.019704768 -0.012125969 0.72299212
-0.019801078 -0.013708442 0.72388643
-0.019797347 -0.015228719 0.72385174
-0.019673958 -0.01664716 0.72270602
-0.019460451 -0.017963469 0.72072357
-0.018779241 -0.018779218 0.71439821
-0.018632144 -0.020065367 0.71303236
-0.018771203 -0.021659106 0.71432358
-0.018927487 -0.023295343 0.71577477
-0.019398274 -0.025366962 0.72014618
-0.019577095 -0.027106732 0.72180665
-0.019734295 -0.02884239 0.7232663
-0.019894041 -0.03060621 0.72474962
-0.020056484 -0.032398909 0.72625792
-0.020222865 -0.034223318 0.72780287
-0.021543853 -0.038116008 0.74006879
-0.02154447 -0.039774418 0.74007457
-0.021591635 -0.041522324 0.74051249
-0.017182671 0.015750766 0.71286911
-0.017138882 0.014282405 0.71242857
-0.017196206 0.012897134 0.7130053
-0.017617917 0.011745274 0.71724731
-0.016617579 0.0096936226 0.70718473
-0.016512809 0.0082564056 0.70613086
-0.016412131 0.0068384409 0.705118
-0.016452411 0.005484134 0.70552325
-0.016536845 0.0041342378 0.70637256
-0.016944975 0.0028241873 0.71047801
-0.017052876 0.0014211237 0.71156341
-0.017162161 -0 0.71266276
-0.017272856 -0.0014393926 0.71377629
-0.017354742 -0.0028924346 0.71459997
-0.017360521 -0.0043401122 0.71465814
-0.017299084 -0.005766362 0.7140401
-0.017197128 -0.0071654916 0.71301448
-0.017096367 -0.0085481703 0.71200091
-0.017014535 -0.009925127 0.71117783
-0.017084807 -0.011389852 0.71188468
-0.018204819 -0.013653606 0.72315109
-0.018232282 -0.015193522 0.7234273
-0.018075237 -0.016568929 0.72184765
-0.017012937 -0.017012894 0.71116167
-0.016981758 -0.018396854 0.71084803
-0.017106747 -0.01995784 0.71210539
-0.017253201 -0.02156651 0.71357852
-0.017677296 -0.023569703 0.71784461
-0.01783609 -0.02526781 0.71944201
-0.017977433 -0.026966125 0.72086376
-0.018121034 -0.02869162 0.72230828
-0.018266948 -0.03044489 0.72377598
-0.018415311 -0.032226771 0.72526848
-0.0196181 -0.035966516 0.73736763
-0.019966437 -0.038268983 0.74087161
-0.019984523 -0.039969027 0.74105346
-0.015830958 0.017270148 0.71374893
-0.015723696 0.015723705 0.71257186
-0.015627202 0.014206558 0.71151292
-0.015670769 0.012821525 0.71199107
-0.015695222 0.011414737 0.71225935
-0.015322486 0.0097507238 0.7081691
-0.015225318 0.008304745 0.70710278
-0.015129433 0.0068770349 0.70605057
-0.015035814 0.0054675937 0.70502323
-0.015021808 0.0040968657 0.70486957
-0.01503889 0.0027343333 0.70505697
-0.015042796 0.0013675392 0.70509988
-0.015650749 2.9802322e-08 0.71177137
-0.01575117 -0.0014318824 0.71287334
-0.015852889 -0.0028823316 0.71398962
-0.015918914 -0.0043415129 0.71471417
-0.015915733 -0.0057875216 0.71467918
-0.015850259 -0.007204622 0.71396077
-0.015756885 -0.008594662 0.7129361
-0.015664669 -0.0099684 0.71192408
-0.01558826 -0.011336863 0.71108562
-0.015641719 -0.012797743 0.71167231
-0.01565652 -0.014233172 0.71183473
-0.015324698 -0.015324682 0.70819336
-0.015372403 -0.016769856 0.70871687
-0.015484125 -0.018299371 0.70994282
-0.015621581 -0.019882023 0.71145129
-0.015999746 -0.021817833 0.71560109
-0.016139802 -0.023476064 0.71713805
-0.016266046 -0.025138438 0.71852338
-0.016394282 -0.026827008 0.71993065
-0.016524555 -0.028542399 0.72136021
-0.016656989 -0.030285418 0.72281355
-0.017738307 -0.033863991 0.73467958
-0.018043788 -0.036087573 0.73803186
-0.018398419 -0.038469434 0.74192345
-0.018417746 -0.04018417 0.74213558
-0.01447753 0.017373025 0.71478397
-0.014381178 0.015819281 0.71362102
-0.014287099 0.014287114 0.71248531
-0.014194244 0.012774855 0.71136445
-0.01410253 0.011282057 0.71025735
-0.014012106 0.0098084807 0.70916581
-0.013922724 0.0083536506 0.70808691
-0.01383453 0.006917268 0.70702231
-0.013747391 0.0054989457 0.70597047
-0.013661451 0.0040984452 0.70493305
-0.013576738 0.0027153492 0.70391047
-0.013527739 0.001352787 0.70331901
-0.013550741 -0 0.70359671
-0.013588524 -0.0013588667 0.70405281
-0.014336675 -0.0028672814 0.71308374
-0.014429373 -0.0043287873 0.71420264
-0.014478494 -0.0057913959 0.71479565
-0.014468547 -0.0072342455 0.71467555
-0.014402816 -0.0086416602 0.71388209
-0.014311166 -0.010017812 0.71277583
-0.014195693 -0.011356533 0.71138191
-0.014095664 -0.012686074 0.71017444
-0.013744129 -0.013744116 0.70593107
-0.013802711 -0.015183002 0.70663822
-0.01390178 -0.016682088 0.70783406
-0.014030664 -0.018239856 0.70938993
-0.014363997 -0.020109564 0.71341348
-0.014486522 -0.021729767 0.71489263
-0.014598388 -0.023357391 0.71624285
-0.014711995 -0.025010377 0.71761423
-0.014827384 -0.026689291 0.71900713
-0.014944596 -0.028394699 0.72042197
-0.016097942 -0.032195896 0.73434412
-0.016173171 -0.033963621 0.7352522
-0.016506379 -0.03631404 0.73927438
-0.016712079 -0.038437754 0.74175739
-0.016835237 -0.040404558 0.74324405
-0.01366298 0.018217355 0.72327673
-0.013022234 0.015916079 0.71468288
-0.012936528 0.014373928 0.71353328
-0.012851942 0.012851983 0.71239889
-0.012768455 0.011349738 0.71127903
-0.012686047 0.0098669529 0.71017379
-0.012520719 0.0083471537 0.70795637
-0.012448251 0.0069157183 0.7069844
-0.01238976 0.0055065751 0.70619988
-0.012336728 0.0041122437 0.70548862
-0.012289411 0.0027309954 0.70485401
-0.012213051 0.0013570189 0.70382988
-0.012138011 2.9802322e-08 0.7028234
-0.0121238 -0.0013470948 0.70263278
-0.012171363 -0.0027047396 0.70327079
-0.012918785 -0.004306227 0.71329534
-0.01300085 -0.0057781041 0.714396
-0.013036457 -0.007242471 0.71487361
-0.013010316 -0.0086735189 0.71452296
-0.012897153 -0.010031104 0.71300524
-0.012725382 -0.011311442 0.71070135
-0.012211716 -0.01221171 0.703812
-0.012270316 -0.013633668 0.70459789
-0.012358229 -0.015104502 0.70577699
-0.012481789 -0.016642362 0.70743418
-0.012768559 -0.018443465 0.71128052
-0.012874641 -0.02002719 0.71270329
-0.012972806 -0.021621346 0.71401989
-0.013072479 -0.02323994 0.71535671
-0.013173695 -0.024883598 0.71671426
-0.013276491 -0.026552975 0.71809298
-0.013644679 -0.028805435 0.72303128
-0.014552468 -0.032338798 0.73520678
-0.014645495 -0.034172803 0.73645443
-0.014840445 -0.036276639 0.73906922
-0.014960928 -0.038233459 0.74068516
-0.015083456 -0.040222555 0.74232858
-0.015208009 -0.042244464 0.74399912
-0.011893424 0.020813495 0.71948266
-0.011819791 0.01920718 0.71837163
-0.011828946 0.017743438 0.71850973
-0.011646612 0.016014129 0.71575856
-0.011554438 0.014443099 0.71436775
-0.01145365 0.012885392 0.71284693
-0.011085808 0.011085808 0.70729673
-0.010990391 0.0096166134 0.70585692
-0.010937546 0.0082032084 0.70505959
-0.010905706 0.0068160892 0.70457911
-0.010889899 0.0054449737 0.70434064
-0.010932384 0.0040996671 0.70498168
-0.010958934 0.0027397573 0.70538229
-0.010918686 0.001364857 0.70477498
-0.010850876 2.9802322e-08 0.7037518
-0.010783901 -0.001347959 0.70274127
-0.01074447 -0.0026860833 0.70214629
-0.010794999 -0.0040481091 0.70290875
-0.011497376 -0.0057486594 0.7135067
-0.011552037 -0.00722 0.71433151
-0.011534875 -0.0086511374 0.71407259
-0.01131357 -0.0098993778 0.71073335
-0.010719776 -0.010719776 0.70177364
-0.01077529 -0.012122184 0.70261133
-0.010852061 -0.013565063 0.70376968
-0.010990608 -0.015112042 0.7058602
-0.011211268 -0.016816884 0.70918971
-0.011302575 -0.018366665 0.71056747
-0.011387726 -0.019928485 0.71185225
-0.011474121 -0.021513939 0.71315587
-0.011561838 -0.023123652 0.71447939
-0.011650907 -0.02475816 0.71582335
-0.011965353 -0.026922047 0.72056794
-0.012149436 -0.028854907 0.72334558
-0.012915332 -0.032288313 0.73490208
-0.013017974 -0.034172148 0.73645079
-0.013122322 -0.03608638 0.73802531
-0.013228294 -0.03803131 0.73962432
-0.013336054 -0.040008157 0.74125022
-0.013445584 -0.04201746 0.74290293
-0.010464413 0.02092886 0.7204771
-0.010393316 0.019301891 0.7192511
-0.010323135 0.017696828 0.71804082
-0.010253895 0.016113251 0.71684688
-0.0096809333 0.013829917 0.70696652
-0.0095736301 0.012308985 0.70511603
-0.0095494613 0.01091367 0.70469934
-0.009444451 0.0094444454 0.70288849
-0.0094216233 0.0080756843 0.70249486
-0.0094105052 0.0067218244 0.70230311
-0.0094621964 0.0054070055 0.7031945
-0.0095191887 0.0040796399 0.70417732
-0.0095759667 0.0027360022 0.70515645
-0.00959126 0.0013701916 0.70542014
-0.0095492741 2.9802322e-08 0.70469612
-0.0094899964 -0.0013557076 0.7036739
-0.0094314506 -0.0026946664 0.70266432
-0.009393896 -0.0040259361 0.70201671
-0.009442104 -0.005395472 0.70284802
-0.0094842603 -0.0067744553 0.70357496
-0.0097429007 -0.0083510578 0.70803505
-0.0092655709 -0.0092655718 0.69980383
-0.0093158921 -0.010646671 0.70067155
-0.0093819387 -0.01206249 0.70181048
-0.0095331054 -0.013618737 0.70441729
-0.0096912319 -0.015229076 0.70714408
-0.0097689619 -0.016746789 0.70848447
-0.0098416135 -0.018277258 0.7097373
-0.0099153947 -0.019830763 0.71100962
-0.0099902488 -0.021407664 0.71230042
-0.010066242 -0.023008525 0.71361089
-0.010594361 -0.02572912 0.72271794
-0.010522586 -0.027058065 0.72148025
-0.010665579 -0.02894941 0.72394609
-0.01124288 -0.032122493 0.73390126
-0.011331769 -0.033995301 0.73543406
-0.011422126 -0.035898089 0.73699224
-0.011513936 -0.037831485 0.73857546
-0.011607235 -0.039796233 0.74018437
-0.011893055 -0.042475164 0.74511313
-0.0090266233 0.021062136 0.7216264
-0.0089648301 0.019423842 0.72038323
-0.0089039532 0.017807961 0.71915841
-0.0081847701 0.01500544 0.70468962
-0.0081891753 0.013648659 0.70477819
-0.0081975795 0.012296379 0.70494735
-0.0079913558 0.010655165 0.70079839
-0.0079746963 0.0093038082 0.70046329
-0.0079764966 0.0079764724 0.70049948
-0.0080235256 0.0066863 0.70144564
-0.0080713313 0.0053808987 0.70240742
-0.0081197424 0.0040599108 0.7033813
-0.0081687039 0.0027229488 0.70436639
-0.0082160579 0.0013693571 0.70531911
-0.0082177743 -0 0.70535362
-0.008181205 -0.0013635159 0.70461792
-0.0081304451 -0.0027101338 0.70359671
-0.0080802785 -0.0040401518 0.70258737
-0.0080405138 -0.0053603351 0.70178747
-0.0080207475 -0.0066839159 0.70138967
-0.0079353275 -0.0079352856 0.69967121
-0.0078996969 -0.0092163086 0.6989544
-0.0079460042 -0.010594666 0.69988602
-0.0080799963 -0.012119979 0.7025817
-0.0082075512 -0.013679266 0.70514798
-0.0082723591 -0.015165985 0.70645177
-0.0083331326 -0.016666263 0.70767444
-0.0083948402 -0.018188804 0.70891589
-0.0084574334 -0.019733995 0.71017522
-0.0085209664 -0.021302402 0.71145338
-0.009176611 -0.024470955 0.72464395
-0.0091284756 -0.025864005 0.72367549
-0.009077481 -0.027232468 0.72264957
-0.0095132329 -0.030125231 0.73141623
-0.0095875189 -0.031958401 0.73291075
-0.0096629737 -0.033820421 0.73442876
-0.0097395796 -0.035711795 0.73597002
-0.0098174568 -0.037633598 0.73753679
-0.0099793468 -0.03991738 0.7407937
-0.0068448274 0.017796576 0.70527345
-0.00680624 0.016335011 0.70434195
-0.0068132067 0.014989078 0.70451009
-0.0066014659 0.013202935 0.69939828
-0.0065763029 0.011837363 0.69879079
-0.0065634833 0.010501593 0.69848132
-0.0065768259 0.0092075765 0.69880337
-0.0066153668 0.0079384744 0.69973385
-0.0066543617 0.0066543818 0.70067525
-0.0066938447 0.0053550899 0.70162845
-0.0067337737 0.0040403008 0.70259243
-0.006774208 0.0027096868 0.70356858
-0.0068151043 0.0013630688 0.70455593
-0.0068520349 2.9802322e-08 0.70544749
-0.0068481728 -0.0013696253 0.70535427
-0.006814409 -0.0027257502 0.70453912
-0.0067702481 -0.0040621161 0.70347297
-0.0067293658 -0.0053834617 0.70248604
-0.0066891541 -0.0066891611 0.70151526
-0.0066484287 -0.0079781115 0.70053202
-0.0066081951 -0.0092514455 0.6995607
-0.0066590039 -0.01065439 0.70078731
-0.0067588701 -0.012165934 0.70319831
-0.0068114437 -0.01362288 0.70446754
-0.0068608834 -0.015093923 0.70566112
-0.0069110463 -0.016586512 0.70687217
-0.0069619757 -0.018101126 0.70810169
-0.0070136329 -0.019638181 0.70934886
-0.0071852659 -0.021555781 0.71349239
-0.0076641105 -0.024525166 0.72505277
-0.0076460657 -0.025996625 0.72461712
-0.0076080621 -0.02738899 0.72369957
-0.0078877071 -0.029973269 0.73045087
-0.0079489863 -0.031795919 0.73193026
-0.0080112256 -0.03364712 0.73343283
-0.0080744466 -0.035527587 0.73495913
-0.0081566311 -0.037520468 0.73694324
-0.0054313317 0.01900968 0.70392966
-0.0054361536 0.017667502 0.70407522
-0.005441709 0.016325146 0.70424283
-0.0052087153 0.01432398 0.69721162
-0.005196155 0.012990385 0.69683266
-0.005186731 0.011670172 0.69654822
-0.0052065495 0.01041311 0.6971463
-0.0052367598 0.0091643631 0.69805801
-0.005267303 0.0079009533 0.69897968
-0.0052982243 0.0066227913 0.69991285
-0.0053294906 0.0053295195 0.70085633
-0.0053611491 0.0040208697 0.70181179
-0.0053931642 0.0026965737 0.70277786
-0.0054255859 0.0013564229 0.70375627
-0.0054583782 2.9802322e-08 0.70474589
-0.0054855221 -0.0013713539 0.70556504
-0.0054753008 -0.0027376413 0.70525658
-0.0053909053 -0.0040431619 0.70270973
-0.0053909468 -0.0053909421 0.70271093
-0.005380908 -0.0067260861 0.70240802
-0.0053488319 -0.008023262 0.7014401
-0.0053162812 -0.0093034804 0.70045775
-0.0053440193 -0.010688007 0.70129478
-0.0053849523 -0.012116104 0.70253015
-0.0054235747 -0.013558894 0.7036956
-0.0054627545 -0.015022546 0.70487797
-0.0055025266 -0.016507596 0.70607817
-0.0055428599 -0.018014282 0.70729536
-0.0056719515 -0.019851834 0.711191
-0.0057656672 -0.021621257 0.71401918
-0.0061298013 -0.024519205 0.72500789
-0.0061357818 -0.026077062 0.72518837
-0.0061921482 -0.027864635 0.72688937
-0.0062785256 -0.029822975 0.729496
-0.0063270275 -0.031635106 0.73095965
-0.006376314 -0.033475637 0.73244703
-0.0064287526 -0.035358131 0.73402953
-0.0040065511 0.020032793 0.70123589
-0.0040682368 0.018985093 0.70371795
-0.0040746452 0.017656773 0.70397586
-0.0038586429 0.015434623 0.69528455
-0.0038496368 0.014115334 0.69492221
-0.003844412 0.01281473 0.69471192
-0.0038645938 0.011593819 0.69552398
-0.0038867849 0.010364771 0.69641691
-0.0039092177 0.0091214776 0.69731951
-0.0039319252 0.0078638792 0.69823319
-0.0039548837 0.0065914989 0.69915694
-0.0039781267 0.0053041875 0.7000922
-0.0040016295 0.0040016472 0.70103788
-0.0040254267 0.0026836395 0.70199543
-0.0040494935 0.0013498366 0.70296377
-0.0040738489 2.9802322e-08 0.70394373
-0.0040940889 -0.0013646781 0.70475817
-0.0039901258 -0.0026600659 0.70057499
-0.004005658 -0.0040056705 0.70120001
-0.0040319506 -0.0053759217 0.70225793
-0.0040485025 -0.0067474842 0.70292389
-0.0040344475 -0.0080688596 0.70235837
-0.0040097414 -0.0093560219 0.70136422
-0.0039940551 -0.010650814 0.70073313
-0.004019978 -0.012059927 0.70177621
-0.0040486753 -0.013495564 0.70293087
-0.0040777852 -0.014951855 0.70410216
-0.0041073333 -0.016429305 0.70529103
-0.0041966764 -0.018185616 0.70888597
-0.0042707645 -0.019930214 0.71186703
-0.0043339413 -0.021669686 0.71440905
-0.0045805229 -0.02442947 0.72433078
-0.0046090186 -0.026117772 0.72547734
-0.004648108 -0.027888626 0.72705019
-0.0046853796 -0.029674053 0.7285499
-0.0047214134 -0.031476051 0.72999978
-0.004758006 -0.033306003 0.73147213
-0.0026593206 0.022604227 0.70052892
-0.0025883331 0.020706683 0.69624448
-0.0026214714 0.019661069 0.69824457
-0.0025487384 0.01784119 0.69385475
-0.0025413937 0.016519099 0.69341141
-0.0025355334 0.015213221 0.69305778
-0.0025357925 0.013946861 0.69307333
-0.0025500664 0.012750328 0.69393486
-0.0025645492 0.011540502 0.69480896
-0.0025792071 0.010316849 0.69569367
-0.0025940239 0.0090790987 0.69658792
-0.0026090215 0.0078270733 0.6974932
-0.0026241937 0.0065605044 0.6984089
-0.0026395333 0.005279094 0.69933462
-0.0026550635 0.0039826035 0.70027208
-0.0026707673 0.0026707947 0.7012198
-0.0026866575 0.0013433397 0.70217884
-0.0026984145 -0 0.70288849
-0.0026282826 -0.0013141334 0.69865566
-0.0026406466 -0.0026406348 0.69940186
-0.0026578661 -0.0039868057 0.70044118
-0.0027253039 -0.0054505765 0.7045114
-0.0027213979 -0.0068034828 0.70427567
-0.0027050106 -0.0081149936 0.70328659
-0.002688362 -0.0094092488 0.70228183
-0.002671907 -0.010687619 0.70128864
-0.0026676096 -0.012004197 0.70102918
-0.0026865641 -0.013432831 0.70217323
-0.0027058006 -0.014881879 0.70333427
-0.002760608 -0.016563624 0.70664215
-0.0028848562 -0.018751532 0.71414119
-0.002857361 -0.020001501 0.71248174
-0.0029069271 -0.021801949 0.71547335
-0.0030388599 -0.024310887 0.72343618
-0.0030615788 -0.026023418 0.72480738
-0.003084654 -0.027761877 0.7262001
-0.0031080656 -0.029526591 0.72761309
-0.0031318495 -0.031318486 0.72904861
-0.0013181395 0.023726523 0.69913828
-0.001275052 0.021675915 0.69393712
-0.0012646936 0.020235121 0.6926868
-0.0012584324 0.018876493 0.69193101
-0.0012555177 0.017577291 0.6915791
-0.0012526887 0.016284972 0.69123763
-0.0012551141 0.015061349 0.69153047
-0.0012621349 0.013883501 0.69237792
-0.00126923 0.012692332 0.69323438
-0.0012764103 0.011487722 0.6941011
-0.0012836674 0.010269344 0.69497716
-0.0012910075 0.0090370476 0.69586313
-0.0012984369 0.0077906549 0.69675994
-0.0013059522 0.006529808 0.69766712
-0.0013135502 0.0052542388 0.69858426
-0.0013212421 0.0039637387 0.69951278
-0.0013290194 0.0026580095 0.70045161
-0.0013340659 0.0013340712 0.70106077
-0.0012989757 -0 0.69682491
-0.0013058002 -0.001305759 0.6976487
-0.0013142159 -0.0026284158 0.69866467
-0.0013686527 -0.0041059554 0.70523572
-0.0013743857 -0.005497545 0.70592773
-0.001368809 -0.0068440139 0.70525461
-0.0013602835 -0.0081616938 0.70422554
-0.0013518634 -0.0094630122 0.70320904
-0.0013435469 -0.010748357 0.70220518
-0.0013353272 -0.012017936 0.701213
-0.0013370638 -0.013370633 0.70142269
-0.0013610773 -0.014971823 0.70432138
-0.0014569557 -0.017483473 0.71589488
-0.001451557 -0.018870205 0.71524322
-0.0014421946 -0.020190716 0.71411306
-0.0015009929 -0.02251485 0.7212106
-0.0015120839 -0.024193347 0.72254944
-0.0015233401 -0.025896788 0.72390819
-0.0015347585 -0.02762562 0.72528648
-0.0015463561 -0.029380769 0.72668648
0 0.024835885 0.69781184
0 0.022632122 0.69179904
0 0.021223605 0.69072533
0 0.019890875 0.69008964
0 0.018609256 0.68978047
0 0.017331928 0.6894635
0 0.016153991 0.69002151
0 0.014993876 0.69085157
0 0.013820946 0.69169146
0 0.012634844 0.69254076
0 0.01143536 0.69339907
0 0.010222316 0.69426715
0 0.0089954734 0.69514561
0 0.0077545345 0.69603354
0 0.0064993501 0.69693232
0 0.0052295625 0.69784093
0 0.0039450228 0.69876075
0 0.0026379824 0.69923913
0 0.0012844503 0.69507051
0 2.9802322e-08 0.69593382
0 -0.0012998283 0.69692707
0 -0.0027084649 0.70349658
0 -0.0040949285 0.70479178
0 -0.0054927766 0.7057842
0 -0.0068760216 0.70602757
0 -0.0082089305 0.70517588
0 -0.0095174611 0.7041477
0 -0.010809809 0.70313239
0 -0.012086183 0.70212877
0 -0.013423741 0.70206422
0 -0.015091509 0.70563436
0 -0.017496645 0.71602768
0 -0.018948287 0.71596789
0 -0.020366549 0.7156291
0 -0.022407353 0.7203452
0 -0.024076909 0.72167116
0 -0.02577123 0.72301692
0 -0.027490735 0.7243818
0 -0.029682845 0.72860581
0.001253371 0.025067449 0.69132006
0.0012403514 0.023566693 0.68974841
0.0012328522 0.022191346 0.68884319
0.0012285413 0.020885229 0.68832278
0.001226066 0.01961711 0.68802404
0.0012240619 0.018360943 0.68778211
0.0012303552 0.017225027 0.68854177
0.0012371012 0.016082346 0.68935609
0.0012439215 0.014927059 0.69017935
0.0012508128 0.013758957 0.69101125
0.0012577855 0.012577891 0.69185287
0.0012648317 0.011383474 0.69270349
0.0012719621 0.010175735 0.69356412
0.0012791685 0.0089541972 0.69443411
0.0012864572 0.0077187419 0.69531387
0.0012938341 0.0064691901 0.69620436
0.0013012913 0.005205214 0.69710445
0.0013040947 0.0039122999 0.69744289
0.0012702694 0.0025405288 0.69335985
0.0012776869 0.001277715 0.69425523
0.0012857383 2.9802322e-08 0.69522709
0.0013401218 -0.001340121 0.70179176
0.0013502506 -0.0027004778 0.70301443
0.0013591235 -0.0040773451 0.70408547
0.0013681138 -0.0054724216 0.70517069
0.0013753431 -0.0068767369 0.70604336
0.0013756317 -0.008253783 0.70607823
0.0013674999 -0.009572506 0.70509666
0.0013589907 -0.010871917 0.7040695
0.0013505813 -0.012155235 0.70305437
0.0013555868 -0.013555884 0.70365858
0.0013740704 -0.015114754 0.70588976
0.0014551618 -0.017461926 0.71567833
0.0014606059 -0.018987864 0.71633548
0.0014735266 -0.020629406 0.71789515
0.0014867289 -0.022300929 0.71948886
0.001497603 -0.023961633 0.72080141
0.0015086437 -0.025646955 0.72213417
0.0015325313 -0.027585566 0.72501773
0.0025186162 0.027704805 0.69203669
0.0024701043 0.025936127 0.68910873
0.002448624 0.024486244 0.68781233
0.0024356907 0.023139089 0.68703169
0.002428541 0.021856874 0.68660015
0.0024237046 0.020601541 0.68630826
0.0024202354 0.019361943 0.68609887
0.0024198478 0.018148839 0.68607551
0.0024497029 0.017147899 0.68787742
0.0024632749 0.016011328 0.6886965
0.0024767949 0.014860779 0.68951255
0.0024904551 0.013697505 0.69033706
0.0025042759 0.012521386 0.69117117
0.0025182511 0.011332154 0.69201463
0.0025323736 0.010129511 0.69286704
0.0025466555 0.0089133084 0.69372904
0.0025610996 0.0076833367 0.69460076
0.0025753456 0.0064384043 0.69546062
0.0025781451 0.0051563084 0.6956296
0.0025132603 0.0037699044 0.69171345
0.0025281634 0.0025281608 0.69261289
0.0025439055 0.0012719631 0.69356304
0.0026522363 -0 0.70010144
0.0026716914 -0.0013358593 0.70127559
0.0026890589 -0.0026890635 0.70232391
0.0027066541 -0.0040599704 0.70338577
0.0027244813 -0.0054489672 0.70446169
0.0027425447 -0.0068563223 0.70555198
0.0027556382 -0.008266896 0.70634222
0.0027508496 -0.0096279681 0.70605326
0.0027336874 -0.010934711 0.70501733
0.0027166849 -0.012225062 0.70399117
0.0027149762 -0.013574868 0.70388806
0.0028773907 -0.015825599 0.71369064
0.0028974132 -0.01738444 0.71489912
0.0029176918 -0.018964946 0.71612298
0.0029382687 -0.020567834 0.71736491
0.0029593899 -0.022195399 0.71863973
0.0029809447 -0.02384755 0.71994066
0.0030088094 -0.025574893 0.72162247
0.0037062231 0.028414398 0.6891517
0.0036543047 0.026798218 0.68706262
0.0036267533 0.025387287 0.68595409
0.0036097609 0.024065077 0.68527031
0.0036009823 0.022806227 0.68491709
0.0035938933 0.021563351 0.68463182
0.0035902418 0.020344704 0.6844849
0.0035902788 0.019148171 0.68448639
0.0035926299 0.017963171 0.68458098
0.0035971177 0.016786575 0.68476158
0.0036035092 0.015615225 0.68501878
0.0036987667 0.014795095 0.68885165
0.0037190891 0.013636678 0.68966937
0.0037396227 0.012465417 0.69049561
0.0037603979 0.011281222 0.69133151
0.0037813913 0.010083735 0.69217616
0.0038026206 0.008872807 0.69303042
0.0038235707 0.0076471567 0.69387335
0.003739113 0.0062318742 0.69047505
0.0037298948 0.0049732327 0.69010413
0.0037522898 0.0037522912 0.69100523
0.0037753927 0.0025169253 0.69193482
0.0039372123 0.0013124347 0.69844592
0.0039652339 2.9802322e-08 0.69957346
0.0039907368 -0.0013302267 0.70059961
0.0040165703 -0.0026777089 0.70163906
0.00404274 -0.0040427744 0.70269203
0.004069237 -0.005425632 0.70375818
0.0040961001 -0.006826818 0.70483911
0.0041233199 -0.0082466304 0.70593435
0.0041379035 -0.0096550882 0.70652115
0.0041243639 -0.010998309 0.70597637
0.0040985639 -0.012295693 0.70493823
0.0040891743 -0.013630539 0.70456046
0.0042967657 -0.015754789 0.71291327
0.0043264939 -0.01730597 0.71410942
0.0043566371 -0.018878728 0.71532226
0.0043872213 -0.020473659 0.71655285
0.0044182376 -0.02209115 0.71780092
0.0044519384 -0.023743629 0.71915692
0.0048619919 0.029171944 0.68674839
0.0048078033 0.027644843 0.68511307
0.0047762138 0.026269168 0.68415976
0.0047570225 0.024974406 0.68358064
0.0047468035 0.023734033 0.68327224
0.0047378391 0.022504747 0.6830017
0.0047348049 0.021306604 0.68291014
0.0047357082 0.02012676 0.68293738
0.0047393902 0.018957555 0.68304849
0.0047452636 0.017794758 0.68322575
0.0047542239 0.016639829 0.68349612
0.0047647851 0.015485585 0.68381488
0.0047774124 0.014332265 0.68419594
0.0047938903 0.013183206 0.68469322
0.0049639926 0.012409985 0.68982649
0.0049914285 0.011230767 0.6906544
0.0050191688 0.010038346 0.6914916
0.005046065 0.0088306367 0.69230324
0.0049621849 0.007443279 0.68977189
0.0049213166 0.0061516464 0.68853867
0.0049508899 0.0049509108 0.68943107
0.0049810354 0.0037357807 0.69034082
0.0051958831 0.0025979877 0.69682443
0.005231753 0.0013079345 0.69790685
0.0052650482 2.9802322e-08 0.69891167
0.0052987495 -0.0013246834 0.69992864
0.0053329058 -0.0026664436 0.70095944
0.0053675054 -0.0040256381 0.7020036
0.0054025562 -0.0054025352 0.70306128
0.005438068 -0.0067975819 0.70413303
0.0054740286 -0.0082110167 0.7052182
0.0055101835 -0.0096427798 0.70630926
0.0055242879 -0.011048585 0.7067349
0.005496521 -0.012367159 0.70589697
0.0054985867 -0.01374647 0.70595932
0.005703419 -0.015684426 0.71214068
0.0057427259 -0.017228127 0.71332687
0.0057825786 -0.018793344 0.71452957
0.0058229887 -0.020380437 0.71574903
0.0058640908 -0.021990299 0.71698934
0.0061365226 0.031909972 0.68817353
0.0059893061 0.029946536 0.68461937
0.0059325323 0.028476149 0.68324876
0.0058991937 0.027136326 0.68244386
0.0058787134 0.025866359 0.68194944
0.0058669015 0.024641037 0.68166429
0.0058571701 0.023428738 0.68142933
0.0058549005 0.022248656 0.68137455
0.0058568344 0.021084636 0.68142122
0.0058620912 0.019931108 0.68154818
0.0058695972 0.018782735 0.68172938
0.0058810418 0.017643124 0.6820057
0.0058946102 0.016504914 0.68233323
0.0059100706 0.015366167 0.68270648
0.0059290901 0.014229804 0.68316567
0.0059495973 0.01308912 0.68366075
0.005972669 0.011945367 0.68421775
0.0062115127 0.011180758 0.6899839
0.0062431418 0.009989053 0.6907475
0.006141338 0.0085978806 0.68828976
0.0060883947 0.0073060989 0.6870116
0.0061247326 0.0061247349 0.68788886
0.0061616376 0.0049293041 0.68877989
0.0064290487 0.0038574338 0.69523573
0.0064720865 0.0025888681 0.69627476
0.0065128221 0.0013025701 0.69725823
0.0065540988 2.9802322e-08 0.6982547
0.0065959021 -0.00131917 0.69926393
0.0066382419 -0.0026552677 0.70028603
0.0066811028 -0.0040086508 0.70132089
0.0067245471 -0.005379647 0.70236969
0.00676856 -0.0067685544 0.70343226
0.0068131532 -0.0081757307 0.70450884
0.0068901065 -0.0096461177 0.7063666
0.0069455272 -0.011112839 0.7077046
0.0069107986 -0.01243946 0.70686626
0.0070173722 -0.014034748 0.7094391
0.0070976433 -0.015614808 0.71137702
0.0071463115 -0.017151117 0.71255195
0.0071956818 -0.018708736 0.71374393
0.0072457083 -0.020287991 0.71495163
0.0072008697 0.032403916 0.6848951
0.0070874793 0.030712426 0.68261385
0.0070317569 0.029298991 0.68149281
0.0069967369 0.027986944 0.68078822
0.0069754338 0.02673915 0.68035966
0.0069621331 0.025527835 0.68009204
0.0069530774 0.024335802 0.67990983
0.0069513619 0.023171216 0.67987537
0.0069544227 0.022022367 0.67993695
0.0069614821 0.020884454 0.68007898
0.0069712121 0.019751757 0.68027472
0.0069846883 0.018625826 0.68054581
0.0070014121 0.01750353 0.68088233
0.0070199892 0.016379982 0.68125606
0.0070425887 0.015258968 0.68171072
0.0070672259 0.014134467 0.68220639
0.0070943772 0.013006389 0.68275261
0.0071249991 0.011874974 0.68336868
0.0071570659 0.010735601 0.68401384
0.0072986563 0.0097315609 0.68686235
0.0072318935 0.0084372461 0.68551922
0.0072746151 0.0072746575 0.68637872
0.0073179733 0.0060983002 0.68725103
0.0076374761 0.0050916672 0.69367892
0.0076870383 0.0038435459 0.69467604
0.0077349232 0.0025783479 0.69563937
0.0077834371 0.0012972653 0.6966154
0.0078325635 -0 0.69760376
0.007882284 -0.0013137162 0.69860411
0.0079326704 -0.0026442111 0.69961774
0.007983705 -0.0039918423 0.70064449
0.0080354009 -0.0053569078 0.70168453
0.0080877701 -0.0067397952 0.70273811
0.0081708804 -0.0081708431 0.70441014
0.0083287721 -0.0097168982 0.70758671
0.0083882194 -0.011184275 0.70878267
0.0083474135 -0.012521118 0.70796174
0.008420133 -0.014033526 0.70942467
0.0084794825 -0.015545726 0.71061873
0.0085374014 -0.017074794 0.71178401
0.0085960822 -0.018624812 0.71296459
0.0082630794 0.033052325 0.68251646
0.0081622014 0.031482786 0.68077683
0.0081050042 0.030104309 0.6797905
0.0080690542 0.028818041 0.67917061
0.0080484953 0.027594864 0.67881602
0.0080335019 0.026395828 0.67855752
0.0080261324 0.025224984 0.6784305
0.0080250464 0.02407515 0.67841172
0.0080292057 0.022940606 0.67848343
0.0080382815 0.021818221 0.67863989
0.008050466 0.0207012 0.67885005
0.008065924 0.019588709 0.67911661
0.0080858469 0.01848194 0.67946017
0.008107814 0.017373919 0.67983902
0.0081336796 0.016267359 0.68028498
0.0081624752 0.015158892 0.6807816
0.008193519 0.014046043 0.68131697
0.0082290294 0.012931347 0.68192929
0.0082660001 0.011808574 0.68256682
0.0083070761 0.010680556 0.68327516
0.0083521754 0.009545356 0.68405282
0.008401189 0.0084011853 0.68489808
0.0084510455 0.0072437823 0.68575776
0.0088212304 0.0063008666 0.69214141
0.0088773798 0.0050728321 0.69310969
0.0089321155 0.0038280487 0.69405365
0.0089875637 0.0025679171 0.69500971
0.0090437056 0.0012919605 0.69597787
0.0091005182 2.9802322e-08 0.69695759
0.0091580842 -0.0013082922 0.69795024
0.0092163831 -0.0026332438 0.69895554
0.0092753936 -0.003975153 0.69997323
0.0093352003 -0.0053344071 0.70100456
0.0094219157 -0.0067299008 0.70249987
0.0095987171 -0.0082274675 0.7055487
0.0098319864 -0.0098319948 0.7095713
0.0098512201 -0.011258513 0.70990294
0.0097895255 -0.012586534 0.70883912
0.0097831469 -0.013975888 0.70872909
0.0098491851 -0.01547727 0.70986789
0.0099161221 -0.016999066 0.71102214
0.010109124 -0.018774092 0.7143504
0.0093035046 0.033725202 0.68040383
0.0092099216 0.032234758 0.67899173
0.0091536324 0.030893534 0.67814243
0.0091185318 0.029635221 0.67761278
0.0090982066 0.028431922 0.67730606
0.009082986 0.027248949 0.67707646
0.0090768468 0.026095957 0.67698383
0.0090772016 0.024962306 0.6769892
0.0090823919 0.023841321 0.6770674
0.009093266 0.022733152 0.67723155
0.0091079846 0.021631449 0.67745364
0.009125446 0.02053228 0.67771709
0.0091486014 0.0194408 0.67806649
0.0091740545 0.018348128 0.67845058
0.0092030307 0.017255723 0.67888778
0.0092359623 0.016162962 0.67938471
0.0092709241 0.015065283 0.67991221
0.0093111396 0.013966709 0.68051898
0.0093529634 0.012860328 0.68115008
0.0093991999 0.011748999 0.68184775
0.0094500687 0.010631353 0.68261528
0.0095049357 0.0095049739 0.68344319
0.0095608719 0.0083657503 0.68428719
0.009981351 0.0074860454 0.69063175
0.010043851 0.0062774122 0.69157475
0.010105154 0.0050525963 0.69249976
0.010167248 0.0038127303 0.69343674
0.010230109 0.0025575459 0.69438517
0.010293715 0.0012867153 0.69534492
0.010358155 2.9802322e-08 0.69631732
0.010423407 -0.0013029277 0.69730186
0.010489447 -0.0026223361 0.69829828
0.010556369 -0.0039586127 0.69930804
0.010644207 -0.0053220987 0.70063341
0.010839578 -0.0067746937 0.70358133
0.011099664 -0.0083247423 0.70750576
0.011401504 -0.0099762976 0.71206021
0.011327585 -0.011327565 0.71094477
0.011254617 -0.012661397 0.70984381
0.011182583 -0.013978243 0.70875692
0.011206838 -0.01540938 0.7091229
0.011350944 -0.017026395 0.71129727
0.010514442 0.036216438 0.68104756
0.010323606 0.034412026 0.67848802
0.010234745 0.032978654 0.67729628
0.010181067 0.031674445 0.67657626
0.010146612 0.030439824 0.67611414
0.010125324 0.02925095 0.67582858
0.010110298 0.028084189 0.67562711
0.01010579 0.02694881 0.67556661
0.010107946 0.025831431 0.67559552
0.010114942 0.024725437 0.67568934
0.010127095 0.023629874 0.67585242
0.010144473 0.022543311 0.67608547
0.010164785 0.021459013 0.67635787
0.010190356 0.020380735 0.67670083
0.010219327 0.019303203 0.67708945
0.010251252 0.018224478 0.67751759
0.010288385 0.017147303 0.67801559
0.010327594 0.01606518 0.67854154
0.010371951 0.014981747 0.67913646
0.010418601 0.013891488 0.67976213
0.010469841 0.012796491 0.68044937
0.010526228 0.011695802 0.68120569
0.010586736 0.010586739 0.68201721
0.010648849 0.0094656646 0.6828503
0.010717754 0.0083360374 0.68377447
0.011187162 0.0074581504 0.69007033
0.011254762 0.0062526464 0.69097698
0.011323226 0.0050325692 0.69189525
0.011392526 0.0037975311 0.69282472
0.011462638 0.0025472641 0.69376504
0.011533662 0.0012815297 0.69471765
0.011605571 2.9802322e-08 0.69568211
0.011678338 -0.0012975931 0.69665813
0.011752068 -0.0026115477 0.69764698
0.011839137 -0.0039463341 0.69881481
0.012053704 -0.0053571463 0.70169258
0.012422489 -0.0069013834 0.70663881
0.012989725 -0.0086598098 0.71424681
0.012904498 -0.010036796 0.71310377
0.01282033 -0.011395842 0.71197486
0.012737252 -0.012737244 0.71086061
0.012655193 -0.014061302 0.70976001
0.012598703 -0.015398413 0.70900232
0.011476468 0.036724687 0.67855799
0.0113214 0.035096377 0.67668617
0.01123908 0.033717245 0.67569244
0.011186145 0.032439828 0.67505348
0.011152504 0.031227022 0.67464739
0.011130533 0.030052453 0.67438221
0.011117463 0.028905421 0.67422438
0.011113836 0.027784586 0.67418063
0.01111789 0.026682943 0.67422956
0.011126933 0.02559194 0.67433876
0.011140347 0.024508774 0.67450058
0.011160527 0.023437113 0.67474425
0.011183841 0.022367716 0.67502564
0.0112117 0.021302253 0.67536193
0.011244244 0.020239651 0.67575479
0.011279028 0.019174337 0.6761747
0.011320331 0.01811251 0.67667329
0.011363758 0.017045647 0.67719746
0.01141209 0.015976936 0.67778087
0.011463557 0.014902651 0.67840219
0.011519538 0.01382345 0.67907792
0.011581317 0.01273945 0.67982358
0.011647273 0.011647284 0.68061978
0.011715407 0.010543883 0.6814422
0.0117907 0.009432584 0.68235111
0.011872077 0.008310467 0.68333346
0.011958618 0.0071751773 0.68437803
0.012456204 0.0062281191 0.69038445
0.012531676 0.0050127208 0.6912955
0.012608022 0.0037823915 0.69221705
0.012685351 0.0025371015 0.69315046
0.012763633 0.0012763441 0.69409549
0.012842889 -0 0.69505215
0.012923087 -0.0012923181 0.69602025
0.013010769 -0.0026021302 0.69707865
0.01324011 -0.0039720237 0.69984704
0.013796846 -0.0055187345 0.70656741
0.014574263 -0.0072871149 0.71595168
0.014521698 -0.008713007 0.71531719
0.014437526 -0.010106236 0.71430111
0.014676016 -0.011740834 0.71718001
0.01423769 -0.012813896 0.71188891
0.014145473 -0.014145464 0.71077567
0.012432841 0.03729853 0.67645901
0.012300443 0.035783112 0.67500609
0.012220255 0.034438908 0.67412615
0.012169054 0.033188373 0.67356431
0.012136943 0.031997412 0.67321187
0.012116512 0.030842066 0.6729877
0.012105154 0.029712677 0.67286307
0.012102088 0.028604954 0.67282939
0.012107762 0.027517647 0.67289168
0.01211901 0.026441514 0.67301512
0.012134477 0.025372088 0.67318487
0.012156862 0.024313748 0.6734305
0.012183134 0.023258746 0.67371881
0.012213226 0.022205919 0.67404902
0.012249354 0.02115798 0.67444545
0.01228775 0.020107239 0.6748668
0.012332352 0.019059122 0.67535627
0.012379966 0.018007219 0.67587876
0.012432152 0.016952962 0.67645144
0.012488412 0.015894383 0.67706883
0.012548972 0.014830619 0.67773336
0.012615949 0.013762861 0.67846835
0.012687097 0.012687117 0.67924917
0.012761097 0.011601001 0.68006116
0.012842608 0.010507613 0.68095565
0.0129305 0.0094040334 0.68192017
0.013023864 0.0082879364 0.68294466
0.013125568 0.0071594417 0.68406075
0.013248085 0.0060218871 0.68540525
0.01373057 0.0049929619 0.69069988
0.013813939 0.0037674606 0.69161475
0.013898326 0.0025269687 0.69254082
0.013983752 0.0012712479 0.69347823
0.01407018 2.9802322e-08 0.6944266
0.01416078 -0.0012873411 0.69542086
0.014399733 -0.002618134 0.69804305
0.015152585 -0.004132539 0.70630467
0.015311438 -0.0055678189 0.70804787
0.016180797 -0.0073548853 0.71758795
0.016072543 -0.00876683 0.71640003
0.015985224 -0.010172367 0.71544176
0.016089186 -0.011701226 0.71658266
0.016194509 -0.013250023 0.71773833
0.013681477 0.039904326 0.6776498
0.01338004 0.037910104 0.67461753
0.013255581 0.03645286 0.67336559
0.013180369 0.035147667 0.67260903
0.013131884 0.033924043 0.67212129
0.013101639 0.032754123 0.67181706
0.013082319 0.031615615 0.67162275
0.013073049 0.030503839 0.67152941
0.013071778 0.029411525 0.67151666
0.013078093 0.028335869 0.6715802
0.013091889 0.027274787 0.67171896
0.013109837 0.026219666 0.67189956
0.013133911 0.025173336 0.67214167
0.013163267 0.024132669 0.67243695
0.013195551 0.02309224 0.67276174
0.013235301 0.022058874 0.67316163
0.013277361 0.021022499 0.6735847
0.013325096 0.019987673 0.67406487
0.013376865 0.018950582 0.67458558
0.013432714 0.017910272 0.67514741
0.01349366 0.016867071 0.67576051
0.013558731 0.015818536 0.67641509
0.013630714 0.014766604 0.67713916
0.013706843 0.013706863 0.6779049
0.013786607 0.012637764 0.6787073
0.013874135 0.011561781 0.67958778
0.0139683 0.010476261 0.68053496
0.014068164 0.0093787909 0.68153954
0.014177128 0.0082699955 0.68263566
0.014293033 0.0071465373 0.68380153
0.014417824 0.0060074031 0.68505687
0.014920113 0.0049734116 0.69010949
0.015010348 0.0037525892 0.69101715
0.015101626 0.0025169551 0.69193542
0.015194076 0.0012661815 0.69286537
0.015288786 -0 0.69381803
0.015533528 -0.0012944639 0.69628
0.016504116 -0.0027506649 0.70604336
0.016537501 -0.004134357 0.70637918
0.018293476 -0.0060978234 0.72404289
0.017762389 -0.0074009895 0.71870053
0.017642666 -0.0088213086 0.71749622
0.017524766 -0.010222793 0.71631032
0.017478047 -0.011652023 0.71584034
0.01452296 0.040217459 0.67487675
0.014305276 0.038514256 0.6728555
0.014194601 0.037124395 0.67182785
0.014124032 0.035853326 0.67117256
0.014077374 0.034652025 0.67073929
0.014046687 0.033495963 0.67045438
0.014028496 0.032373488 0.67028546
0.014021746 0.031279296 0.67022282
0.014022703 0.030202776 0.6702317
0.014029716 0.029138654 0.67029679
0.014045988 0.028091997 0.67044789
0.014066546 0.027051061 0.6706388
0.014092262 0.026016504 0.67087758
0.014124827 0.024990082 0.67118001
0.014160161 0.023963332 0.67150801
0.01420259 0.022942632 0.671902
0.014248285 0.021920443 0.67232633
0.014299072 0.02089864 0.67279792
0.014354965 0.019876122 0.6733169
0.014414331 0.018849522 0.67386812
0.014479897 0.017821461 0.67447692
0.014549389 0.016787767 0.6751222
0.014626179 0.015751272 0.67583525
0.014707086 0.014707118 0.67658651
0.014792429 0.01365453 0.67737895
0.01488578 0.012595654 0.67824572
0.014986033 0.011527747 0.67917657
0.015092181 0.010448426 0.68016225
0.015208032 0.0093587935 0.68123794
0.015331188 0.0082552731 0.68238151
0.015463711 0.00713709 0.68361205
0.015610349 0.0060039759 0.68497372
0.016100315 0.0049539804 0.68952322
0.016197303 0.0037378669 0.69042379
0.016295468 0.0025069714 0.69133532
0.016394829 0.0012611449 0.69225794
0.016642241 -0 0.69455516
0.017851409 -0.0013731718 0.70578289
0.017879602 -0.0027506948 0.70604473
0.019645294 -0.0045334995 0.72243994
0.019746631 -0.0060758591 0.72338086
0.019235132 -0.0088777244 0.71863139
0.019112645 -0.010291398 0.71749407
0.015401926 0.040705085 0.67282307
0.0152183 0.039132774 0.67123985
0.015114982 0.037787497 0.670349
0.01504756 0.036544085 0.66976768
0.01500324 0.035364807 0.66938555
0.014974236 0.034226865 0.66913545
0.014956557 0.033118099 0.66898304
0.01495173 0.032039434 0.66894144
0.014955178 0.03097862 0.66897112
0.014964425 0.029928893 0.66905093
0.014981846 0.02889359 0.66920108
0.015005276 0.02786693 0.66940314
0.015032448 0.026843667 0.66963738
0.015068349 0.025831461 0.66994703
0.015106908 0.02481851 0.67027938
0.01515175 0.02380991 0.67066604
0.015201133 0.022801727 0.67109179
0.01525476 0.021792561 0.67155421
0.015314791 0.020784348 0.67207181
0.015377484 0.019771039 0.67261237
0.015447656 0.01875788 0.67321742
0.015521739 0.017739147 0.67385614
0.015602939 0.016717464 0.67455626
0.015688382 0.015688419 0.67529297
0.015779218 0.014652163 0.67607617
0.015878208 0.013609916 0.67692971
0.015984224 0.012559026 0.67784381
0.016096458 0.011497498 0.67881149
0.016218925 0.010426462 0.67986745
0.016349036 0.0093423426 0.68098927
0.01648902 0.0082445443 0.68219626
0.016643655 0.007133007 0.6835295
0.016811611 0.0060041845 0.68497765
0.016996341 0.0048561096 0.68657047
0.01737503 0.0037232637 0.68983555
0.017479917 0.0024971366 0.69073999
0.017726744 0.0012661815 0.69286811
0.01806283 -0 0.69576597
0.019223759 -0.0013731122 0.70577574
0.016270202 0.041217834 0.67095721
0.016112767 0.039744824 0.66969031
0.016014937 0.038435876 0.66890299
0.015951464 0.037220091 0.66839224
0.015910173 0.036063075 0.66805995
0.015883893 0.034944594 0.66784847
0.015868708 0.033853263 0.66772628
0.015863637 0.032784849 0.66768539
0.015869819 0.031739682 0.66773516
0.01588157 0.030704409 0.66782975
0.01589998 0.029679984 0.66797793
0.01592646 0.028667629 0.66819102
0.015956348 0.027657688 0.66843152
0.015994247 0.026657075 0.66873652
0.016036125 0.025657833 0.66907352
0.016083283 0.024661034 0.66945302
0.016136313 0.02366659 0.66987979
0.016192762 0.022669882 0.67033404
0.016256854 0.021675825 0.6708498
0.016323244 0.020676106 0.6713841
0.016397502 0.019677043 0.67198163
0.016476033 0.018672854 0.67261362
0.016561421 0.017665535 0.6733008
0.01665158 0.016651601 0.67402631
0.016747408 0.015630931 0.67479748
0.016851915 0.014605016 0.67563856
0.016963528 0.013570845 0.67653668
0.017081557 0.012526453 0.67748654
0.017210441 0.011473656 0.67852366
0.017347228 0.010408372 0.67962444
0.01749425 0.0093302727 0.68080759
0.017656572 0.0082397461 0.68211389
0.017832547 0.0071330369 0.68353003
0.018025832 0.006008625 0.68508542
0.018239297 0.0048637986 0.68680328
0.018543512 0.0037087202 0.68925142
0.018786944 0.0025049448 0.69121039
0.019129992 0.0012753308 0.69397104
0.020239837 2.9802322e-08 0.70290244
0.017516792 0.04379198 0.6721788
0.017214518 0.041960388 0.66989827
0.017048549 0.040490329 0.6686461
0.01693028 0.039151311 0.66775388
0.016857026 0.037928313 0.66720122
0.016803632 0.036757916 0.66679841
0.016775541 0.035648018 0.66658646
0.016763199 0.034574151 0.6664933
0.016759409 0.033518821 0.66646469
0.016767092 0.03248626 0.66652274
0.016781617 0.03146556 0.66663229
0.01680089 0.030451626 0.66677767
0.016830491 0.029453397 0.66700101
0.016863316 0.028456867 0.66724867
0.01690305 0.027467489 0.66754842
0.016948242 0.026481628 0.66788936
0.016997624 0.025496423 0.66826195
0.017054407 0.024515718 0.66869032
0.017113466 0.02353102 0.66913587
0.017181586 0.022550821 0.66964978
0.017251858 0.021564841 0.67017996
0.017329834 0.020579189 0.67076826
0.017412771 0.019589394 0.67139399
0.017502179 0.018596083 0.67206848
0.017597185 0.017597198 0.67278528
0.017697737 0.016591609 0.67354393
0.017807368 0.015581459 0.674371
0.017924434 0.01456359 0.67525417
0.018048026 0.013536036 0.67618662
0.018183023 0.012500852 0.67720503
0.018326215 0.011453927 0.67828536
0.018480092 0.01039502 0.67944628
0.01864964 0.0093248188 0.68072546
0.018833296 0.0082395971 0.68211102
0.019034734 0.0071380436 0.6836307
0.019257259 0.0060178638 0.68530953
0.019511923 0.0048779845 0.68723089
0.019822555 0.0037167668 0.68957436
0.020177448 0.0025222003 0.69225186
0.020703966 0.0012940168 0.69622421
0.018707078 0.04511708 0.67285675
0.018332602 0.043135524 0.67019778
0.018122641 0.041575491 0.66870689
0.017970255 0.040168822 0.66762483
0.017850837 0.038851827 0.66677696
0.017763177 0.037616134 0.6661545
0.017701004 0.036443233 0.66571301
0.017659359 0.035318732 0.66541731
0.017645959 0.034253925 0.66532218
0.017647488 0.033218801 0.66533303
0.017664956 0.032212615 0.66545701
0.017686801 0.031212002 0.6656121
0.017717889 0.030224651 0.66583294
0.01775378 0.029241502 0.66608775
0.017795285 0.028263122 0.66638243
0.017843826 0.027290583 0.66672713
0.017895343 0.026316673 0.66709292
0.017955778 0.025349349 0.66752207
0.018018493 0.024377972 0.66796732
0.018089565 0.023410052 0.66847205
0.018163824 0.022437662 0.66899931
0.018245174 0.021464944 0.66957694
0.018332431 0.020489216 0.67019653
0.018425699 0.019509584 0.6708588
0.018525438 0.018525451 0.67156702
0.018630493 0.017534614 0.67231297
0.01874519 0.016539901 0.67312741
0.018867392 0.015537858 0.67399514
0.018996326 0.014526635 0.6749106
0.019137323 0.013508737 0.67591178
0.01928666 0.012479603 0.67697215
0.019446988 0.011439383 0.6781106
0.019623552 0.010388941 0.67936432
0.019814445 0.0093244612 0.68071973
0.020023536 0.0082449913 0.68220443
0.020254642 0.0071487129 0.6838454
0.020518122 0.0060347617 0.68571633
0.020836065 0.0049026012 0.68797386
0.021203976 0.0037418902 0.69058633
0.021727787 0.0025562048 0.69430572
0.019602505 0.044650167 0.67148209
0.019324388 0.04294309 0.669617
0.019120105 0.041426927 0.66824698
0.018957889 0.040022254 0.6671592
0.01882392 0.038693637 0.66626078
0.018719859 0.037439734 0.66556293
0.018643858 0.036251932 0.66505325
0.018587066 0.035108894 0.66467243
0.018557066 0.034021318 0.66447115
0.018548096 0.032974392 0.66441107
0.018558111 0.031961203 0.66447818
0.018589109 0.030981869 0.66468608
0.018628199 0.030012101 0.66494823
0.018671297 0.029044241 0.66523725
0.018723277 0.028084934 0.66558588
0.018777465 0.027123004 0.66594923
0.018840989 0.026168048 0.66637522
0.018907284 0.025209695 0.66681981
0.01898119 0.024253756 0.66731548
0.019059392 0.023294836 0.66783988
0.019143982 0.022334695 0.66840714
0.019235477 0.021372765 0.66902071
0.019332452 0.020406485 0.66967106
0.019436808 0.019436806 0.67037094
0.019546269 0.018460393 0.67110491
0.019665744 0.017480701 0.67190617
0.019793013 0.016494185 0.67275965
0.019927083 0.015498877 0.67365873
0.020073734 0.014497727 0.67464221
0.020228969 0.013485998 0.67568326
0.020395532 0.012463957 0.67680025
0.0205788 0.011432678 0.67802924
0.020776635 0.010388345 0.67935598
0.020992957 0.0093302131 0.68080664
0.021232195 0.008256942 0.68241107
0.021504046 0.0071680248 0.68423414
0.021828033 0.0060633719 0.68640679
0.022208439 0.0049352348 0.68895787
0.022730814 0.0037884712 0.69246101
0.021115748 0.046676964 0.67417717
0.020683689 0.04463321 0.67143226
0.020415815 0.042980671 0.66973042
0.020197522 0.04145807 0.66834354
0.020014504 0.040029049 0.66718078
0.019855052 0.038665116 0.66616774
0.019724077 0.037371963 0.6653356
0.019626329 0.036153793 0.66471463
0.019552162 0.034988075 0.6642434
0.019503124 0.033873856 0.66393191
0.019476829 0.032803118 0.66376483
0.019469477 0.031765997 0.6637181
0.019493794 0.03077969 0.6638726
0.019531801 0.02981174 0.66411406
0.019586967 0.028865039 0.66446453
0.019644551 0.027915984 0.66483033
0.019710355 0.026972085 0.66524845
0.019780276 0.026026696 0.66569269
0.019856904 0.025082409 0.66617948
0.019939065 0.024136752 0.66670156
0.020026768 0.023188919 0.66725868
0.020122359 0.02224052 0.66786599
0.020222887 0.021287292 0.66850471
0.020331753 0.0203318 0.66919637
0.020445531 0.019369453 0.66991913
0.020569623 0.018404394 0.67070758
0.020701719 0.017433047 0.67154676
0.020840721 0.016453207 0.67242992
0.020992875 0.015468478 0.67339659
0.021153705 0.014473587 0.67441833
0.021326315 0.013469279 0.67551494
0.021515917 0.012456596 0.67671955
0.021720279 0.011431724 0.67801791
0.021943649 0.010394394 0.67943698
0.02219044 0.0093433559 0.68100488
0.022470269 0.0082785189 0.68278271
0.022799211 0.0071997941 0.68487251
0.023192305 0.0061032474 0.68736994
0.023713456 0.0049923062 0.69068098
0.022240192 0.046704412 0.67425621
0.021881167 0.044856399 0.67208928
0.021624072 0.043248177 0.67053759
0.021397168 0.041724473 0.66916811
0.021176975 0.040236294 0.66783911
0.020977402 0.038808227 0.66663456
0.020792499 0.037426502 0.66551858
0.020659417 0.036154002 0.66471535
0.020553101 0.034940273 0.66407371
0.020480053 0.033792108 0.66363281
0.02043765 0.032700241 0.66337693
0.020412378 0.031639218 0.66322434
0.020415496 0.030623287 0.66324317
0.020445948 0.029646635 0.66342694
0.020496301 0.028694838 0.66373086
0.020564413 0.027761996 0.66414201
0.020637821 0.026829213 0.66458499
0.020717125 0.0258964 0.66506368
0.020803142 0.024963766 0.66558278
0.020893835 0.024027884 0.66613019
0.020993499 0.023092836 0.66673172
0.021097448 0.022152364 0.66735911
0.021210715 0.02121073 0.66804272
0.02132887 0.02026245 0.66875589
0.021457223 0.019311488 0.66953051
0.021593902 0.018354833 0.67035544
0.021737708 0.017390192 0.67122346
0.021895161 0.016421378 0.67217374
0.022061424 0.015443027 0.67317724
0.022239694 0.014455825 0.67425317
0.022435417 0.013461262 0.67543447
0.022646047 0.012455314 0.67670578
0.022876021 0.011438012 0.67809379
0.023129867 0.010408461 0.67962587
0.023417233 0.0093668997 0.68136024
