# .PCD v0.7 - Point Cloud Data file format
VERSION 0.7
FIELDS x y z
SIZE 4 4 4
TYPE F F F
COUNT 1 1 1
WIDTH 1333
HEIGHT 1
VIEWPOINT 0 0 0 1 0 0 0
POINTS 1333
DATA ascii
-0.014169844 0.0032699704 0.67159796
-0.014512182 0.0022326708 0.67477667
-0.014909709 0.0011469126 0.67846787
-0.015364928 -0 0.68269485
-0.015919702 -0.0012246072 0.68784618
-0.016567163 -0.0025488138 0.69385815
-0.017269326 -0.0039851964 0.700378
-0.018052451 -0.0055545866 0.70764959
-0.018839156 -0.0072458386 0.71495456
-0.022542102 -0.01040405 0.74933803
-0.022873238 -0.012316316 0.7524128
-0.023319593 -0.014350504 0.75655735
-0.023831898 -0.016499013 0.76131439
-0.024407772 -0.018775195 0.76666158
-0.025060736 -0.021205187 0.77272463
-0.015328861 0.021715939 0.69422114
-0.015594413 0.020792574 0.69689244
-0.013026449 0.016283095 0.67106068
-0.012950708 0.015109181 0.67029881
-0.012919289 0.013995916 0.66998279
-0.012871313 0.012871295 0.66950017
-0.012800817 0.011734098 0.66879106
-0.012735602 0.010613024 0.66813505
-0.012698523 0.0095238984 0.66776204
-0.01266843 0.0084455907 0.66745931
-0.012638402 0.0073724091 0.66715729
-0.012614276 0.0063071847 0.66691458
-0.012630018 0.0052625239 0.66707289
-0.012770982 0.0042569935 0.66849089
-0.013219984 0.0033050179 0.67300749
-0.013701663 0.0022836328 0.67785281
-0.014219771 0.0011849999 0.68306458
-0.014778653 2.9802322e-08 0.68868655
-0.015074055 -0.0012561679 0.69165808
-0.016039273 -0.0026732087 0.70136738
-0.016209496 -0.0040523708 0.7030797
-0.017441856 -0.0058139563 0.71547627
-0.017498879 -0.0072911978 0.71604991
-0.017655889 -0.0088279247 0.71762931
-0.019851793 -0.011580199 0.73971832
-0.020252917 -0.013501972 0.74375343
-0.01736551 -0.013024122 0.71470833
-0.021332067 -0.017776728 0.75460875
-0.021951886 -0.020122588 0.76084363
-0.022622911 -0.022622883 0.76759368
-0.012350882 0.026947379 0.67555964
-0.012537652 0.026215106 0.67760921
-0.012735457 0.025470942 0.67977977
-0.01293965 0.024702996 0.68202055
-0.013150405 0.023909867 0.68433332
-0.013368187 0.023090541 0.68672323
-0.011973043 0.019592285 0.6714133
-0.011900832 0.018392205 0.67062086
-0.011858555 0.017248809 0.67015696
-0.011823924 0.016123533 0.66977692
-0.011794407 0.015011042 0.66945302
-0.011765761 0.013904989 0.66913867
-0.011739345 0.012806535 0.66884875
-0.011711648 0.011711687 0.66854483
-0.011683223 0.010621101 0.66823292
-0.011655399 0.0095362365 0.66792756
-0.011627706 0.008456558 0.66762364
-0.011600144 0.0073819458 0.66732121
-0.011594092 0.0063240826 0.66725481
-0.011664576 0.0053021014 0.6680283
-0.012180222 0.0044291914 0.6736868
-0.012626369 0.0034435689 0.67858267
-0.013106395 0.0023829937 0.68385041
-0.01361165 0.0012374222 0.68939495
-0.013707278 2.9802322e-08 0.69044429
-0.013780619 -0.0012527704 0.69124913
-0.014899133 -0.0027089417 0.7035234
-0.014903722 -0.0040646195 0.7035737
-0.014906977 -0.0054206848 0.70360941
-0.013786136 -0.0062664151 0.69130969
-0.014806898 -0.008076489 0.70251113
-0.014751581 -0.0093873441 0.70190412
-0.014672076 -0.010670573 0.70103168
-0.015078878 -0.012337267 0.70549583
-0.015559261 -0.014144748 0.71076739
-0.016074773 -0.016074777 0.71642447
-0.019944793 -0.021757931 0.75889283
-0.020622309 -0.024371803 0.7663278
-0.021375054 -0.027204573 0.77458817
-0.011055983 0.027639955 0.6734823
-0.01109517 0.026628405 0.67395532
-0.011238243 0.025847971 0.67568231
-0.011413065 0.025108784 0.67779261
-0.011593373 0.024346113 0.67996913
-0.010954414 0.02190882 0.67225629
-0.010865591 0.020644635 0.67118406
-0.010818332 0.019473016 0.67061359
-0.010751383 0.018277377 0.66980547
-0.010640139 0.017024219 0.66846257
-0.010605779 0.015908688 0.66804779
-0.010580524 0.014812768 0.66774297
-0.010563058 0.013731956 0.66753215
-0.010566013 0.012679219 0.66756779
-0.010608272 0.011669099 0.66807795
-0.010609793 0.010609806 0.6680963
-0.010601442 0.0095413327 0.66799545
-0.010584004 0.0084672272 0.66778499
-0.010559174 0.0073914528 0.66748524
-0.010556351 0.006333828 0.66745114
-0.010634147 0.0053170919 0.66839021
-0.011385354 0.0045541525 0.67745811
-0.011980636 0.0035941899 0.68464381
-0.012432626 0.002486527 0.69009984
-0.012508938 0.0012509227 0.69102097
-0.012515156 -0 0.69109607
-0.012491131 -0.0012491047 0.69080603
-0.012478929 -0.0024957657 0.69065881
-0.012439971 -0.003731966 0.69018853
-0.012396256 -0.0049585104 0.68966085
-0.012324456 -0.0061622262 0.68879414
-0.012235101 -0.0073410273 0.68771547
-0.012578402 -0.0088048577 0.69185942
-0.0129517 -0.010361314 0.69636559
-0.013347885 -0.012013078 0.70114797
-0.013767381 -0.013767362 0.70621169
-0.014244986 -0.015669495 0.71197695
-0.017561631 -0.021073937 0.75201243
-0.018181723 -0.023636222 0.75949752
-0.018859793 -0.026403695 0.76768261
-0.0099875024 0.028852791 0.67398012
-0.0099430131 0.027619511 0.67338336
-0.0099420333 0.026512116 0.67337024
-0.009955707 0.025442362 0.67355371
-0.0099489288 0.024319679 0.67346275
-0.0098419702 0.022964597 0.67202818
-0.0096879359 0.021528751 0.66996223
-0.0092502087 0.01952821 0.66409129
-0.0091821719 0.01836434 0.6631788
-0.0091515929 0.01728633 0.66276866
-0.009130938 0.016232789 0.66249162
-0.0091186101 0.015197694 0.66232628
-0.0091294181 0.014201313 0.66247123
-0.0091781029 0.013257235 0.6631242
-0.0092411609 0.012321562 0.66396999
-0.0093203168 0.011391521 0.66503167
-0.0093996543 0.010444075 0.66609573
-0.0094290441 0.0094290674 0.6664899
-0.0094895586 0.0084351897 0.66730154
-0.0095026791 0.0073909461 0.66747755
-0.0094970511 0.0063313842 0.66740203
-0.009521137 0.0052895546 0.66772509
-0.01014546 0.0045091212 0.6760987
-0.010332337 0.0034441054 0.6786052
-0.011301374 0.0025114119 0.69160217
-0.0094328271 0.0010481179 0.66654062
-0.0094218003 -0 0.66639274
-0.0094919205 -0.0010546446 0.66733319
-0.011230068 -0.0024955571 0.69064581
-0.0099543128 -0.0033181012 0.67353499
-0.010188795 -0.0045283437 0.67667991
-0.010458462 -0.005810231 0.68029678
-0.010744783 -0.007163167 0.68413699
-0.011047224 -0.008592248 0.68819338
-0.011368795 -0.01010558 0.69250643
-0.011768254 -0.011768281 0.69786412
-0.012661804 -0.014068663 0.70984864
-0.014886222 -0.018194228 0.73968315
-0.015393208 -0.020524263 0.74648303
-0.015951553 -0.023041159 0.75397176
-0.01657052 -0.025776356 0.76227355
-0.017255062 -0.028758436 0.77145481
-0.0088481363 0.027650446 0.67353284
-0.0088268677 0.026480615 0.67321193
-0.0088068442 0.025319695 0.6729098
-0.0082545886 0.022700131 0.66457689
-0.0081898486 0.021498382 0.66360009
-0.0081511121 0.020377785 0.66301554
-0.0081234341 0.019293189 0.66259789
-0.0080991732 0.018223166 0.66223186
-0.0080782492 0.017166287 0.66191614
-0.008060283 0.016120583 0.66164505
-0.0080450969 0.015084535 0.66141587
-0.0080322176 0.014056355 0.66122156
-0.0080255391 0.013041526 0.66112077
-0.0080251684 0.012037784 0.66111517
-0.0080412803 0.011056751 0.6613583
-0.0081056682 0.010132074 0.66232985
-0.0081989076 0.009223789 0.6637367
-0.0082951095 0.0082951188 0.66518831
-0.0083498014 0.0073060989 0.66601354
-0.008413055 0.0063098073 0.66696799
-0.0084246816 0.0052654445 0.66714334
-0.0084320419 0.0042160153 0.66725445
-0.008427415 0.0031602979 0.66718465
-0.0083824843 0.0020956397 0.66650665
-0.0083522853 0.0010440648 0.66605103
-0.0083377799 2.9802322e-08 0.66583216
-0.008346918 -0.0010433495 0.66597003
-0.0084303282 -0.0021075606 0.66722858
-0.0086383671 -0.0032393932 0.6703676
-0.0088573275 -0.0044286549 0.67367148
-0.0090906788 -0.0056816638 0.67719251
-0.009342527 -0.0070068538 0.6809926
-0.0097138584 -0.0084996223 0.68659556
-0.010456814 -0.01045683 0.69780594
-0.011406744 -0.012832582 0.71213925
-0.011664841 -0.014581025 0.71603364
-0.012935646 -0.017786503 0.73520863
-0.01359971 -0.020399511 0.74522853
-0.013887587 -0.022567272 0.74957228
-0.014443801 -0.025276631 0.75796485
-0.015066898 -0.028250396 0.76736665
-0.0077886535 0.028929293 0.67433524
-0.0077525824 0.027687788 0.67371321
-0.0077327662 0.026512384 0.67337155
-0.0071994625 0.023655415 0.66417503
-0.0071643027 0.0225164 0.66356874
-0.0071401796 0.021420538 0.66315275
-0.0071192598 0.02034077 0.66279203
-0.0071023586 0.019277841 0.66250056
-0.0070857648 0.018220544 0.6622144
-0.0070686322 0.017166674 0.661919
-0.0070505394 0.016115546 0.66160697
-0.0070331492 0.015071064 0.66130704
-0.0070158849 0.014031768 0.66100931
-0.0070024934 0.013004631 0.6607784
-0.0069909408 0.011984497 0.6605792
-0.0069862823 0.010978431 0.66049886
-0.0069905794 0.0099865496 0.66057295
-0.007009435 0.0090121329 0.66089815
-0.0070824018 0.0080941617 0.6621564
-0.0071737058 0.0071736872 0.66373086
-0.0072682849 0.0062299669 0.66536182
-0.0073194662 0.0052282214 0.66624445
-0.0073563023 0.0042036176 0.66687965
-0.0073515885 0.0031506717 0.66679841
-0.0073327497 0.0020951033 0.66647351
-0.0073155477 0.001045078 0.66617686
-0.0072984039 2.9802322e-08 0.66588128
-0.0072881691 -0.0010411441 0.66570473
-0.0073029618 -0.00208655 0.66595978
-0.0074062087 -0.0031740367 0.66774023
-0.0076147481 -0.0043512583 0.67133641
-0.0079966839 -0.0057118833 0.67792261
-0.0085793436 -0.007353723 0.68797028
-0.0092535149 -0.0092535019 0.69959593
-0.009425384 -0.010771841 0.70255965
-0.010170842 -0.013076812 0.71541464
-0.010168715 -0.014526725 0.71537799
-0.011287805 -0.017737985 0.734676
-0.011510721 -0.019732654 0.73852009
-0.011948911 -0.022190809 0.74607635
-0.012444788 -0.024889529 0.75462747
-0.013007629 -0.027873456 0.76433325
-0.0067091812 0.030191332 0.67500305
-0.0066714813 0.028909773 0.67424458
-0.0062264418 0.025943518 0.66529107
-0.0061810119 0.024724066 0.66437709
-0.0061570075 0.02360189 0.66389418
-0.0061412109 0.0225178 0.66357636
-0.0062557748 0.02189523 0.66588122
-0.0064733638 0.021577895 0.67025882
-0.0066972412 0.021207929 0.67476285
-0.0071330681 0.0213992 0.68353099
-0.0071302871 0.020202488 0.68347508
-0.0071259975 0.019002676 0.68338877
-0.0071208132 0.017802089 0.6832844
-0.0071132816 0.016597658 0.68313295
-0.0071043614 0.01539278 0.68295348
-0.0059929066 0.011985838 0.66059273
-0.0059788655 0.010961294 0.66031021
-0.0059700822 0.009950161 0.66013354
-0.0059694839 0.0089542568 0.6601215
-0.005980975 0.0079746544 0.66035271
-0.006021258 0.0070248246 0.66116309
-0.0061101094 0.0061101317 0.66295063
-0.0061962963 0.0051635802 0.66468465
-0.0062423632 0.0041615665 0.66561145
-0.0062956344 0.0031478405 0.66668314
-0.0062932777 0.0020977557 0.66663575
-0.0062784762 0.0010464191 0.66633797
-0.0062637627 -0 0.66604191
-0.0062557748 -0.0010426044 0.66588122
-0.006267698 -0.0020892322 0.66612113
-0.0064778691 -0.0032389164 0.67034942
-0.0069221421 -0.0046147406 0.67928755
-0.0073886984 -0.0061572194 0.68867385
-0.0074738027 -0.0074737966 0.69038606
-0.0080861077 -0.0094337463 0.70270467
-0.0080868918 -0.01078251 0.70272046
-0.0081690243 -0.012253523 0.70437288
-0.0087264767 -0.014544129 0.71558791
-0.0087065054 -0.015961885 0.71518612
-0.0086837318 -0.017367482 0.714728
-0.008639398 -0.01871869 0.71383607
-0.010547 -0.024609655 0.75221395
-0.011047306 -0.027618259 0.76227939
-0.011627777 -0.031007409 0.77395755
-0.0056135841 0.031436086 0.67554861
-0.0055812858 0.030138969 0.67476892
-0.0052014398 0.027047545 0.66559863
-0.0051922835 0.025961429 0.66537756
-0.0053206068 0.025538921 0.66847557
-0.0054531558 0.025084525 0.67167556
-0.0055869934 0.024582773 0.67490673
-0.0057232818 0.024037778 0.67819703
-0.0058074011 0.023229629 0.68022788
-0.0058869403 0.022370398 0.68214804
-0.0059645902 0.021472514 0.68402272
-0.0059634438 0.020275742 0.68399501
-0.005960702 0.019074261 0.68392879
-0.0059567373 0.017870247 0.68383312
-0.0059531042 0.016668737 0.68374538
-0.0059463191 0.015460461 0.68358159
-0.0059383316 0.014252037 0.68338871
-0.0059281597 0.013041973 0.6831432
-0.004976565 0.0099531114 0.66016966
-0.0049665351 0.008939743 0.65992755
-0.0049637542 0.0079420209 0.65986037
-0.0049711256 0.0069596171 0.66003835
-0.0049981694 0.0059978068 0.66069126
-0.0051398259 0.0051398575 0.66411114
-0.0051495302 0.0041196644 0.66434538
-0.0051959795 0.0031175911 0.66546679
-0.0052417084 0.0020967126 0.66657078
-0.0052387682 0.0010477901 0.66649979
-0.0052300631 -0 0.66628969
-0.005243401 -0.0010486841 0.66661167
-0.0054487092 -0.0021794438 0.67156821
-0.0058261752 -0.0034956932 0.68068111
-0.0061846031 -0.0049476624 0.68933427
-0.0062122014 -0.0062121451 0.69000053
-0.0062134457 -0.0074561238 0.69003057
-0.006763659 -0.0094691217 0.70331395
-0.0067493124 -0.010798901 0.70296752
-0.0067337737 -0.012120754 0.70259249
-0.0067177867 -0.013435572 0.70220643
-0.0066912924 -0.014720827 0.70156687
-0.0067075938 -0.016098231 0.70196038
-0.0069712223 -0.018125147 0.70832491
-0.0072612134 -0.020331353 0.71532595
-0.009171389 -0.02751416 0.76144171
-0.0096949516 -0.03102386 0.77408159
-0.0045091081 0.032691061 0.67609912
-0.0044824523 0.031377196 0.6752947
-0.004179521 0.028211772 0.66615295
-0.0041746623 0.027135313 0.66600633
-0.0042714505 0.026696593 0.66892713
-0.0043621142 0.026172698 0.67166317
-0.0044198195 0.02541399 0.67340457
-0.0044779466 0.024628699 0.67515874
-0.0045524114 0.023900181 0.67740589
-0.0046553048 0.023276567 0.680511
-0.0047764275 0.022688061 0.68416619
-0.0047880113 0.021546096 0.68451577
-0.0047870711 0.020345062 0.6844874
-0.0047864118 0.019145668 0.68446749
-0.0047842041 0.017940789 0.68440092
-0.004781439 0.016735077 0.68431747
-0.0047772811 0.015526175 0.68419194
-0.0047718519 0.014315546 0.68402815
-0.0047668931 0.013108939 0.68387848
-0.0051522381 0.012880623 0.69550729
-0.005375227 0.012094289 0.70223659
-0.0039674668 0.0079349577 0.65975362
-0.0039646034 0.0069380701 0.65966725
-0.0039707879 0.0059562027 0.65985394
-0.0039936067 0.0049920082 0.66054249
-0.0041073887 0.0041073859 0.66397619
-0.004121481 0.0030911267 0.66440147
-0.0041629961 0.0020815134 0.66565424
-0.0041920892 0.0010480285 0.66653222
-0.0041933414 -0 0.66657001
-0.0042241961 -0.0010560155 0.66750115
-0.0045311144 -0.0022655129 0.67676318
-0.0049710232 -0.0037282407 0.69003868
-0.004989672 -0.0049896836 0.69060147
-0.0049869511 -0.0062336624 0.69051927
-0.0049762558 -0.0074643791 0.69019657
-0.0049647549 -0.008688271 0.68984944
-0.0049533071 -0.00990659 0.68950403
-0.0049367691 -0.011107713 0.68900496
-0.004941789 -0.012354434 0.68915641
-0.0051501761 -0.014162958 0.69544506
-0.0053015794 -0.015904725 0.70001411
-0.005515913 -0.017926723 0.70648217
-0.0057501625 -0.020125538 0.71355128
-0.0073494487 -0.027560443 0.761814
-0.0033658773 0.031414866 0.67545718
-0.0031235665 0.028112113 0.66570735
-0.0031610378 0.027395666 0.66721511
-0.0032010495 0.026675463 0.66882503
-0.0032520606 0.026016504 0.67087758
-0.0033219955 0.025468647 0.67369151
-0.0033969623 0.024911076 0.67670798
-0.0034759475 0.024331629 0.67988604
-0.0035630597 0.023753762 0.68339121
-0.0036020523 0.022812992 0.68496013
-0.0036025501 0.021615326 0.68498021
-0.003602264 0.020412832 0.68496871
-0.0036020523 0.019210964 0.68496013
-0.0036016167 0.018008083 0.6849426
-0.0036001366 0.016800642 0.68488312
-0.0036278893 0.015720874 0.68599975
-0.0037719775 0.015087903 0.69179744
-0.0039034938 0.014312834 0.6970892
-0.0040312959 0.013437688 0.70223153
-0.0041567469 0.012470275 0.70727938
-0.0042828894 0.011421055 0.71235496
-0.0029719861 0.0069346428 0.65960824
-0.0029702922 0.0059406161 0.65954006
-0.0029760078 0.0049600303 0.65977007
-0.0029974098 0.0039965808 0.66063118
-0.0030772134 0.003077209 0.66384232
-0.0030997787 0.0020665228 0.66475022
-0.0031333687 0.0010444522 0.66610175
-0.0031440763 -0 0.66653264
-0.0031617759 -0.0010538995 0.66724479
-0.0033624356 -0.0022416115 0.67531872
-0.0034467089 -0.0034466982 0.67870963
-0.0037539653 -0.0050052702 0.6910727
-0.0037456022 -0.0062426329 0.69073611
-0.0037369146 -0.0074738264 0.69038659
-0.0037277739 -0.0086981356 0.69001877
-0.0037130748 -0.0099015236 0.68942738
-0.0036846986 -0.011054099 0.68828559
-0.0036590123 -0.01219669 0.68725204
-0.003791404 -0.01390177 0.69257903
-0.0039384025 -0.015753597 0.69849384
-0.0040971464 -0.017754287 0.70488125
-0.0052375705 -0.024441987 0.7507683
-0.0055636591 -0.027818292 0.76388913
-0.0020931151 0.02930361 0.66635549
-0.0020840012 0.028134048 0.66580534
-0.0021121299 0.027457714 0.66750312
-0.0021575468 0.026969343 0.67024422
-0.0022049523 0.026459426 0.67310542
-0.0022544956 0.025926709 0.6760956
-0.0023053139 0.025358468 0.67916274
-0.0023553348 0.02473104 0.68218184
-0.0024057657 0.024057657 0.68522561
-0.0024079748 0.022875786 0.68535888
-0.0024084088 0.021675706 0.68538511
-0.0024091352 0.020477653 0.68542892
-0.0024094693 0.019275784 0.68544906
-0.0024094274 0.018070698 0.68544662
-0.0024402493 0.017081738 0.68730682
-0.0025151887 0.016348749 0.6918298
-0.0025891047 0.015534639 0.69629109
-0.0026634587 0.014649034 0.70077872
-0.0027387184 0.013693631 0.70532101
-0.0028144177 0.012664884 0.70988989
-0.0028910849 0.011564374 0.71451712
-0.0029691258 0.01039198 0.71922731
-0.0019793995 0.0059382319 0.65949208
-0.0019791233 0.0049478114 0.65947545
-0.0019846852 0.0039693713 0.65981114
-0.0020058637 0.0030088127 0.6610893
-0.0020492554 0.0020492673 0.66370827
-0.0020724724 0.0010362267 0.66510957
-0.0020934241 2.9802322e-08 0.66637409
-0.0020987855 -0.0010493994 0.66669768
-0.0021113793 -0.0021113455 0.6674577
-0.0022690634 -0.003403604 0.67697489
-0.0021025129 -0.0042050183 0.66692269
-0.0021052454 -0.0052630901 0.66708755
-0.0024935559 -0.0074806809 0.69052422
-0.0024815975 -0.008685559 0.68980235
-0.002277317 -0.0091092587 0.67747301
-0.0023319405 -0.010493696 0.6807698
-0.0024147774 -0.012073845 0.6857695
-0.0025040684 -0.013772368 0.69115865
-0.0026088257 -0.015652955 0.69748133
-0.0034034573 -0.022122473 0.74544162
-0.0035282501 -0.024697721 0.7529735
-0.0037949872 -0.02846241 0.76907253
-0.0010553274 0.030604511 0.66741401
-0.0010461574 0.029292405 0.66630709
-0.0010516478 0.02839452 0.66696984
-0.0010735141 0.027911395 0.66960937
-0.0010955451 0.027388662 0.67226875
-0.0011179127 0.026829928 0.67496878
-0.0011412278 0.026248276 0.67778313
-0.0011655244 0.025641531 0.68071604
-0.0011917723 0.025027245 0.68388438
-0.001206722 0.024134457 0.68568897
-0.0012072125 0.022937059 0.68574822
-0.0012075985 0.021736801 0.68579477
-0.0012080268 0.020536453 0.68584651
-0.0012083165 0.019333065 0.6858815
-0.0012146991 0.018220484 0.68665189
-0.0012478974 0.017470598 0.69065928
-0.0012813715 0.016657829 0.6947
-0.0013147431 0.015776932 0.69872826
-0.0013488249 0.014837086 0.70284235
-0.0013834529 0.013834566 0.70702231
-0.0014184105 0.012765676 0.71124208
-0.001454011 0.011632115 0.71553946
-0.0014901528 0.010431051 0.71990216
-0.0015269148 0.0091615319 0.72433966
-0.00098897866 0.0049449205 0.65940505
-0.00098950532 0.0039580464 0.65946865
-0.00099425064 0.0029827654 0.66004145
-0.0010259467 0.0020519197 0.66386747
-0.0010286103 0.0010286272 0.66418904
-0.0010416695 -0 0.6657654
-0.0010476937 -0.0010476708 0.66649252
-0.0010476146 -0.0020951927 0.66648304
-0.0010455939 -0.003136754 0.66623914
-0.0010421318 -0.0041685104 0.66582119
-0.0010419663 -0.0052098036 0.66580123
-0.0010511451 -0.0063068569 0.66690922
-0.0010846226 -0.0075923502 0.67095029
-0.0011177976 -0.0089423358 0.67495489
-0.0011557549 -0.010401785 0.6795367
-0.0011967843 -0.011967808 0.68448937
-0.0013593681 -0.014953017 0.70411491
-0.0014656764 -0.017588109 0.71694756
-0.0017109797 -0.022242695 0.74655825
-0.0018064325 -0.025290042 0.75808048
0 0.030504078 0.666996
0 0.029331535 0.66647577
0 0.02874732 0.66854715
0 0.028215528 0.6710214
0 0.027679086 0.67367107
0 0.02712056 0.67643058
0 0.026538312 0.67930549
0 0.025913 0.68220544
0 0.025249362 0.68516123
0 0.024187982 0.68601191
0 0.022987515 0.68606889
0 0.021789223 0.6861462
0 0.020587623 0.68620986
0 0.019387484 0.68629193
0 0.018503696 0.68893087
0 0.017699271 0.69263124
0 0.016831875 0.69631612
0 0.015912175 0.7000885
0 0.014936 0.70392776
0 0.013898522 0.70779449
0 0.012802958 0.71174181
0 0.011645287 0.71573865
0 0.010423869 0.71977806
0 0.0091379583 0.72386545
0 0.0049493909 0.65951288
0 0.0039540231 0.65934694
0 0.0029723346 0.65962183
0 0.0019989312 0.66067076
0 0.001019448 0.6630798
0 2.9802322e-08 0.66508567
0 -0.0010470748 0.66641366
0 -0.00209409 0.66641521
0 -0.0031337738 0.66611844
0 -0.00416857 0.6658231
0 -0.0052049458 0.6656844
0 -0.0062730014 0.6662277
0 -0.0075141191 0.66960138
0 -0.0088668466 0.67381519
0 -0.010319054 0.67842722
0 -0.013469249 0.70261323
0 -0.016058773 0.71624881
0 -0.017511994 0.71618223
0 -0.022408873 0.74810123
0 -0.027135849 0.77399546
0.0010519407 0.030506313 0.66700518
0.0010557185 0.029560119 0.66746128
0.001075155 0.029029191 0.66980743
0.0010966135 0.028511971 0.67239773
0.0011183373 0.027958453 0.67502004
0.0011395286 0.027348727 0.67757803
0.0011615347 0.026715308 0.68023443
0.0011845648 0.026060462 0.68301433
0.0012092628 0.025394529 0.6859957
0.0012118523 0.024237096 0.68630826
0.0012124316 0.023036212 0.68637818
0.0012132063 0.021837711 0.6864717
0.0012138505 0.020635456 0.68654948
0.0012168261 0.019469261 0.6869086
0.0012448573 0.018672884 0.69029236
0.0012729826 0.017821759 0.69368738
0.0013018958 0.016924679 0.69717747
0.001331112 0.01597333 0.70070422
0.0013606403 0.014967054 0.70426857
0.0013907623 0.013907641 0.70790458
0.0014210963 0.012789905 0.71156621
0.0014517208 0.011613756 0.71526301
0.0014826751 0.010378748 0.71899951
0.0015138758 0.0090832412 0.72276574
0.0015448367 0.0077242553 0.72650301
0.00098884641 0.003955394 0.65938908
0.00098920113 0.0029675961 0.65943193
0.00099385541 0.0019877255 0.65999377
0.0010101305 0.0010101199 0.66195834
0.0010306698 -0 0.66443759
0.0010447451 -0.0010447502 0.66613662
0.0010483068 -0.0020965934 0.66656661
0.0010459275 -0.0031377375 0.66627938
0.0010434713 -0.0041738153 0.66598284
0.0010415259 -0.005207628 0.66574806
0.0010438224 -0.0062629282 0.66602522
0.0010650412 -0.0074552596 0.66858655
0.0011007264 -0.0088058114 0.67289424
0.0013484114 -0.012135684 0.70279241
0.0013531427 -0.013531417 0.70336354
0.001463824 -0.016102046 0.71672392
0.0014602867 -0.017523438 0.71629697
0.0018551769 -0.024117291 0.76396441
0.0021228273 0.031842411 0.66814876
0.0021060747 0.030538112 0.66713762
0.0021293578 0.029811054 0.66854286
0.0021674386 0.029260457 0.67084122
0.0022072075 0.028693736 0.6732415
0.0022484704 0.028105915 0.67573202
0.002291298 0.027495563 0.67831683
0.0023357889 0.026861548 0.68100214
0.002382556 0.026208103 0.68382478
0.0024249901 0.025462419 0.68638587
0.0024277773 0.024277776 0.68655407
0.0024291181 0.023076653 0.68663502
0.0024305454 0.021874905 0.68672109
0.0024321871 0.020673573 0.68682027
0.0024480633 0.019584507 0.68777847
0.0025004374 0.01875329 0.69093955
0.0025541715 0.017879218 0.69418263
0.0026077782 0.016950577 0.69741809
0.0026626524 0.015975922 0.70073003
0.0027180344 0.014949232 0.70407265
0.0027736535 0.013868272 0.70742959
0.0028300856 0.012735397 0.71083546
0.0028867614 0.011547089 0.71425623
0.0029431216 0.010300934 0.71765786
0.0029995628 0.0089986622 0.72106433
0.0030557499 0.0076393783 0.7244556
0.0019801892 0.0039604008 0.65953976
0.0019774621 0.0029662251 0.65937513
0.0019828221 0.0019828379 0.65969867
0.0020055394 0.0010027885 0.66106975
0.0020468109 -0 0.66356075
0.0020772796 -0.0010386109 0.66539967
0.0020977845 -0.0020977855 0.6666373
0.0020945284 -0.0031417608 0.66644073
0.0020896096 -0.0041792095 0.66614389
0.0020850392 -0.005212605 0.66586804
0.0020866105 -0.0062598288 0.66596282
0.0021242744 -0.0074349046 0.66823602
0.0024916071 -0.009966433 0.69040656
0.0027146793 -0.012216061 0.70387018
0.0027109834 -0.013554871 0.70364708
0.0029305369 -0.01611793 0.71689832
0.0029203647 -0.017522186 0.71628439
0.0031796175 0.031796217 0.66796267
0.0031637528 0.030582964 0.6673243
0.0032113548 0.029972643 0.66923976
0.0032677602 0.029409856 0.67150927
0.0033280302 0.028842926 0.67393434
0.003390576 0.028254807 0.67645103
0.0034541325 0.027633071 0.67900836
0.0035157125 0.026953816 0.68148613
0.0035808438 0.026259542 0.68410683
0.0036432699 0.02550289 0.68661863
0.0036470173 0.02431348 0.68676937
0.0036490983 0.023110956 0.68685317
0.0036516548 0.021909952 0.68695599
0.0036540101 0.020706087 0.68705076
0.0036810425 0.01963225 0.68813848
0.0037550607 0.018775314 0.69111675
0.0038300608 0.017873645 0.69413447
0.0039064046 0.016927749 0.69720638
0.0039824429 0.015929788 0.70026588
0.0040599341 0.014886439 0.70338386
0.0041374601 0.013791561 0.70650327
0.0042147646 0.012644291 0.7096138
0.0042923954 0.011446387 0.71273732
0.0043698228 0.010196298 0.71585286
0.0044451421 0.008890301 0.71888345
0.0045191622 0.0075319707 0.72186178
0.0045910133 0.0061213672 0.72475284
0.0029679073 0.0029678941 0.65944415
0.0029710033 0.0019806623 0.65956867
0.0029919811 0.00099733472 0.66041279
0.0030532025 -0 0.66287619
0.0031116598 -0.0010371804 0.66522831
0.0031470663 -0.0020980537 0.66665292
0.0031458223 -0.0031458139 0.66660285
0.0031393704 -0.0041858256 0.66634327
0.003140477 -0.0052341223 0.6663878
0.0033228849 -0.0066457391 0.67372733
0.0037419987 -0.0087313354 0.69059122
0.0037462215 -0.0099899173 0.69076103
0.0040810737 -0.012243211 0.70423448
0.0040716054 -0.013572007 0.70385355
0.0041137193 -0.015083611 0.70554805
0.0043740035 -0.01749602 0.716021
0.0042402274 0.03180173 0.66798496
0.0042296206 0.030664772 0.66766483
0.0043026702 0.030118704 0.6698693
0.0043793777 0.029560834 0.67218411
0.0044543389 0.028953224 0.67444634
0.0045310995 0.028319389 0.67676282
0.0046105362 0.027663231 0.67916
0.0046928241 0.026983768 0.68164325
0.0047798278 0.026289046 0.68426883
0.0048623155 0.025527179 0.6867581
0.0048687197 0.02434364 0.68695134
0.0048713987 0.023139179 0.68703222
0.0048745763 0.021935612 0.68712807
0.0048776385 0.020729989 0.68722051
0.0049054408 0.01962176 0.68805957
0.0049992022 0.018747032 0.690889
0.005092042 0.017822176 0.69369078
0.0051867892 0.016857088 0.69655001
0.0052816141 0.015844882 0.69941157
0.0053762249 0.014784634 0.70226669
0.0054715504 0.013678908 0.70514339
0.0055658114 0.012523085 0.70798802
0.0056585348 0.011317074 0.71078616
0.005750115 0.010062695 0.71354985
0.0058395513 0.0087593794 0.71624875
0.0059248605 0.0074060559 0.71882325
0.0060045421 0.0060045421 0.72122788
0.0039608865 0.0029706657 0.65955502
0.0039609992 0.0019804835 0.65955853
0.0039798496 0.00099498034 0.66012734
0.0040521016 2.9802322e-08 0.66230774
0.0041423137 -0.0010355413 0.66503012
0.0041953539 -0.0020976663 0.66663074
0.004201619 -0.0031512082 0.66681981
0.0042051403 -0.0042051077 0.66692609
0.0046183956 -0.0057729781 0.67939717
0.0050103934 -0.0075155497 0.69122672
0.0050131404 -0.0087729692 0.69130963
0.0050035212 -0.010007024 0.69101936
0.005056934 -0.01137808 0.69263124
0.0054356437 -0.013589084 0.70405984
0.0055071488 -0.015144616 0.70621765
0.0058539151 -0.017561704 0.71668226
0.0053055123 0.031833082 0.66811115
0.005304751 0.03076756 0.66809279
0.00539236 0.030197203 0.67020786
0.0054808706 0.029596746 0.67234468
0.0055738189 0.028983861 0.67458868
0.0056699743 0.028349876 0.67691004
0.0057694861 0.02769354 0.67931247
0.0058725732 0.027013838 0.68180126
0.0059732851 0.026282489 0.68423259
0.00607681 0.02552259 0.68673193
0.0060913404 0.024365366 0.68708271
0.0060941824 0.023157924 0.68715131
0.0060979682 0.021952748 0.68724275
0.0061015664 0.020745367 0.68732959
0.0061154189 0.019569367 0.68766403
0.0062231268 0.018669367 0.69026434
0.0063322727 0.017730355 0.69289935
0.0064412523 0.016747266 0.69553035
0.0065513556 0.015723258 0.69818854
0.0066593867 0.014650613 0.7007966
0.0067668203 0.013533682 0.70339024
0.0068734507 0.012372255 0.70596457
0.0069767376 0.011162788 0.70845813
0.0070760781 0.0099065304 0.71085644
0.0071706451 0.0086047947 0.71313941
0.0072585437 0.0072585642 0.71526152
0.0073370473 0.0058696568 0.71715671
0.0049579181 0.0029747784 0.65971947
0.004952745 0.0019810796 0.6595946
0.0049697319 0.00099393725 0.66000473
0.0050465879 2.9802322e-08 0.66186017
0.0051672198 -0.0010334253 0.66477245
0.005244208 -0.0020976663 0.6666311
0.0052625714 -0.0031575561 0.6670745
0.0053367382 -0.0042693615 0.66886497
0.0062895422 -0.0062895417 0.69186771
0.0062897927 -0.0075477064 0.69187379
0.0062769759 -0.0087877512 0.69156438
0.0062623145 -0.01001969 0.69121039
0.0063050636 -0.011349112 0.6922425
0.0067985961 -0.01359719 0.70415735
0.0072240159 -0.015892804 0.71442795
0.0073751076 -0.017700285 0.71807563
0.0063751028 0.031875521 0.66828191
0.0063770916 0.030822605 0.66832197
0.0064775473 0.030228585 0.67034292
0.0065838988 0.029627591 0.67248255
0.006695671 0.029014587 0.67473125
0.006809725 0.028373867 0.67702585
0.006918788 0.027675152 0.67922002
0.0070314012 0.026953727 0.68148565
0.0071482314 0.026210219 0.68383604
0.0072735748 0.025457501 0.6863578
0.0073150205 0.024383396 0.68719161
0.0073187696 0.023176104 0.68726701
0.0073223943 0.021967202 0.68733996
0.0073258672 0.020756632 0.68740988
0.0073295762 0.019545525 0.68748444
0.0074213385 0.018553346 0.68933058
0.0075437091 0.017601997 0.69179243
0.0076631624 0.016603529 0.69419569
0.0077830884 0.0155662 0.69660842
0.0079019722 0.014486969 0.69900018
0.0080164606 0.013360769 0.70130354
0.0081285117 0.012192756 0.70355773
0.0082364101 0.010981888 0.70572847
0.0083381319 0.0097278357 0.707775
0.008429802 0.0084298253 0.70961928
0.0085100103 0.007091701 0.71123296
0.0085740928 0.0057160854 0.71252221
0.0086139115 0.0043069422 0.7133233
0.0059478385 0.0019826293 0.65968603
0.0059644631 0.00099408627 0.66002047
0.0060444931 5.9604645e-08 0.66163057
0.0061917691 -0.001031965 0.66459358
0.0062955013 -0.0020984709 0.66668046
0.0063241273 -0.0031620264 0.66725636
0.0064193676 -0.0042795539 0.66917247
0.0075760018 -0.006313324 0.69244218
0.0075596841 -0.0075596869 0.69211382
0.0075419624 -0.0087989569 0.69175732
0.0075243241 -0.010032445 0.69140244
0.0075855115 -0.011378258 0.69263345
0.008147602 -0.013579309 0.70394188
0.0084702494 -0.015528768 0.71043301
0.0087523405 -0.017504662 0.71610826
0.0074488265 0.031923562 0.66847515
0.0074457028 0.030846506 0.66842127
0.0075646597 0.030258626 0.67047262
0.0076835686 0.029636651 0.67252314
0.0078025456 0.028980911 0.67457485
0.0079252385 0.028304458 0.67669058
0.0080518518 0.027606338 0.67887396
0.0081826039 0.026885718 0.68112874
0.0083176726 0.026141286 0.68345785
0.0084544532 0.025363356 0.68581659
0.0085379649 0.024394184 0.68725669
0.0085408129 0.023182213 0.68730575
0.008544323 0.021971107 0.68736637
0.0085478965 0.020759195 0.687428
0.0085511124 0.019545436 0.68748343
0.0085877953 0.018402427 0.68811595
0.0087183425 0.017436713 0.69036716
0.0088461256 0.01642853 0.69257075
0.0089713866 0.015379518 0.69473082
0.0090947337 0.014291704 0.69685787
0.0092132762 0.013161838 0.69890201
0.0093245711 0.011988759 0.70082122
0.0094284164 0.010775328 0.70261198
0.0095219091 0.0095219314 0.70422423
0.0096010277 0.0082294345 0.70558858
0.0096601704 0.0069001317 0.70660841
0.0096912319 0.0055378377 0.70714408
0.0096720019 0.0041451454 0.7068125
0.0069465963 0.0019847453 0.65981448
0.0069623049 0.00099465251 0.66008538
0.007046842 2.9802322e-08 0.66154319
0.0072240527 -0.0010319948 0.66459906
0.0073528551 -0.0021007955 0.66682017
0.0073845997 -0.0031648278 0.66736764
0.0074391896 -0.0042509735 0.66830903
0.0088516949 -0.0063226223 0.69266677
0.0088309022 -0.0075693429 0.69230819
0.0088101747 -0.0088101625 0.6919508
0.0087838313 -0.010038644 0.69149649
0.0094820056 -0.012191147 0.70353615
0.0094747655 -0.013535351 0.70341122
0.0097803148 -0.015369058 0.70868027
0.010563717 -0.018109202 0.72218955
0.0085314689 0.031993032 0.6687547
0.0085053649 0.030831963 0.66836083
0.0086327605 0.030214697 0.67028308
0.0087604392 0.029566526 0.6722095
0.0088957632 0.028911233 0.67425144
0.0090353349 0.028235435 0.67635745
0.0091793258 0.027538031 0.6785301
0.0093233194 0.026804566 0.68070275
0.0094619701 0.026020437 0.68279487
0.0096082613 0.025221705 0.68500221
0.0097516496 0.024379134 0.68716574
0.0097632604 0.023187757 0.68734097
0.0097664846 0.021974623 0.68738961
0.0097686127 0.020758331 0.6874218
0.0097706728 0.019541353 0.68745279
0.0097711533 0.018320948 0.68746006
0.0098515283 0.017240196 0.6886729
0.0099840043 0.016224027 0.69067174
0.010109968 0.015164942 0.69257241
0.010231616 0.014068484 0.69440794
0.010346859 0.012933552 0.69614685
0.010452922 0.011759579 0.69774717
0.010544796 0.010544807 0.69913346
0.010619889 0.0092924237 0.70026648
0.010671257 0.0080034435 0.70104158
0.010684835 0.0066780448 0.70124644
0.010642332 0.0053211749 0.70060509
0.0094970772 0.0035614073 0.68332458
0.00794857 0.0019871593 0.65995944
0.007964557 0.00099560618 0.66020066
0.008058507 2.9802322e-08 0.66161823
0.0082733091 -0.0010341406 0.66485935
0.0084196553 -0.0021049082 0.66706753
0.008446672 -0.0031674802 0.66747516
0.0084806364 -0.0042403042 0.6679877
0.010129236 -0.0063307881 0.69286311
0.010104713 -0.007578522 0.69249308
0.010068626 -0.0088100135 0.69194865
0.01002469 -0.010024697 0.69128567
0.010401176 -0.011701316 0.69696641
0.01072507 -0.013406336 0.70185357
0.011767752 -0.016180634 0.7175864
0.011853409 -0.017780125 0.71887892
0.012114174 -0.019685477 0.72281349
0.012927465 -0.025854915 0.73508513
0.012912992 -0.027440131 0.73486674
0.0096253464 0.032084525 0.66912282
0.0095708193 0.030839354 0.66839141
0.009690728 0.030148953 0.66999972
0.0098322229 0.02949667 0.67189741
0.0099837398 0.028841913 0.67392963
0.010133559 0.0281488 0.67593908
0.010279051 0.027410835 0.67789042
0.010428816 0.026651442 0.6798991
0.010582973 0.025869519 0.68196672
0.010742494 0.025065809 0.68410635
0.010906595 0.024236888 0.68630725
0.010983089 0.023186535 0.68733323
0.010985018 0.021970063 0.68735909
0.010986407 0.020752102 0.68737769
0.010986871 0.019532233 0.68738395
0.01098579 0.018309683 0.68736947
0.010984131 0.017086446 0.68734717
0.011069082 0.015988708 0.68848658
0.011192287 0.014923036 0.69013906
0.011306073 0.013818532 0.69166517
0.011409401 0.012677133 0.69305104
0.011498167 0.011498213 0.69424164
0.011566723 0.010281533 0.6951611
0.011606863 0.0090275705 0.69569951
0.011606001 0.0077373087 0.69568789
0.011522315 0.0064013004 0.69456547
0.011175329 0.0049667954 0.6899116
0.010673783 0.0035579503 0.68318474
0.0089541748 0.0019898415 0.66012084
0.0089735994 0.0009970963 0.66038132
0.0090858387 2.9802322e-08 0.66188675
0.0093444074 -0.0010382533 0.66535473
0.0094971955 -0.0021104813 0.667404
0.0095141269 -0.0031713545 0.66763103
0.0095418217 -0.0042408109 0.66800249
0.011406613 -0.0063370168 0.69301367
0.011356945 -0.00757128 0.69234741
0.011268186 -0.0087641478 0.69115698
0.011246384 -0.0099967718 0.69086462
0.011596361 -0.011596322 0.69555861
0.013283823 -0.014759809 0.71819133
0.01330247 -0.016258538 0.71844149
0.013329913 -0.017773211 0.71880955
0.013430036 -0.019398928 0.72015238
0.013690495 -0.021296293 0.72364575
0.01451114 -0.02418521 0.73465246
0.014349669 -0.02551049 0.73248678
0.014224998 -0.026869416 0.73081464
0.011487054 0.03446117 0.67868578
0.01064816 0.030879647 0.66855943
0.010739322 0.030070096 0.66965985
0.010890827 0.029405266 0.67148864
0.011041754 0.028708577 0.67331052
0.011197357 0.027993381 0.67518878
0.011357221 0.027257353 0.6771186
0.011521754 0.026500076 0.67910463
0.011691086 0.025720417 0.68114865
0.011855065 0.024895638 0.68312806
0.012017389 0.024034768 0.6850875
0.012184859 0.023151278 0.68710899
0.012200776 0.021961451 0.68730116
0.01220129 0.020742238 0.68730736
0.012199576 0.019519359 0.68728662
0.012196878 0.018295348 0.68725413
0.012192 0.017068833 0.68719518
0.01218456 0.015839934 0.68710542
0.012209907 0.014651924 0.68741137
0.012310527 0.013541639 0.68862593
0.012393028 0.012393028 0.68962187
0.012453168 0.011207879 0.69034779
0.012481215 0.0099849701 0.69068635
0.012451785 0.0087162554 0.6903311
0.012325943 0.0073955655 0.68881202
0.011962611 0.0059812963 0.68442625
0.011905066 0.0047620237 0.68373162
0.011848557 0.0035545528 0.68304944
0.009963776 0.0019927621 0.66029817
0.0099901306 0.00099903345 0.66061628
0.010142051 -0 0.66245013
0.010439385 -0.0010439157 0.66603929
0.010582167 -0.0021164417 0.66776282
0.010584488 -0.0031753182 0.66779077
0.010611576 -0.0042445958 0.66811782
0.012648041 -0.006324023 0.69270015
0.012473777 -0.0074842274 0.69059658
0.012064915 -0.0084454417 0.6856612
0.012402362 -0.0099218488 0.68973446
0.014614782 -0.013153285 0.7164408
0.014826055 -0.01482603 0.71899104
0.014861057 -0.01634717 0.71941364
0.014906705 -0.01788801 0.71996462
0.015174394 -0.019726694 0.72319591
0.015228194 -0.021319449 0.7238453
0.014849371 -0.022274047 0.71927249
0.015142388 -0.024227798 0.72280955
0.015483474 -0.026321918 0.72692686
0.015864076 -0.028555304 0.73152113
0.01269051 0.03461048 0.6792866
0.011734407 0.030936182 0.66879463
0.011764421 0.029945821 0.66912401
0.011918162 0.029253691 0.67081106
0.01207998 0.028552681 0.6725868
0.012249276 0.027839273 0.67444462
0.012423384 0.02710557 0.67635524
0.012593877 0.026332676 0.67822617
0.012757178 0.025514364 0.68001819
0.012924773 0.024674565 0.68185729
0.013096829 0.023812413 0.68374544
0.013273528 0.022927016 0.68568444
0.013412282 0.021947384 0.6872071
0.013411952 0.020727575 0.68720347
0.013408988 0.019504011 0.68717098
0.013403863 0.018278033 0.68711472
0.013395454 0.017048776 0.68702245
0.013386071 0.015819907 0.68691945
0.013371367 0.014586955 0.6867581
0.013354128 0.013354152 0.68656898
0.013334468 0.012122273 0.68635315
0.013313891 0.010893196 0.68612742
0.013277723 0.0096565485 0.68573052
0.013230888 0.0084196627 0.68521655
0.013184018 0.0071912706 0.68470216
0.013134002 0.0059700012 0.68415332
0.01307935 0.0047561526 0.68355358
0.010993822 0.0029983222 0.66066766
0.010977655 0.0019959509 0.66049021
0.011015144 0.0010013878 0.66090167
0.01123486 2.9802322e-08 0.66331273
0.011538093 -0.0010489225 0.66664028
0.011670773 -0.0021219254 0.6680963
0.011658883 -0.0031796992 0.66796583
0.011694913 -0.0042526722 0.66836125
0.013330283 -0.0060591996 0.68630725
0.012815093 -0.0069900453 0.68065375
0.01315018 -0.0083682835 0.68433082
0.013517825 -0.0098311305 0.68836528
0.016404554 -0.013421893 0.72004336
0.016404061 -0.014912784 0.720038
0.01645831 -0.016458303 0.72063333
0.01676262 -0.018286496 0.72397274
0.016808767 -0.019864887 0.72447908
0.016321335 -0.020772606 0.7191301
0.01629024 -0.022213966 0.71878898
0.016308172 -0.02372095 0.71898568
0.016691687 -0.025796235 0.7231943
0.012843639 0.031038821 0.66922176
0.012782726 0.029826373 0.66860908
0.012934959 0.029103667 0.67014045
0.013106951 0.028398395 0.67187047
0.013286669 0.027680576 0.67367828
0.013454474 0.026908964 0.67536628
0.013620918 0.026106775 0.67704058
0.013796004 0.025292695 0.67880189
0.01397565 0.024457425 0.68060893
0.014160036 0.023600072 0.68246371
0.014326821 0.022684127 0.68414152
0.014496371 0.021744549 0.68584704
0.014618705 0.020709872 0.68707752
0.014614555 0.01948607 0.6870358
0.014605749 0.018257201 0.68694729
0.014594503 0.017026931 0.6868341
0.014582151 0.015797347 0.68670982
0.014564629 0.014564633 0.68653363
0.014543445 0.013331532 0.68632054
0.014517974 0.012098312 0.68606436
0.014486601 0.010865003 0.6857487
0.014449902 0.0096332729 0.68537956
0.014407214 0.0084042251 0.68495011
0.014359088 0.0071795583 0.684466
0.014307058 0.0059613287 0.68394268
0.01424771 0.0047492683 0.68334562
0.01200794 0.0030019879 0.66081536
0.012002271 0.0020003617 0.66075826
0.012061326 0.0010051131 0.66135234
0.0123817 2.9802322e-08 0.66457504
0.012686314 -0.0010571778 0.66763926
0.012759257 -0.0021265447 0.66837299
0.012742803 -0.0031856894 0.66820741
0.012804474 -0.0042681694 0.66882789
0.013518378 -0.0056326687 0.67600918
0.013845939 -0.0069229603 0.67930412
0.0142125 -0.0082906187 0.68299145
0.016698236 -0.011132151 0.70799601
0.017952433 -0.016456366 0.72061229
0.01801098 -0.018010944 0.72120124
0.017855568 -0.019343525 0.71963793
0.01782153 -0.020791769 0.7192955
0.017787546 -0.02223441 0.71895367
0.017753692 -0.023671567 0.71861315
0.017852586 -0.025291175 0.71960795
0.013864914 0.029862911 0.66876656
0.013929475 0.028930426 0.669366
0.014107182 0.028214395 0.6710161
0.014381701 0.027657121 0.67356515
0.014459688 0.026694864 0.67428929
0.014630442 0.025884628 0.67587477
0.014816884 0.02507472 0.67760599
0.014993245 0.0242199 0.67924356
0.015161733 0.023325771 0.68080807
0.015333998 0.022411257 0.68240762
0.015510171 0.021475643 0.68404353
0.015692946 0.020521551 0.68574059
0.015812317 0.019461304 0.686849
0.015804736 0.01823625 0.68677866
0.015791642 0.017006397 0.68665701
0.015774436 0.015774459 0.68649733
0.01575342 0.014541596 0.68630219
0.015729995 0.013310045 0.68608463
0.015700473 0.012077302 0.68581045
0.015666438 0.010846019 0.68549448
0.015626172 0.0096161067 0.68512058
0.015581165 0.0083898902 0.68470269
0.015529473 0.0071674585 0.6842227
0.01547579 0.005952239 0.68372428
0.015414161 0.004742831 0.68315196
0.013026908 0.0030062199 0.66098529
0.013036082 0.0020055771 0.66107047
0.013146486 0.0010112822 0.66209561
0.013611358 2.9802322e-08 0.66641217
0.013840614 -0.0010646582 0.66854089
0.013841759 -0.0021294951 0.66855156
0.013839511 -0.0031937361 0.66853064
0.01402928 -0.0043166876 0.67029279
0.014494812 -0.0055749416 0.67461544
0.014865303 -0.0068609118 0.67805558
0.017448705 -0.0093954206 0.70204359
0.019441437 -0.016450435 0.72054696
0.019398607 -0.017906368 0.72014928
0.01936144 -0.019361436 0.71980423
0.019324498 -0.020810992 0.71946114
0.019287614 -0.022254914 0.71911865
0.019251036 -0.023693562 0.71877903
0.014983277 0.029966593 0.66921341
0.014915559 0.028765738 0.66862953
0.015075587 0.027997524 0.67000937
0.015509515 0.027695566 0.67375076
0.01546986 0.026519805 0.67340881
0.015615861 0.025654644 0.67466772
0.015785515 0.024805844 0.67613053
0.015958844 0.023938298 0.67762494
0.01613602 0.023051471 0.67915261
0.01631723 0.022144854 0.68071502
0.016490864 0.021202534 0.68221217
0.016644623 0.020211339 0.6835379
0.016809635 0.019211024 0.68496066
0.01696901 0.018181115 0.68633479
0.01698382 0.016983837 0.68646252
0.016963625 0.015751958 0.68628842
0.016939996 0.014520019 0.68608463
0.016912198 0.01328814 0.68584496
0.016877931 0.012055695 0.6855495
0.016842751 0.010827482 0.68524617
0.016797388 0.0095985234 0.6848551
0.01675198 0.0083760321 0.6844635
0.016696781 0.007155776 0.68398762
0.016640352 0.0059430301 0.68350106
0.014082708 0.0040236712 0.66144854
0.014057437 0.0030123293 0.66123068
0.014093316 0.0020133555 0.66154003
0.014377646 0.001026988 0.66399157
0.014797998 -0 0.66761595
0.014955776 -0.0010682642 0.66897631
0.014925902 -0.002132237 0.66871876
0.014934242 -0.0032001734 0.66879064
0.015098374 -0.0043137968 0.67020583
0.015474536 -0.0055266023 0.67344922
0.018161761 -0.0077835619 0.69661891
0.020986341 -0.016489267 0.72097301
0.020910203 -0.017922997 0.72031653
0.020870194 -0.019379437 0.71997154
0.020830248 -0.020830244 0.71962708
0.020801477 -0.022287279 0.71937907
0.016008738 0.028815746 0.66885316
0.01601292 0.027755737 0.66888678
0.016198348 0.026997268 0.67037898
0.016597917 0.026556671 0.67359447
0.016559578 0.0253914 0.67328596
0.016731171 0.024539083 0.67466682
0.016907401 0.023670375 0.676085
0.017087718 0.022783667 0.67753607
0.017245462 0.021844268 0.67880559
0.017401671 0.02088204 0.68006259
0.017560678 0.01990211 0.68134218
0.017722735 0.018904299 0.68264627
0.017865127 0.017865121 0.68379217
0.017992605 0.016793102 0.68481803
0.018112719 0.015697688 0.68578464
0.018120905 0.014496744 0.6858505
0.01809084 0.013266653 0.68560857
0.018054556 0.012036383 0.68531656
0.018014556 0.010808736 0.68499476
0.017967978 0.0095829666 0.6846199
0.017917821 0.0083616376 0.68421626
0.017862003 0.0071448386 0.68376708
0.01778375 0.0059279501 0.68313736
0.015105234 0.0040280521 0.66158235
0.015106504 0.0030212998 0.66159248
0.015191793 0.0020256042 0.66227889
0.015796805 0.0010531545 0.66714764
0.016055686 5.9604645e-08 0.66923094
0.016051386 -0.001070112 0.66919631
0.016012821 -0.0021350086 0.66888601
0.01600004 -0.0031999946 0.66878319
0.016080454 -0.0042881072 0.66943026
0.018825555 -0.006275177 0.69152117
0.022540307 -0.01652959 0.72141516
0.02245572 -0.017964542 0.72073442
0.022381663 -0.019397438 0.72013849
0.018543703 0.031292528 0.67992622
0.017047869 0.027702808 0.66864097
0.017105358 0.02672714 0.66907471
0.017287102 0.025930673 0.67044586
0.017683832 0.025420517 0.67343897
0.017642474 0.024258405 0.67312694
0.017808452 0.023373634 0.67437917
0.017964572 0.022455722 0.67555702
0.018123511 0.021521688 0.67675608
0.018285288 0.020570993 0.67797661
0.018449368 0.019602478 0.67921448
0.018567547 0.018567532 0.68010604
0.01868719 0.017519265 0.6810087
0.018808575 0.016457498 0.68192452
0.018912546 0.015366465 0.68270892
0.01897393 0.01423046 0.68317199
0.019033888 0.013085783 0.68362439
0.019051563 0.01190722 0.68375772
0.01901722 0.010697186 0.68349862
0.018940574 0.009470284 0.68292034
0.018735619 0.0081968606 0.68137407
0.018413438 0.0069050789 0.6789434
0.016174596 0.0050545931 0.66205263
0.01614866 0.0040371716 0.66185701
0.016188065 0.0030353069 0.66215426
0.016590318 0.0020737946 0.66518909
0.017141325 0.0010713339 0.66934609
0.017184561 -0 0.66967231
0.017143862 -0.0010714829 0.66936529
0.01710641 -0.002138257 0.66908264
0.017110253 -0.0032081604 0.66911161
0.019445248 -0.0048612952 0.68672776
0.024010079 -0.018007547 0.72116685
0.018198462 0.027832955 0.66924524
0.018092556 0.026606709 0.66849333
0.018160641 0.02563858 0.66897672
0.018334765 0.024805874 0.6702131
0.018491628 0.023930401 0.67132688
0.018650318 0.023038626 0.6724537
0.018811572 0.022131264 0.67359877
0.018976005 0.021208495 0.6747663
0.019121526 0.020246327 0.67579961
0.019240988 0.019241005 0.67664784
0.019361889 0.018222988 0.67750633
0.019484384 0.017192125 0.67837614
0.019564083 0.016111612 0.67894202
0.019618664 0.015002549 0.67932957
0.019673551 0.013887227 0.67971933
0.01967296 0.012729615 0.67971516
0.019621531 0.011542082 0.67934996
0.019556956 0.010353684 0.67889142
0.019321548 0.0090925097 0.67721987
0.018975211 0.0078133345 0.6747607
0.018579336 0.006557405 0.67194974
0.017214756 0.0050631762 0.66226029
0.017223891 0.0040526688 0.6623252
0.017387396 0.0030683875 0.66348618
0.018136719 0.0021337569 0.66880685
0.018322594 0.001077801 0.67012668
0.018283293 2.9802322e-08 0.66984761
0.018247316 -0.0010733604 0.66959214
0.018263169 -0.0021485984 0.66970468
0.020012885 -0.0035316348 0.68212879
0.020490222 -0.0048212409 0.68551821
0.01924175 0.026724666 0.66906279
0.019134378 0.025512516 0.66834271
0.019162048 0.024484873 0.66852832
0.019316092 0.023608565 0.66956133
0.01947142 0.022716641 0.67060304
0.01963543 0.021817148 0.67170286
0.019761432 0.020859301 0.67254788
0.019881917 0.019881934 0.67335588
0.020003881 0.018892556 0.67417377
0.020127352 0.01789099 0.6750018
0.020185487 0.016821235 0.67539167
0.020240359 0.015742511 0.67575961
0.020295529 0.014657885 0.67612964
0.020270599 0.013513744 0.67596245
0.020219028 0.012356073 0.67561656
0.020124761 0.01118046 0.6749844
0.019889252 0.0099446774 0.67340505
0.019522352 0.0086765885 0.67094457
0.019215738 0.0074727833 0.66888833
0.019431857 0.0064772964 0.67033768
0.018293228 0.0050814748 0.66270185
0.018389182 0.0040864944 0.66334534
0.01927585 0.0032126307 0.6692915
0.019471785 0.0021635294 0.67060548
0.019431373 0.0010795295 0.6703344
0.019400574 2.9802322e-08 0.67012787
0.019436445 -0.0010797977 0.67036843
0.020540683 -0.0022822618 0.67777359
0.020987814 -0.003497988 0.68077219
0.020323491 0.02567178 0.6691438
0.020179188 0.024427444 0.66822708
0.020126039 0.023303837 0.66788936
0.020258011 0.022390425 0.66872787
0.020382347 0.021455109 0.66951776
0.020495294 0.020495296 0.67023534
0.020615421 0.019530445 0.67099851
0.020721147 0.018540025 0.6716702
0.020775856 0.017495453 0.67201781
0.020830922 0.016445458 0.67236763
0.020886214 0.01538986 0.67271888
0.020836972 0.014256895 0.67240602
0.020785276 0.013127565 0.67207766
0.020661421 0.011961877 0.67129076
0.020426301 0.010750681 0.669797
0.020035338 0.0094904602 0.66731316
0.019827325 0.0083483458 0.6659916
0.020041846 0.0073838234 0.66735446
0.019383674 0.0061211586 0.66317302
0.019475162 0.0051250458 0.66375422
0.020619864 0.0043410361 0.67102677
0.020636491 0.0032584071 0.67113239
0.020587904 0.0021671355 0.67082369
0.020540632 0.001081109 0.67052341
0.020569751 2.9802322e-08 0.67070842
0.021037159 -0.0011071861 0.67367786
