# .PCD v0.7 - Point Cloud Data file format
VERSION 0.7
FIELDS x y z
SIZE 4 4 4
TYPE F F F
COUNT 1 1 1
WIDTH 1327
HEIGHT 1
VIEWPOINT 0 0 0 1 0 0 0
POINTS 1327
DATA ascii
-0.02322113 0.0072565973 0.71521467
-0.02329254 0.005823195 0.71575338
-0.023392407 0.0043860972 0.71650678
-0.02366887 0.0029586256 0.71859258
-0.024931204 0.0015582144 0.72811615
-0.025135107 2.9802322e-08 0.72965449
-0.025214564 -0.0015758872 0.73025393
-0.025236998 -0.0031546354 0.73042321
-0.025236998 -0.0047319233 0.73042321
-0.025236998 -0.0063092411 0.73042321
-0.025208276 -0.0078775585 0.73020649
-0.025127269 -0.0094227195 0.72959542
-0.024947425 -0.010914475 0.72823852
-0.024498891 -0.01224941 0.72485459
-0.024342813 -0.013692796 0.72367704
-0.025962267 -0.016226411 0.73589492
-0.026576227 -0.018271178 0.74052691
-0.025412055 0.022023797 0.74452519
-0.025642093 0.020513713 0.7463764
-0.022985436 0.016855985 0.72499728
-0.023217348 0.015478224 0.72686356
-0.023533734 0.014120251 0.72940958
-0.02368818 0.012633741 0.73065245
-0.021576855 0.010069191 0.71366191
-0.021386944 0.0085547864 0.71213359
-0.021624571 0.0072081983 0.71404588
-0.021835109 0.0058226883 0.71574014
-0.021922635 0.0043845475 0.71644449
-0.021958655 0.0029278398 0.71673435
-0.021975875 0.0014650524 0.71687293
-0.021978101 -0 0.71689081
-0.021992011 -0.0014661252 0.71700275
-0.022054639 -0.0029405951 0.71750683
-0.022190604 -0.0044380724 0.71860093
-0.023743648 -0.0063316226 0.73109889
-0.023655711 -0.0078852177 0.73039126
-0.023461802 -0.0093847215 0.7288307
-0.02305335 -0.010758221 0.7255438
-0.022644799 -0.012077212 0.72225606
-0.022377916 -0.013426781 0.72010833
-0.023837253 -0.015891492 0.73185217
-0.024389055 -0.017885298 0.73629272
-0.02331036 0.021645337 0.74101114
-0.023599863 0.020228475 0.74350727
-0.020997211 0.016497821 0.72106671
-0.020837475 0.014883935 0.71968949
-0.02165438 0.013920695 0.72673297
-0.021956984 0.012546867 0.72934204
-0.019788276 0.0098941624 0.71064305
-0.019628823 0.0084123611 0.70926821
-0.019873647 0.0070977807 0.71137911
-0.020167788 0.0057622492 0.71391535
-0.020427272 0.0043773055 0.71615255
-0.020534974 0.0029335618 0.71708131
-0.020585375 0.001470387 0.71751583
-0.020594439 5.9604645e-08 0.71759397
-0.020594439 -0.001470983 0.71759391
-0.020594351 -0.0029419959 0.71759319
-0.020594351 -0.0044130683 0.71759319
-0.02060508 -0.0058871508 0.71768576
-0.020767642 -0.0074170232 0.71908736
-0.021596987 -0.0092557967 0.72623807
-0.021190293 -0.010595143 0.72273153
-0.020842116 -0.011909753 0.71972954
-0.020533239 -0.013199896 0.71706629
-0.020886322 -0.014918804 0.72011065
-0.022292349 -0.017515421 0.73223364
-0.020952467 0.020952493 0.7345776
-0.019615691 0.018106818 0.72216499
-0.019160558 0.016212791 0.7179389
-0.019199323 0.014768749 0.71829885
-0.019224981 0.013309628 0.71853709
-0.019314831 0.01188606 0.71937144
-0.018060824 0.009725064 0.70772743
-0.017914915 0.0082684457 0.70637256
-0.017859031 0.0068688691 0.7058537
-0.017924583 0.0055152774 0.70646232
-0.018713268 0.0043184459 0.71378559
-0.018991468 0.0029217899 0.71636885
-0.019131344 0.0014716685 0.71766764
-0.019193776 2.9802322e-08 0.71824729
-0.019215412 -0.0014781058 0.71844828
-0.019215412 -0.0029562116 0.71844816
-0.019215412 -0.0044343174 0.71844828
-0.019215412 -0.0059124231 0.71844822
-0.019215412 -0.0073905289 0.71844828
-0.01923505 -0.0088776946 0.71863055
-0.019256862 -0.010369062 0.71883315
-0.019093337 -0.011749744 0.71731472
-0.018782286 -0.013003081 0.71442646
-0.019016013 -0.014627725 0.71659678
-0.020280611 -0.017160475 0.72833908
-0.019246286 0.020850152 0.73362744
-0.017728329 0.017728359 0.71835798
-0.017568184 0.016104192 0.71674705
-0.017720569 0.01476717 0.71827996
-0.017791266 0.013343453 0.71899104
-0.017820921 0.011880606 0.71928942
-0.016399285 0.0095662773 0.70498884
-0.016354645 0.00817734 0.70453978
-0.016352208 0.0068134367 0.70451522
-0.016357532 0.0054525435 0.7045688
-0.016466901 0.0041167438 0.70566899
-0.016640458 0.0027734041 0.70741487
-0.017519834 0.0014600158 0.71626067
-0.01771101 -0 0.71818376
-0.01778785 -0.0014823079 0.71895671
-0.01781993 -0.0029699504 0.71927947
-0.017823054 -0.0044557452 0.71931088
-0.017823054 -0.0059410036 0.71931088
-0.017806385 -0.007419318 0.71914315
-0.017749233 -0.0088745952 0.71856821
-0.01765118 -0.010296494 0.71758193
-0.017393762 -0.011595815 0.71499252
-0.017109064 -0.012831807 0.71212864
-0.017217224 -0.014347672 0.71321666
-0.01834878 -0.016819715 0.72459924
-0.0187572 -0.018757194 0.72870755
-0.017576069 0.020771742 0.73289919
-0.015915733 0.017362624 0.71467924
-0.015886493 0.015886486 0.71435833
-0.016093589 0.014630556 0.71663094
-0.016279763 0.01331982 0.71867394
-0.016365781 0.011902392 0.71961796
-0.015062418 0.0095852017 0.70531517
-0.015062418 0.0082158744 0.70531517
-0.015062358 0.0068465173 0.70531452
-0.015062358 0.0054772496 0.70531452
-0.015062418 0.0041079521 0.70531511
-0.015067881 0.0027396083 0.70537513
-0.015084829 0.0013713837 0.70556116
-0.015090666 2.9802322e-08 0.70562512
-0.01510492 -0.001373142 0.70578152
-0.015152285 -0.0027549267 0.70630133
-0.015232356 -0.0041542649 0.70718008
-0.016399557 -0.0059634447 0.71998858
-0.016344715 -0.0074293911 0.7193867
-0.016237369 -0.0088567436 0.71820879
-0.016001018 -0.01018247 0.71561515
-0.015738199 -0.01144591 0.712731
-0.015483811 -0.01266855 0.70993936
-0.015480927 -0.014073551 0.70990777
-0.016492255 -0.016492218 0.72100574
-0.016851973 -0.01838395 0.72495317
-0.015636697 0.021891356 0.7287764
-0.015771406 0.020502836 0.73040247
-0.014180051 0.017016053 0.71119314
-0.013983574 0.015381992 0.70882136
-0.013991569 0.013991565 0.70891798
-0.014620932 0.013158858 0.71651495
-0.01481354 0.011850834 0.71884
-0.01389211 0.0097245276 0.7077173
-0.013759967 0.0082559884 0.70612222
-0.013759967 0.0068800151 0.70612228
-0.013759913 0.0055039525 0.70612162
-0.013759967 0.0041280389 0.70612228
-0.013759967 0.0027520061 0.70612222
-0.013759967 0.0013760328 0.70612222
-0.013759967 2.9802322e-08 0.70612222
-0.013759967 -0.001376003 0.70612222
-0.013759967 -0.0027519464 0.70612228
-0.013760022 -0.0041279793 0.70612293
-0.01377011 -0.0055080056 0.70624465
-0.013864449 -0.006932199 0.70738345
-0.014598388 -0.0087590218 0.71624291
-0.014357706 -0.010050356 0.71333754
-0.014109115 -0.011287272 0.71033686
-0.013899445 -0.012509495 0.70780587
-0.013815992 -0.013815999 0.70679855
-0.014706577 -0.016177207 0.71754885
-0.015021089 -0.018025279 0.72134531
-0.013665488 0.02125743 0.72331035
-0.013606742 0.019654185 0.72252244
-0.012518614 0.016691506 0.70792806
-0.012447162 0.015213221 0.7069698
-0.012451572 0.013835102 0.70702893
-0.012536027 0.012536049 0.70816171
-0.012549862 0.011155427 0.70834726
-0.012446023 0.0096802711 0.7069546
-0.012444735 0.0082964897 0.70693725
-0.012443497 0.0069130361 0.70692068
-0.012433849 0.0055261552 0.70679122
-0.012419479 0.0041398406 0.70659852
-0.012405389 0.0027567744 0.70640951
-0.012396242 0.0013773739 0.70628685
-0.01243291 2.9802322e-08 0.70677865
-0.012444735 -0.0013827085 0.70693725
-0.012444735 -0.0027654767 0.70693725
-0.012444735 -0.0041482151 0.70693719
-0.012444735 -0.0055309832 0.70693725
-0.012444735 -0.0069137216 0.70693719
-0.012458815 -0.0083058476 0.70712608
-0.012537133 -0.0097510815 0.70817649
-0.012506848 -0.01111716 0.70777029
-0.012445081 -0.012445062 0.70694196
-0.012444784 -0.013827503 0.70693791
-0.012474321 -0.015246391 0.7073341
-0.013260278 -0.017680377 0.7178756
-0.012068836 0.021120459 0.7221294
-0.011197809 0.018196434 0.70898664
-0.011116532 0.016674817 0.70776027
-0.011116532 0.015285254 0.70776027
-0.011116576 0.01389572 0.70776093
-0.011116576 0.012506187 0.70776093
-0.011116576 0.011116564 0.70776093
-0.011116532 0.0097269714 0.70776027
-0.011116532 0.0083374083 0.70776021
-0.01106366 0.0069148242 0.70696253
-0.01099152 0.0054957867 0.70587397
-0.010938364 0.0041019022 0.70507193
-0.010902798 0.0027257204 0.70453525
-0.01088329 0.0013604164 0.70424092
-0.011009412 2.9802322e-08 0.70614398
-0.011092267 -0.0013865232 0.70739412
-0.011114132 -0.0027785003 0.70772409
-0.011116532 -0.0041686893 0.70776027
-0.011116532 -0.0055582523 0.70776027
-0.011116576 -0.0069478452 0.70776093
-0.011116576 -0.0083374083 0.70776093
-0.011116532 -0.0097269118 0.70776021
-0.011116576 -0.011116564 0.70776093
-0.011116576 -0.012506127 0.70776093
-0.011116576 -0.01389572 0.70776093
-0.011332341 -0.015581936 0.7110166
-0.01156559 -0.017348349 0.71453601
-0.010500328 0.021000683 0.7210964
-0.010588828 0.019665003 0.72262251
-0.0097752046 0.016757518 0.70859212
-0.0097752046 0.0153611 0.70859212
-0.0097752046 0.013964593 0.70859212
-0.0097752046 0.012568146 0.70859212
-0.0097752046 0.011171699 0.70859212
-0.0097752046 0.0097752213 0.70859206
-0.0097752046 0.0083787739 0.70859212
-0.0095335161 0.0068096817 0.70442438
-0.009471925 0.0054125488 0.70336229
-0.0094285989 0.0040408671 0.70261514
-0.0093994504 0.0026855767 0.70211244
-0.0093832053 0.0013404489 0.70183235
-0.0094944416 2.9802322e-08 0.70375061
-0.0096274018 -0.0013753176 0.70604336
-0.0097357249 -0.0027815998 0.70791131
-0.0097651575 -0.0041850209 0.70841885
-0.0097752046 -0.0055857897 0.70859212
-0.0097752046 -0.0069822669 0.70859218
-0.0097642951 -0.008369416 0.708404
-0.0097528631 -0.0097528398 0.70820683
-0.0097736334 -0.011169821 0.708565
-0.0097752046 -0.012568086 0.70859212
-0.0097752046 -0.013964593 0.70859218
-0.0097811799 -0.015370429 0.70869517
-0.0099333739 -0.01702863 0.71131963
-0.010138241 -0.018828124 0.71485245
-0.0088902842 0.020744056 0.7188834
-0.008994922 0.01948902 0.72098863
-0.0090939924 0.01818803 0.72298175
-0.008420473 0.015437573 0.70943159
-0.008420473 0.014034152 0.70943159
-0.0084017413 0.012602627 0.70905477
-0.00840523 0.011206985 0.70912498
-0.008420473 0.0098239183 0.70943153
-0.0081158858 0.0081158876 0.70330375
-0.0080783367 0.0067319572 0.70254833
-0.0080822827 0.0053882003 0.70262772
-0.0079637906 0.0039819181 0.70024383
-0.0079401331 0.0026467144 0.69976783
-0.0079269698 0.0013211668 0.69950312
-0.0080225067 2.9802322e-08 0.70142514
-0.0081332363 -0.0013555288 0.70365286
-0.008247097 -0.0027490258 0.70594347
-0.0083610378 -0.004180491 0.70823586
-0.008408417 -0.0056056082 0.70918906
-0.008408281 -0.0070068836 0.70918632
-0.0083456086 -0.0083456039 0.7079255
-0.0082807709 -0.0096608996 0.70662099
-0.0083889281 -0.011185229 0.70879692
-0.008420473 -0.012630701 0.70943165
-0.008420473 -0.014034122 0.70943159
-0.008420473 -0.015437543 0.70943159
-0.0084218672 -0.016843706 0.70945966
-0.0085294731 -0.01848051 0.7116245
-0.0071914224 0.021574289 0.71364105
-0.0071251802 0.019950509 0.71204185
-0.007152284 0.018595964 0.71269619
-0.0071069635 0.017056733 0.71160203
-0.0070521808 0.015514821 0.71027946
-0.007039465 0.014078975 0.7099725
-0.0069420855 0.012495786 0.70762151
-0.0069618085 0.011138886 0.7080977
-0.0067307474 0.0094230473 0.70251936
-0.0066843415 0.0080212355 0.70139903
-0.006717423 0.0067173839 0.70219773
-0.0067509906 0.0054008365 0.70300812
-0.006541193 0.0039247572 0.69794309
-0.00652275 0.0026091039 0.69749784
-0.0065120654 0.0013024509 0.69723994
-0.0065917978 -0 0.69916487
-0.006681514 -0.0013363063 0.70133078
-0.0067736795 -0.0027094781 0.70355588
-0.0068684239 -0.0041210651 0.70584321
-0.006965884 -0.0055727065 0.7081961
-0.0069760932 -0.006976068 0.70844257
-0.006866198 -0.0082394183 0.70578945
-0.0067934655 -0.0095108449 0.70403349
-0.006904976 -0.011047959 0.7067256
-0.0070521808 -0.012693912 0.71027946
-0.0070521808 -0.014104337 0.71027946
-0.0070521808 -0.015514791 0.71027946
-0.0070521808 -0.016925216 0.71027946
-0.0070521808 -0.01833564 0.71027941
-0.0056734099 0.021275282 0.71123505
-0.0056701233 0.019845456 0.71113586
-0.005670378 0.018428773 0.71114349
-0.0056701466 0.017010421 0.71113658
-0.0056701466 0.015592933 0.71113658
-0.0056701005 0.014175266 0.71113515
-0.0054633128 0.012292475 0.70489484
-0.0053713839 0.010742784 0.7021206
-0.0053114863 0.0092951357 0.70031297
-0.0053339498 0.0080009103 0.70099092
-0.0053609628 0.006701231 0.70180613
-0.0053882301 0.0053882599 0.70262897
-0.0051588737 0.0038691461 0.69570756
-0.0051450664 0.0025725365 0.69529092
-0.0051370226 0.0012842715 0.69504809
-0.0052006077 2.9802322e-08 0.69696695
-0.0052703987 -0.0013175905 0.69907308
-0.0053420682 -0.0026710331 0.70123589
-0.0054157344 -0.0040617883 0.70345902
-0.0054914393 -0.0054914653 0.70574361
-0.0055082184 -0.0068852603 0.70624995
-0.0054239342 -0.008135885 0.70370644
-0.0053558191 -0.0093726516 0.70165092
-0.0054332637 -0.010866523 0.70398802
-0.0056701466 -0.012757808 0.71113652
-0.0056701233 -0.014175296 0.71113586
-0.0056701233 -0.015592813 0.71113586
-0.0056701233 -0.017010331 0.71113586
-0.0056792055 -0.018457413 0.71140993
-0.0042741094 0.02137053 0.71200168
-0.0042741094 0.01994589 0.71200162
-0.0042741266 0.018521219 0.71200234
-0.0042741266 0.017096549 0.71200234
-0.0042741094 0.01567176 0.71200168
-0.0042741094 0.01424706 0.71200162
-0.0040312177 0.012093663 0.70222843
-0.0039692954 0.010584801 0.69973683
-0.0039709136 0.0092654824 0.69980198
-0.0039908746 0.0079817474 0.70060515
-0.0040110219 0.0066850483 0.70141584
-0.0040313895 0.0053752065 0.70223534
-0.0038155371 0.0038155615 0.69355011
-0.0038054802 0.0025369823 0.69314551
-0.0038000839 0.0012666881 0.69292831
-0.0038473208 2.9802322e-08 0.69482899
-0.0038982385 -0.0012993813 0.69687772
-0.0039505069 -0.0026336908 0.69898087
-0.0040042116 -0.0040042102 0.70114183
-0.0040593809 -0.0054124892 0.70336163
-0.0040767645 -0.0067945719 0.70406103
-0.0040174681 -0.0080348849 0.70167518
-0.0039616171 -0.0092437565 0.69942796
-0.0040099882 -0.010693312 0.70137423
-0.0042741094 -0.0128223 0.71200156
-0.0042741094 -0.01424703 0.71200162
-0.0042741094 -0.01567173 0.71200168
-0.0042741094 -0.0170964 0.71200162
-0.0042775641 -0.018536091 0.71214068
-0.0028638844 0.02147916 0.71287549
-0.0028638963 0.020047277 0.7128762
-0.0028638963 0.018615335 0.7128762
-0.002863849 0.017183095 0.71287334
-0.0028617382 0.01573959 0.71274596
-0.0027019291 0.013509661 0.70310068
-0.0026452099 0.011903465 0.69967729
-0.0026278652 0.010511488 0.69863045
-0.0026409777 0.0092434585 0.69942188
-0.0026542218 0.0079626739 0.70022118
-0.0026675891 0.0066690147 0.70102799
-0.0026786837 0.0053573847 0.70169759
-0.0025089232 0.0037634075 0.69145167
-0.0025024002 0.0025024116 0.69105798
-0.0024992055 0.0012496412 0.69086516
-0.0025304095 -0 0.69274843
-0.002563433 -0.0012816489 0.69474161
-0.0025973397 -0.0025973618 0.69678813
-0.0026321551 -0.0039482117 0.69888937
-0.0026679065 -0.0053358078 0.70104718
-0.0026825301 -0.0067063272 0.70192981
-0.0026455019 -0.0079365075 0.69969487
-0.0026065263 -0.0091228485 0.69734257
-0.0026318661 -0.010527432 0.69887191
-0.0028595361 -0.012867898 0.71261305
-0.0028638844 -0.01431942 0.71287549
-0.0028638844 -0.015751362 0.71287549
-0.0028638844 -0.017183304 0.71287549
-0.0028639671 -0.018615782 0.71288049
-0.0014392555 0.020149589 0.71375823
-0.0014392615 0.018710405 0.71375895
-0.0014373562 0.017248273 0.71352905
-0.0013710883 0.015082002 0.70552975
-0.001328684 0.013286889 0.70041114
-0.0013031213 0.011728078 0.69732541
-0.0013107901 0.010486335 0.69825113
-0.00131735 0.0092214644 0.69904292
-0.0013239405 0.0079436898 0.69983852
-0.0013297773 0.0066489279 0.70054305
-0.0012420628 0.0049682856 0.689955
-0.0012375329 0.0037126243 0.68940818
-0.0012343765 0.0024687648 0.68902719
-0.0012330273 0.0012330413 0.68886435
-0.0012484265 -0 0.69072318
-0.0012645003 -0.0012644827 0.69266349
-0.0012809936 -0.0025619864 0.69465441
-0.0012979276 -0.0038937628 0.69669849
-0.0013153154 -0.0052612126 0.6987974
-0.0013239001 -0.0066194534 0.69983363
-0.0013067282 -0.0078403652 0.69776082
-0.001287129 -0.0090098679 0.69539499
-0.0012958414 -0.010366678 0.69644666
-0.0014209684 -0.012788713 0.71155077
-0.0014358595 -0.01435858 0.71334833
-0.0014392436 -0.015831649 0.7137568
-0.0014392615 -0.017271131 0.71375901
-0.0014392674 -0.018710464 0.71375972
0 0.018806547 0.71465158
0 0.017319024 0.71424031
0 0.01479727 0.70240545
0 0.013072729 0.69782609
0 0.011543185 0.69484496
0 0.010117054 0.69267899
0 0.0087583661 0.69105685
0 0.0074394643 0.68969446
0 0.0061575174 0.6886797
0 0.0049002767 0.68790293
0 0.0036627948 0.68740308
0 0.002436012 0.68704975
0 0.0012169778 0.68692827
0 -0 0.68875086
0 -0.0012477338 0.69064039
0 -0.0025275648 0.69257849
0 -0.0038408041 0.69456774
0 -0.0051887333 0.69660902
0 -0.006533891 0.69776738
0 -0.0077466071 0.69587415
0 -0.008903414 0.69355911
0 -0.010210812 0.69409376
0 -0.012596339 0.70897102
0 -0.014232278 0.71182406
0 -0.015857458 0.71404004
0 -0.017359793 0.71465087
0 -0.01882425 0.71481603
0.0014541144 0.018903494 0.71555191
0.0014504542 0.017405421 0.71511012
0.0013749512 0.0151245 0.70599604
0.0012865191 0.012865216 0.69532132
0.0012635163 0.011371672 0.69254464
0.0012481484 0.0099852085 0.69068956
0.0012338635 0.0086370707 0.6889652
0.0012230278 0.0073381662 0.6876573
0.0012149371 0.0060746968 0.68668061
0.0012087664 0.004835099 0.68593574
0.0012047471 0.0036142468 0.68545061
0.0012019384 0.0024038851 0.68511152
0.0012013607 0.0012013912 0.68504184
0.001216166 -0 0.68682897
0.0012314192 -0.0012314022 0.68867016
0.0012470554 -0.0024941266 0.69055766
0.0012630983 -0.0037892759 0.69249427
0.0012795548 -0.0051181912 0.69448072
0.0012901063 -0.0064504743 0.69575435
0.001272018 -0.0076321065 0.69357085
0.0012571029 -0.0087997019 0.69177049
0.0012574351 -0.010059446 0.69181055
0.0013788524 -0.012409687 0.70646703
0.001401793 -0.01401794 0.70923615
0.0014255096 -0.015680581 0.71209902
0.0014541144 -0.017449349 0.71555191
0.0014979969 -0.01947394 0.72084892
0.0015247038 -0.021345854 0.72407281
0.0029233131 0.019001573 0.71646231
0.0028032805 0.016819686 0.70921773
0.0025977765 0.0142878 0.69681442
0.0025336014 0.012668014 0.69294113
0.0025157258 0.01132077 0.69186223
0.0025201964 0.010080814 0.69213206
0.0024929477 0.0087253153 0.6904875
0.0024131758 0.0072395504 0.68567276
0.0023976315 0.0059941113 0.68473458
0.0023857867 0.0047715902 0.68401974
0.0023779904 0.0035670102 0.68354917
0.0023725266 0.0023725629 0.68321943
0.0023681205 0.0011841059 0.68295348
0.0023675959 -0 0.68292183
0.0023699456 -0.0011849701 0.68306363
0.0024615037 -0.002461493 0.68858963
0.002492751 -0.0037391186 0.69047558
0.0025247924 -0.0050495863 0.69240952
0.0025474303 -0.0063685477 0.69377577
0.0025218516 -0.0075655282 0.69223195
0.0024839214 -0.0086936951 0.6899426
0.0024781551 -0.0099125803 0.68959463
0.0027174393 -0.012228459 0.70403671
0.0027619794 -0.01380989 0.70672494
0.0028080039 -0.01544401 0.70950282
0.0029233131 -0.017539859 0.71646225
0.0029492294 -0.019169986 0.71802652
0.0030009616 -0.021006703 0.72114885
0.0044078501 0.019100726 0.71738291
0.004160264 0.01664111 0.70742083
0.0038298075 0.014042646 0.69412428
0.0037430334 0.012476772 0.69063282
0.0037426974 0.011228114 0.69061929
0.0037799105 0.010079801 0.69211662
0.0036003231 0.0084007978 0.68489057
0.0035717399 0.0071435273 0.6837405
0.0035493625 0.0059156418 0.68284005
0.0035322958 0.0047097504 0.68215334
0.0035209612 0.0035209656 0.68169731
0.0035129637 0.0023419857 0.6813755
0.0035067357 0.0011689365 0.68112493
0.0035059692 2.9802322e-08 0.68109411
0.003509274 -0.001169771 0.68122703
0.0035159141 -0.0023439229 0.68149424
0.0035267984 -0.0035268068 0.68193215
0.0035422465 -0.0047229826 0.68255377
0.0035625361 -0.0059375763 0.68337011
0.0037391263 -0.007478267 0.69047558
0.0036761484 -0.0085776746 0.68794155
0.0036637317 -0.0097699463 0.68744195
0.0037198323 -0.01115948 0.68969929
0.0040823682 -0.013607889 0.70428663
0.0041493839 -0.015214384 0.70698309
0.0044078501 -0.017631412 0.71738297
0.0044078501 -0.019100666 0.71738297
0.0044310652 -0.020678312 0.71831703
0.005907936 0.019200802 0.7183125
0.0054742224 0.016422689 0.70522404
0.0050967103 0.014015973 0.69383162
0.0049164942 0.012291253 0.68839312
0.0049329493 0.01109913 0.68888962
0.0047816527 0.0095633268 0.68432391
0.0047359178 0.008287847 0.68294376
0.0046999655 0.007049948 0.68185872
0.0046713422 0.0058391988 0.68099499
0.0046494645 0.0046494603 0.68033481
0.0046347976 0.0034760833 0.67989212
0.0046244194 0.002312243 0.67957896
0.0046166009 0.0011541843 0.67934299
0.0046155737 2.9802322e-08 0.67931205
0.0046197311 -0.0011548996 0.67943746
0.004628161 -0.0023140609 0.67969191
0.0046423213 -0.0034817159 0.68011916
0.0046620974 -0.0046620965 0.68071598
0.0046880594 -0.0058600605 0.68149948
0.0047212304 -0.0070818365 0.68250048
0.0047631031 -0.0083354115 0.6837641
0.0048162667 -0.0096325278 0.68536848
0.004886556 -0.010994732 0.68748963
0.0053647081 -0.01341176 0.7019192
0.0054514846 -0.014991552 0.70453781
0.005907936 -0.017723799 0.7183125
0.005907936 -0.019200772 0.7183125
0.005907936 -0.020677745 0.71831244
0.0074245906 0.019303948 0.71927023
0.006394289 0.015346289 0.69439656
0.0063692299 0.014012337 0.69379157
0.0060562408 0.012112498 0.68623537
0.0059660035 0.01073882 0.68405682
0.0058968309 0.0094349384 0.68238688
0.0058421618 0.0081790388 0.68106699
0.0057990272 0.0069588423 0.6800257
0.0057647 0.0057647228 0.67919695
0.0057384241 0.0045907497 0.67856258
0.0057206247 0.0034323931 0.67813283
0.0057079569 0.0022831857 0.67782706
0.0056987642 0.00113976 0.67760515
0.0056974934 2.9802322e-08 0.67757446
0.0057023927 -0.0011404753 0.67769265
0.0057126302 -0.0022850335 0.67793989
0.0057297181 -0.0034378171 0.67835236
0.0057534366 -0.0046027005 0.67892498
0.0057845847 -0.005784601 0.67967701
0.0058243196 -0.0069891512 0.68063629
0.0058744 -0.0082241595 0.68184531
0.0059372559 -0.0094995797 0.68336278
0.0060212309 -0.010838211 0.68539017
0.0066106091 -0.013221204 0.699619
0.0067159948 -0.014775187 0.70216322
0.0074238288 -0.01781714 0.71925181
0.007423861 -0.01930204 0.71925265
0.0074307192 -0.020806015 0.71941817
0.0089566261 0.01940605 0.72021818
0.007598395 0.01519677 0.69289267
0.0073038982 0.013390511 0.68696779
0.0071640504 0.011940092 0.68415433
0.0070617679 0.010592669 0.68209654
0.0069825128 0.0093100369 0.68050212
0.0069197295 0.0080730617 0.67923898
0.0068700435 0.006870091 0.67823935
0.0068305186 0.0056920946 0.67744416
0.0068001961 0.0045334697 0.67683411
0.0067794542 0.003389746 0.67641687
0.0067646499 0.0022549033 0.67611903
0.0067542619 0.0011257231 0.67591
0.0067527522 -0 0.67587966
0.0067582903 -0.0011263788 0.67599106
0.0067702956 -0.0022567511 0.67623258
0.0067900084 -0.0033949912 0.67662919
0.0068173627 -0.004544884 0.67717946
0.0068532187 -0.0057109892 0.67790091
0.0068989154 -0.0068989098 0.67882025
0.0069564413 -0.008115828 0.67997754
0.0070279641 -0.009370625 0.68141651
0.0071238549 -0.010685772 0.68334568
0.0072460696 -0.012076735 0.68580437
0.0079445206 -0.014564931 0.69985616
0.0088342056 0.015144378 0.69236517
0.0083948383 0.013191909 0.68478853
0.0082412977 0.011773288 0.68214083
0.0081282435 0.010450602 0.68019128
0.008039928 0.0091884732 0.67866838
0.0079698525 0.0079699159 0.6774599
0.0079140728 0.0067834854 0.67649806
0.0078698248 0.005621314 0.675735
0.0078358008 0.0044776201 0.67514825
0.0078123193 0.0033481717 0.67474341
0.0077954433 0.0022273064 0.67445236
0.0077840919 0.0011120141 0.67425662
0.0077823484 -0 0.67422658
0.0077884044 -0.0011126399 0.67433101
0.0078020948 -0.0022291243 0.6745671
0.0078242058 -0.0033532083 0.67494833
0.0078548556 -0.0044884682 0.67547691
0.0078950124 -0.0056392848 0.6761694
0.0079460805 -0.0068109035 0.67704999
0.008010352 -0.0080103278 0.67815834
0.0080897463 -0.0092453957 0.67952746
0.0081958659 -0.010537535 0.68135738
0.0083294073 -0.011899114 0.68366027
0.0091386093 -0.014360666 0.69761437
0.0092856977 -0.015918314 0.70015085
0.012099462 0.019661635 0.72259158
0.0096949534 0.014542431 0.68631029
0.0094538927 0.012999117 0.68267298
0.0092894826 0.011611879 0.68019223
0.0091666728 0.010312527 0.67833912
0.0090703601 0.0090703964 0.67688596
0.0089935036 0.0078693032 0.67572629
0.008932123 0.0066990852 0.6748001
0.0088835955 0.0055522621 0.67406785
0.0088462215 0.0044231117 0.67350399
0.0088201175 0.0033075511 0.67311007
0.0088012954 0.0022003055 0.67282605
0.0087891901 0.0010986626 0.67264342
0.0087871626 2.9802322e-08 0.67261285
0.008793666 -0.0010991991 0.67271096
0.0088089649 -0.0022022128 0.67294174
0.0088332621 -0.0033124685 0.67330837
0.0088669052 -0.0044334233 0.67381603
0.0089109624 -0.005569309 0.6744808
0.0089669004 -0.0067251921 0.67532486
0.0090371855 -0.0079075098 0.6763854
0.0091239186 -0.0091239214 0.67769408
0.0092385719 -0.010393322 0.67942405
0.0093822274 -0.01172775 0.68159163
0.0095916186 -0.013188481 0.68475115
0.010459451 -0.015689164 0.69784564
0.01128502 0.016300589 0.69138283
0.01073232 0.014309764 0.68396986
0.010482441 0.012811899 0.68061835
0.010309923 0.011455476 0.67830455
0.010178249 0.010178268 0.67653847
0.010074667 0.0089552701 0.6751492
0.0099916831 0.0077713132 0.67403615
0.0099254046 0.00661695 0.6731472
0.0098727932 0.005484879 0.6724416
0.0098323151 0.0043699443 0.67189866
0.009803772 0.0032679439 0.67151588
0.009783132 0.0021740496 0.67123902
0.0097704465 0.0010855794 0.67106891
0.0097680967 2.9802322e-08 0.67103738
0.0097749671 -0.0010861158 0.67112952
0.0097918008 -0.0021759272 0.67135531
0.0098180845 -0.0032726824 0.67170787
0.0098544378 -0.0043797493 0.67219543
0.0099020218 -0.0055010915 0.67283362
0.0099623036 -0.0066415071 0.67364216
0.010038027 -0.0078073442 0.67465776
0.010131623 -0.0090058744 0.6759131
0.010253134 -0.010253102 0.67754287
0.010405809 -0.01156199 0.67959058
0.010622372 -0.012982875 0.68249518
0.010995524 -0.014660686 0.6875
0.015217991 0.024348766 0.7237221
0.015321461 0.02298221 0.72497118
0.014978418 0.020969808 0.72083026
0.012223352 0.01589039 0.68757367
0.011741099 0.014089346 0.68175232
0.011485079 0.012633622 0.67866194
0.011303354 0.011303365 0.67646831
0.011163899 0.010047525 0.6747849
0.011053802 0.0088430345 0.67345595
0.010965511 0.0076758862 0.67239016
0.010894617 0.0065367818 0.67153442
0.010838308 0.0054191351 0.67085469
0.010794972 0.0043180287 0.6703316
0.010764173 0.0032292306 0.66995984
0.010741745 0.0021483302 0.66968912
0.010728644 0.0010728836 0.66953099
0.010725996 -0 0.66949898
0.010733318 -0.0010733008 0.66958737
0.01075145 -0.0021502972 0.66980624
0.010779534 -0.00323385 0.67014521
0.010818332 -0.0043272972 0.67061359
0.010869092 -0.0054345727 0.67122632
0.010933354 -0.0065599978 0.67200202
0.011013894 -0.0077097118 0.67297423
0.011113551 -0.0088908374 0.67417717
0.011240643 -0.010116577 0.67571133
0.011401904 -0.011401892 0.67765796
0.011627785 -0.012790561 0.68038452
0.01198357 -0.014380276 0.68467921
0.016800787 0.025964856 0.72439152
0.016702408 0.024294466 0.72331196
0.016791414 0.022897393 0.7242887
0.016302885 0.020749122 0.71892774
0.013173249 0.015568405 0.68458402
0.012721724 0.013878256 0.67962909
0.012460442 0.01246044 0.67676193
0.012270747 0.011155218 0.67468023
0.012125007 0.0099204779 0.67308092
0.012009194 0.0087339878 0.67181003
0.011915895 0.0075828433 0.67078614
0.011840701 0.0064586103 0.66996104
0.011780993 0.0053550303 0.6693058
0.011735056 0.0042673051 0.66880167
0.011702074 0.0031914711 0.66843981
0.011678475 0.0021233857 0.66818082
0.011664647 0.0010604858 0.66802907
0.011661693 -0 0.66799664
0.01166949 -0.0010608435 0.66808218
0.011688725 -0.0021252036 0.6682933
0.011718434 -0.0031959414 0.66861933
0.011759426 -0.0042761266 0.66906917
0.011813034 -0.005369544 0.66965741
0.011880819 -0.0064803958 0.67040128
0.011965733 -0.007614553 0.67133307
0.012070748 -0.0087786913 0.67248553
0.01220379 -0.0099849105 0.67394543
0.012372472 -0.011247694 0.67579651
0.012604009 -0.012603998 0.67833734
0.012958426 -0.014136463 0.68222666
0.018046683 0.025566131 0.72156042
0.018040359 0.024053872 0.7214967
0.017813915 0.022267431 0.71921891
0.017778218 0.020741284 0.71885979
0.014109437 0.015285254 0.68195474
0.013674657 0.013674647 0.67758119
0.01341025 0.012292743 0.67492145
0.013213825 0.011011541 0.67294556
0.01306236 0.0097967982 0.67142195
0.012941463 0.0086276531 0.67020583
0.012844153 0.0074924529 0.669227
0.012764687 0.006382376 0.66842759
0.012701617 0.005292356 0.66779315
0.012653283 0.0042177737 0.66730696
0.012618514 0.0031546354 0.66695726
0.012593702 0.0020989776 0.66670763
0.012579189 0.0010482967 0.6665616
0.012575888 -0 0.6665284
0.012584162 -0.0010486841 0.66661167
0.0126044 -0.0021007359 0.66681528
0.012635568 -0.0031588674 0.66712874
0.012678561 -0.0042261481 0.66756123
0.012734668 -0.0053060651 0.66812563
0.012805614 -0.0064027905 0.66883934
0.012894399 -0.0075217187 0.66973245
0.013004064 -0.0086693466 0.67083549
0.01314277 -0.0098570585 0.67223084
0.013318243 -0.011098534 0.67399597
0.013552166 -0.0124228 0.67634898
0.013900823 -0.013900787 0.67985624
0.019257847 0.02518335 0.71884233
0.019330535 0.023791432 0.71951723
0.019233659 0.022192687 0.71861768
0.019292228 0.020776272 0.71916151
0.015024314 0.015024334 0.67953205
0.014603388 0.013480067 0.6756236
0.014335011 0.012129664 0.67313159
0.014133533 0.010871977 0.67126083
0.013977405 0.0096766949 0.66981107
0.013852031 0.0085243583 0.66864693
0.013750494 0.0074041188 0.66770411
0.013667285 0.0063080192 0.66693151
0.013601111 0.0052312315 0.66631699
0.013550437 0.0041694045 0.66584647
0.013514033 0.0031186342 0.66550851
0.013488166 0.0020751357 0.6652683
0.013472959 0.0010364056 0.6651271
0.013469343 -0 0.66509354
0.013478065 -0.0010367632 0.66517448
0.013499211 -0.002076745 0.66537082
0.013531683 -0.0031226575 0.66567236
0.013576421 -0.0041773617 0.66608775
0.013634777 -0.0052441359 0.66662955
0.013708513 -0.0063270032 0.66731429
0.013800654 -0.0074311197 0.66816986
0.013914757 -0.0085628927 0.66922933
0.014057966 -0.0097323954 0.67055905
0.014239303 -0.010953277 0.67224288
0.014474655 -0.012247771 0.67442822
0.014821357 -0.013681233 0.67764753
0.01566595 -0.015665948 0.68548995
0.02084703 0.026803315 0.71977186
0.020483784 0.024873197 0.71663988
0.020613812 0.023558676 0.71776098
0.02066741 0.022143662 0.71822309
0.020774294 0.020774305 0.71914464
0.015918788 0.014781743 0.67727959
0.015510158 0.013294399 0.6737563
0.015235506 0.011970788 0.67138821
0.015031148 0.010736555 0.66962624
0.014870739 0.0095597804 0.66824311
0.014741093 0.0084235072 0.66712534
0.014635761 0.0073179305 0.66621709
0.014549352 0.0062354505 0.66547209
0.014480102 0.0051714778 0.66487497
0.014427237 0.0041220784 0.66441917
0.014389384 0.0030834377 0.66409278
0.014362492 0.0020518005 0.66386092
0.014346735 0.0010247827 0.66372502
0.014342758 5.9604645e-08 0.66369075
0.014351941 -0.0010251403 0.6637699
0.014373908 -0.00205338 0.66395932
0.014407496 -0.003087312 0.66424894
0.014453772 -0.0041296184 0.66464794
0.014514146 -0.0051836073 0.66516852
0.014590284 -0.0062529445 0.66582495
0.014685777 -0.007342875 0.66664833
0.014804212 -0.0084595382 0.66766953
0.014950444 -0.0096109807 0.66893029
0.015136475 -0.010811746 0.67053437
0.015376755 -0.012081742 0.67260611
0.015721235 -0.013475329 0.67557627
0.016385879 -0.015215456 0.68130696
0.022001572 0.026401877 0.71707976
0.02171394 0.024609149 0.71476507
0.021891695 0.023351133 0.71619558
0.022037014 0.022037059 0.71736491
0.022194384 0.02071479 0.71863133
0.016793327 0.014554203 0.67516702
0.016392499 0.013114035 0.67194146
0.016114661 0.011817425 0.66970551
0.015907647 0.010605097 0.66803962
0.015742889 0.0094457269 0.66671371
0.015609319 0.0083250105 0.66563886
0.0155006 0.0072336197 0.66476393
0.015411408 0.0061646104 0.66404617
0.015339516 0.0051131845 0.66346765
0.015284413 0.004075855 0.66302419
0.01524516 0.0030490458 0.66270828
0.015217385 0.0020290017 0.66248477
0.015201142 0.001013428 0.66235405
0.015196798 2.9802322e-08 0.66231912
0.015206375 -0.0010137558 0.66239619
0.01522908 -0.0020305514 0.66257894
0.015263688 -0.0030527413 0.66285747
0.015311352 -0.0040830076 0.66324097
0.015373405 -0.0051244795 0.6637404
0.015451888 -0.0061807334 0.66437197
0.015551474 -0.0072573125 0.66517335
0.015673345 -0.0083591044 0.66615409
0.015822221 -0.0094933212 0.66735214
0.016012527 -0.010675013 0.66888356
0.01625579 -0.011920899 0.67084128
0.016594693 -0.013275743 0.67356855
0.017184792 -0.014893472 0.67831731
0.023121946 0.026012212 0.71446639
0.022940194 0.024373978 0.71309513
0.023137245 0.023137242 0.71458185
0.023337811 0.021879226 0.71609491
0.018481197 0.016171038 0.67945462
0.017643649 0.014335483 0.67313582
0.017251216 0.01293841 0.67017514
0.016973805 0.011669487 0.66808224
0.016763199 0.010477036 0.6664933
0.016594477 0.0093343854 0.66522044
0.01645752 0.0082287788 0.66418719
0.016345793 0.0071513057 0.66334426
0.016254088 0.0060952902 0.66265237
0.016180055 0.0050563216 0.66209388
0.016122529 0.0040306449 0.66165984
0.016082048 0.003015399 0.66135442
0.016053535 0.0020066798 0.66113937
0.016036771 0.0010022819 0.66101289
0.016032148 -0 0.66097802
0.016042093 -0.0010026097 0.661053
0.016065411 -0.0020081997 0.6612289
0.016100958 -0.0030189157 0.66149706
0.016149741 -0.00403741 0.66186512
0.016213275 -0.0050666332 0.66234446
0.016295105 -0.0061106682 0.66296184
0.016397282 -0.0071738064 0.66373271
0.01652213 -0.0082610548 0.66467464
0.01667431 -0.0093792975 0.66582274
0.016866744 -0.010541677 0.66727448
0.01711178 -0.011764348 0.66912317
0.017444899 -0.013083667 0.67163634
0.017998828 -0.014624029 0.6758154
0.024209825 0.025633931 0.71192968
0.023943301 0.023943335 0.71003723
0.024104415 0.022686541 0.71118122
0.024560427 0.021670967 0.71441919
0.019191416 0.015804708 0.67629588
0.018477861 0.014130145 0.67122912
0.018088235 0.012768209 0.66846263
0.017812671 0.011525869 0.66650593
0.017598277 0.010351956 0.66498357
0.017426226 0.0092256367 0.66376191
0.017286291 0.0081347525 0.6627683
0.017171917 0.0070708096 0.66195619
0.017078036 0.0060275197 0.66128957
0.017002042 0.0050006211 0.66074991
0.016942305 0.003986448 0.66032577
0.016900666 0.0029824674 0.66003013
0.016871462 0.0019848943 0.6598227
0.016854323 0.00099146366 0.65970105
0.016849324 2.9802322e-08 0.65966552
0.016859664 -0.00099170208 0.65973896
0.016883517 -0.001986295 0.65990829
0.016919836 -0.0029858351 0.6601662
0.01696961 -0.0039928555 0.66051966
0.017034402 -0.0050100684 0.66097975
0.017119413 -0.0060421228 0.66158336
0.017223891 -0.0070921779 0.6623252
0.017351389 -0.0081653595 0.66323054
0.017506795 -0.0092683136 0.664334
0.017699838 -0.01041165 0.66570473
0.017945524 -0.011611789 0.66744924
0.01828103 -0.012904227 0.66983151
0.018797087 -0.014374226 0.67349589
0.025489662 0.025489658 0.71096218
0.025477305 0.024061948 0.71087933
0.025465066 0.022635609 0.71079731
0.025500054 0.021250099 0.71103191
0.01993553 0.015505433 0.67371541
0.019293152 0.013933986 0.66940749
0.018907627 0.012605101 0.66682214
0.01863114 0.011385709 0.66496801
0.018413652 0.010229796 0.66350949
0.018238816 0.0091193914 0.66233695
0.018096333 0.0080428123 0.66138148
0.017979702 0.0069921315 0.66059929
0.017883873 0.0059612691 0.65995669
0.017806126 0.0049461424 0.65943533
0.017744344 0.0039432049 0.65902096
0.017701605 0.0029502511 0.65873438
0.017671846 0.0019635558 0.65853482
0.017654337 0.00098082423 0.65841734
0.017648958 -0 0.65838128
0.017659672 -0.00098109245 0.65845311
0.017683988 -0.0019648969 0.65861624
0.017720966 -0.0029534698 0.65886414
0.01777157 -0.0039491951 0.65920353
0.017838374 -0.0049550831 0.65965152
0.017925439 -0.0059751272 0.6602354
0.018031953 -0.0070123971 0.66094971
0.018161703 -0.0080718696 0.66181988
0.018319752 -0.0091598928 0.66287977
0.018515259 -0.010286242 0.66419083
0.018760119 -0.011464536 0.66583294
0.019094538 -0.012729675 0.66807556
0.019591024 -0.01414907 0.67140508
0.027045183 0.025621772 0.71184802
0.027032116 0.024186641 0.71176505
0.027018951 0.022752821 0.71168143
0.027005799 0.021320373 0.71159786
0.020692831 0.015247345 0.67149031
0.020086054 0.013743132 0.66763532
0.019708708 0.012447625 0.66523796
0.019429941 0.011248946 0.66346693
0.019210069 0.010110587 0.66207004
0.019032905 0.00901559 0.66094452
0.01888833 0.0079529583 0.66002601
0.018769654 0.0069151521 0.65927202
0.018672187 0.0058964789 0.65865278
0.018592941 0.0048929155 0.6581493
0.018529588 0.003900975 0.65774679
0.018485487 0.0029188097 0.65746665
0.018455153 0.0019426644 0.65727389
0.01843732 0.00097039342 0.65716064
0.018431608 -0 0.65712428
0.018442677 -0.00097066164 0.65719467
0.018467389 -0.0019439161 0.65735167
0.018504918 -0.0029218197 0.65759009
0.018556254 -0.0039065778 0.65791619
0.018625252 -0.0049013793 0.65835458
0.018713789 -0.0059095919 0.65891707
0.018821988 -0.0069344342 0.65960449
0.018953674 -0.0079804659 0.6604411
0.019113963 -0.0090539455 0.66145945
0.019311609 -0.010163993 0.6627152
0.01955865 -0.011323392 0.66428465
0.019886332 -0.012559801 0.66636646
0.020360533 -0.013930857 0.66937917
0.028604543 0.024313897 0.71266842
0.028589128 0.022871315 0.71257538
0.028575137 0.021431357 0.71249098
0.021431217 0.015001863 0.66937357
0.020858152 0.013557822 0.66591477
0.020490197 0.012294173 0.66369402
0.020209776 0.011115402 0.66200155
0.019988077 0.00999403 0.66066349
0.01980906 0.0089140832 0.65958297
0.019662775 0.0078651309 0.65870011
0.019542456 0.0068398714 0.65797389
0.01945198 0.0058356225 0.65742785
0.019381724 0.0048454404 0.65700382
0.019327389 0.0038654804 0.65667582
0.019290319 0.0028935671 0.65645212
0.019267855 0.0019268095 0.65631652
0.019255789 0.00096282363 0.65624368
0.019252747 -0 0.65622538
0.019260593 -0.00096300244 0.65627277
0.019277902 -0.0019277632 0.6563772
0.019304357 -0.0028956831 0.65653688
0.019347837 -0.0038695335 0.65679926
0.019409982 -0.0048524737 0.65717435
0.019487545 -0.0058462322 0.65764248
0.019594692 -0.0068581402 0.65828919
0.019727916 -0.0078911483 0.65909326
0.019890022 -0.0089504719 0.66007161
0.020089252 -0.010044605 0.66127414
0.020337883 -0.011185825 0.66277474
0.020657698 -0.012394577 0.66470498
0.021121109 -0.013728708 0.66750193
0.022054633 -0.015438229 0.67313623
0.030160902 0.021543533 0.71339345
0.02216571 0.014777154 0.66743606
0.021618864 0.01338309 0.66429275
0.021252653 0.012144417 0.6621877
0.020971315 0.010985017 0.66057056
0.020748354 0.0098801553 0.65928894
0.020572223 0.0088166893 0.6582765
0.020446727 0.0077892244 0.65755522
0.020352513 0.0067841709 0.65701365
0.020284507 0.005795598 0.65662265
0.020227209 0.0048160255 0.65629333
0.020185858 0.0038449466 0.65605569
0.020158423 0.0028797984 0.65589792
0.02013945 0.0019180477 0.6557889
0.020129394 0.0009585619 0.65573108
0.020126896 2.9802322e-08 0.65571672
0.020133227 -0.00095874071 0.65575314
0.020147791 -0.0019187927 0.65583682
0.020170068 -0.0028814077 0.65596485
0.02019966 -0.0038475394 0.65613496
0.020249719 -0.0048213601 0.65642273
0.020311836 -0.0058033466 0.65677977
0.020384923 -0.0067949593 0.65719986
0.020500727 -0.007809788 0.65786552
0.020648483 -0.0088493526 0.65871489
0.020848839 -0.0099280179 0.65986657
0.021098472 -0.011051595 0.66130149
0.021416832 -0.012238175 0.66313142
0.021867519 -0.013537019 0.66572207
0.022672614 -0.015115052 0.67034984
0.022889076 0.014565766 0.66561365
0.022362381 0.013214141 0.66272378
0.021996817 0.011998266 0.66071796
0.021715192 0.010857582 0.65917277
0.021526543 0.0097848177 0.65813768
0.021398677 0.008754015 0.65743607
0.021299582 0.0077452958 0.65689236
0.021228543 0.0067545474 0.6565026
0.021171631 0.0057740808 0.65619028
0.021123132 0.0048007369 0.6559242
0.021091428 0.0038348138 0.65575027
0.021068757 0.0028730035 0.65562582
0.021053031 0.0019139051 0.65553957
0.02104486 0.00095656514 0.65549469
0.021042891 2.9802322e-08 0.6554839
0.021047873 -0.00095671415 0.65551126
0.021059819 -0.0019145012 0.65557677
0.021078225 -0.0028742552 0.6556778
0.021101849 -0.0038366914 0.65580744
0.021142527 -0.0048051178 0.65603065
0.021194289 -0.0057802498 0.65631461
0.021255223 -0.0067630112 0.65664899
0.021341147 -0.0077603757 0.65712035
0.021451037 -0.008775413 0.65772337
0.021610158 -0.0098228157 0.65859646
0.021840954 -0.010920465 0.65986276
0.022159159 -0.012086809 0.66160876
0.022593444 -0.013350636 0.66399157
0.023322461 -0.014841557 0.66799158
0.024621904 0.01605776 0.66924769
0.02359204 0.014360368 0.66384262
0.023087354 0.013049394 0.66119391
0.022743143 0.011865973 0.65938735
0.022531737 0.010776043 0.65827787
0.022387762 0.0097337961 0.65752226
0.02228942 0.0087219477 0.65700608
0.022207908 0.0077245533 0.6565783
0.022149682 0.0067412257 0.65627271
0.022102879 0.0057659745 0.65602708
0.022064799 0.0047967136 0.65582722
0.022039609 0.0038329959 0.65569508
0.022023028 0.0028725863 0.655608
0.022011504 0.001914084 0.6555475
0.022005381 0.00095677376 0.65551537
0.022004049 2.9802322e-08 0.6555084
0.022007503 -0.00095686316 0.65552652
0.022016171 -0.0019144118 0.655572
0.022029888 -0.0028734505 0.65564394
0.022047451 -0.003834337 0.65573621
0.022079919 -0.004799962 0.65590656
0.022121906 -0.0057709217 0.65612692
0.022171495 -0.006747812 0.65638721
0.022241345 -0.0077361166 0.65675378
0.022332022 -0.0087386072 0.65722966
0.022451915 -0.0097616911 0.65785891
0.022613535 -0.010815144 0.65870714
0.022883283 -0.011939079 0.66012287
0.023301076 -0.013170153 0.66231555
0.023975074 -0.014593512 0.6658529
0.025171515 0.015732229 0.66662771
0.024283439 0.014165372 0.66216105
0.023828607 0.012907177 0.65987337
0.023586588 0.011793315 0.65865612
0.02342644 0.010737151 0.65785062
0.023308646 0.009711951 0.65725815
0.023228399 0.0087106526 0.65685457
0.023161368 0.0077204704 0.65651745
0.023116298 0.0067422688 0.65629077
0.023083281 0.0057708323 0.65612471
0.023055265 0.0048031807 0.65598381
0.023042843 0.0038405061 0.65592134
0.023035523 0.0028794706 0.6558845
0.02303056 0.00191921 0.65585953
0.023028016 0.00095951557 0.65584671
0.023027444 -0 0.65584385
0.023028843 -0.00095954537 0.65585089
0.023032406 -0.001919359 0.65586883
0.023038514 -0.0028797686 0.65589952
0.023046345 -0.0038410425 0.65593892
0.023066426 -0.0048055053 0.65603989
0.023096772 -0.0057741702 0.65619254
0.023132714 -0.0067470372 0.65637332
0.023189384 -0.0077297688 0.65665835
0.023261508 -0.0087230504 0.65702105
0.023360685 -0.0097336173 0.65751994
0.023486083 -0.01076445 0.65815061
0.023675648 -0.01183781 0.65910405
0.024004057 -0.013002187 0.66075587
0.024632687 -0.014369041 0.6639176
0.025752155 0.015451282 0.6643672
0.024999334 0.013999671 0.66073221
0.024686104 0.012836784 0.6592198
0.024503315 0.011761606 0.65833724
0.024370708 0.010723144 0.65769696
0.0242776 0.0097110569 0.65724742
0.024213986 0.0087170303 0.65694022
0.024165621 0.0077329874 0.65670669
0.024140572 0.0067593753 0.65658575
0.024126157 0.0057902634 0.65651619
0.024117986 0.0048235953 0.65647668
0.024117986 0.0038588643 0.65647674
0.024117986 0.0028941929 0.65647668
0.024117986 0.001929462 0.65647668
0.024117986 0.00096476078 0.65647668
0.024118053 2.9802322e-08 0.65647703
0.024117986 -0.00096470118 0.65647674
0.024117986 -0.0019294322 0.65647674
0.024117986 -0.0028941631 0.65647674
0.024117986 -0.0038588643 0.65647668
0.02411899 -0.0048237741 0.65648156
0.024132121 -0.0057916641 0.65654492
0.024147283 -0.0067611933 0.65661812
0.024187086 -0.0077398419 0.65681034
0.024237702 -0.0087255538 0.65705472
0.02431831 -0.009727329 0.657444
0.024421956 -0.010745645 0.65794444
0.024572976 -0.011794984 0.65867358
0.024799427 -0.012895703 0.65976697
0.025285531 -0.014159888 0.66211414
0.026372105 0.015214652 0.66246307
0.025853107 0.013920903 0.66005349
0.025621269 0.012810647 0.65897709
0.02547037 0.011755586 0.6582765
0.025362613 0.010730356 0.65777624
0.025296567 0.0097294748 0.65746963
0.025254987 0.0087421536 0.65727651
0.02523474 0.0077645481 0.65718257
0.025231358 0.0067930818 0.65716684
0.025231287 0.0058226287 0.65716648
0.032196958 0.0061917603 0.68950617
0.031910483 0.0049093366 0.68817616
0.032010775 0.0036935508 0.68864179
0.032562155 0.0025047958 0.69120169
0.032597639 0.0012537539 0.69136643
0.03211318 -0 0.68911719
0.032176889 -0.0012375712 0.68941295
0.032519262 -0.0025014579 0.69100249
0.032418437 -0.0037406087 0.69053447
0.031715892 -0.0048793554 0.68727273
0.031756364 -0.0061070025 0.6874606
0.025231358 -0.0058225989 0.65716684
0.025231428 -0.0067930818 0.6571672
0.025243625 -0.0077672303 0.65722376
0.025264945 -0.0087455511 0.65732276
0.025325997 -0.0097407401 0.65760624
0.025407478 -0.01074931 0.65798455
0.025525207 -0.011780828 0.65853113
0.025710298 -0.012855113 0.65939045
0.026017651 -0.014009476 0.66081738
0.027229279 -0.015709192 0.66644263
0.027129665 0.015072048 0.66131514
0.02680251 0.013897628 0.6598525
0.026612666 0.012813509 0.65900379
0.026485097 0.011771172 0.65843344
0.026405705 0.010757893 0.65807855
0.026372155 0.0097674727 0.65792853
0.026358003 0.0087859929 0.65786529
0.026358003 0.0078098178 0.65786523
0.032068636 0.0083141327 0.6833961
0.032956097 0.0073235631 0.6873638
0.03311453 0.0061323047 0.68807209
0.032814771 0.004861474 0.68673193
0.032950655 0.0036612153 0.68733943
0.033486854 0.0024805069 0.68973666
0.033525269 0.001241684 0.68990839
0.033026401 -0 0.6876781
0.033086386 -0.0012254417 0.68794626
0.033445429 -0.0024774373 0.68955147
0.033344034 -0.0037048459 0.68909812
0.032631584 -0.0048342943 0.68591291
0.03264657 -0.0060456395 0.68597996
0.032812249 -0.007291615 0.68672067
0.032553229 -0.0084397197 0.68556267
0.026358003 -0.0078097582 0.65786517
0.026358152 -0.0087860227 0.65786588
0.026383799 -0.0097717643 0.65798056
0.026440609 -0.010772109 0.65823454
0.026535211 -0.011793405 0.65865749
0.026681617 -0.012846708 0.65931201
0.026928987 -0.013963163 0.66041797
0.027587423 -0.015326351 0.66336167
0.028074391 0.015039861 0.66105616
0.027803775 0.013901919 0.65988946
0.027641758 0.012833685 0.65919101
0.027549399 0.011806905 0.65879285
0.027509205 0.010807216 0.65861958
0.027498085 0.0098207295 0.65857166
0.032996159 0.010605901 0.68227434
0.032926477 0.0094075799 0.68197393
0.03295726 0.0082393289 0.68210667
0.033861242 0.0072559714 0.6860038
0.034012053 0.0060735941 0.68665397
0.033701606 0.0048145354 0.68531561
0.033864543 0.0036283731 0.68601805
0.034395508 0.0024568439 0.68830705
0.034435071 0.0012298226 0.68847764
0.033927012 2.9802322e-08 0.68628734
0.033976894 -0.0012134314 0.6865024
0.034353849 -0.0024538338 0.68812746
0.034252133 -0.0036698878 0.68768901
0.033532135 -0.0047902465 0.68458498
0.03352093 -0.0059858561 0.6845367
0.033713866 -0.007224381 0.68536842
0.033457413 -0.0083643496 0.68426287
0.032492451 -0.0092835426 0.68010283
0.027498085 -0.0088386536 0.6585716
0.027498163 -0.0098207593 0.65857196
0.027523369 -0.010812759 0.65868062
0.027590571 -0.011824518 0.65897036
0.02771483 -0.0128676 0.65950602
0.027920669 -0.013960332 0.66039342
0.028314354 -0.015168369 0.66209066
0.029814959 0.01644963 0.66412765
0.029102746 0.015053123 0.66116309
0.028862754 0.013933778 0.66016412
0.028730344 0.012879103 0.65961301
0.028668793 0.011862963 0.65935677
0.028652083 0.010868043 0.65928721
0.032550167 0.01122421 0.67551279
0.033865977 0.010510147 0.68098974
0.033765998 0.0093147457 0.68057358
0.033834025 0.0081668496 0.68085676
0.034749836 0.0071896315 0.68466872
0.034890853 0.0060156882 0.68525577
0.03457148 0.0047684908 0.68392634
0.034790628 0.0035990179 0.68483859
0.03528709 0.0024336278 0.68690503
0.035327669 0.0012182295 0.68707395
0.034811057 -0 0.68492359
0.034850307 -0.0012016892 0.68508697
0.035245251 -0.0024306774 0.68673092
0.035143226 -0.0036354959 0.68630624
0.034415737 -0.0047469735 0.68327808
0.034378868 -0.0059273541 0.68312466
0.034592722 -0.0071571171 0.6840148
0.03434559 -0.0082902908 0.68298614
0.033338137 -0.0091966987 0.67879266
0.033412866 -0.01036948 0.67910367
0.028652001 -0.0098799765 0.65928692
0.028652001 -0.010868013 0.65928692
0.028685687 -0.011869937 0.65942711
0.028781468 -0.012902021 0.6598258
0.028955145 -0.013978332 0.66054875
0.029289611 -0.015149772 0.66194093
0.030683005 0.016364276 0.66348368
0.030167453 0.01508376 0.6614092
0.029958334 0.013980567 0.66056776
0.029852889 0.012936294 0.66014349
0.029819841 0.011927933 0.66001052
0.033241671 0.012188613 0.67377889
0.033402726 0.011134237 0.67442697
0.034719765 0.010415912 0.6797263
0.034591876 0.0092245042 0.67921168
0.03470809 0.0080985725 0.67967927
0.035622317 0.0071244836 0.68335789
0.035752926 0.0059588552 0.68388343
0.035424028 0.0047232211 0.68256003
0.035663877 0.0035663843 0.68352515
0.036161974 0.0024108589 0.68552929
