# .PCD v0.7 - Point Cloud Data file format
VERSION 0.7
FIELDS x y z
SIZE 4 4 4
TYPE F F F
COUNT 1 1 1
WIDTH 1327
HEIGHT 1
VIEWPOINT 0 0 0 1 0 0 0
POINTS 1327
DATA ascii
-0.028509555 -0.0035636723 0.75511277
-0.029120166 -0.0054600537 0.75971943
-0.030062264 -0.0075155795 0.76682705
-0.028131196 0.013127893 0.76640713
-0.026829934 0.010731995 0.75593537
-0.02605211 0.0086840391 0.74967599
-0.025684424 0.0068491995 0.7467171
-0.025671268 0.0051342845 0.74661112
-0.02567051 0.0034227371 0.7466051
-0.025549956 0.0017033517 0.74563497
-0.025012061 -0 0.7413063
-0.025196334 -0.0016797185 0.74278921
-0.021865796 -0.0029154122 0.71598709
-0.0218098 -0.0043619573 0.71553648
-0.021704536 -0.0057878792 0.71468937
-0.02184069 -0.0072802305 0.71578509
-0.026621172 0.015212119 0.7695576
-0.024769433 0.012384742 0.75359154
-0.024025053 0.010296464 0.74717337
-0.024018528 0.0085780621 0.7471171
-0.024018647 0.0068624914 0.74711812
-0.020686569 0.0044328272 0.71838838
-0.020541564 0.0029345155 0.71713805
-0.020492155 0.0014637411 0.716712
-0.02046939 2.9802322e-08 0.71651578
-0.02043448 -0.0014595985 0.71621478
-0.020388659 -0.0029126108 0.7158196
-0.020252675 -0.004339844 0.71464717
-0.019147713 -0.0054707825 0.70511997
-0.019422706 -0.0069366693 0.70749104
-0.019852882 -0.0085083544 0.71120012
-0.019286297 0.014835626 0.7191065
-0.023038076 0.014177293 0.75394338
-0.021778286 0.011726767 0.74224567
-0.022260712 0.010274202 0.7467252
-0.019038534 0.0073224902 0.71680588
-0.019025303 0.005853951 0.71668303
-0.019025384 0.0043905079 0.71668375
-0.019025384 0.0029270053 0.71668375
-0.019025303 0.0014634728 0.71668303
-0.019015132 2.9802322e-08 0.7165885
-0.018958947 -0.0014583766 0.71606684
-0.017577235 -0.0027041733 0.70323706
-0.017539356 -0.004047513 0.70288527
-0.017457673 -0.0053715706 0.70212686
-0.017220017 -0.0066230595 0.69992012
-0.017579764 -0.0081137121 0.70326054
-0.016990131 0.015574306 0.71093225
-0.017282378 0.014402002 0.71387202
-0.017799467 0.013349593 0.71907359
-0.020688845 0.013792574 0.74813855
-0.0176461 0.010293573 0.71753085
-0.017605048 0.0088025331 0.71711785
-0.017605122 0.0073354542 0.71711862
-0.016480112 0.0054933727 0.7058019
-0.016314076 0.0040785372 0.70413166
-0.016276313 0.0027127266 0.70375186
-0.016271297 0.0013559163 0.70370138
-0.016266283 -0 0.70365089
-0.016253853 -0.0013544858 0.7035259
-0.016216179 -0.002702713 0.70314693
-0.016118264 -0.0040295124 0.70216197
-0.015112244 -0.0050373971 0.69204223
-0.015210205 -0.0063375533 0.69302762
-0.015503322 -0.0077516437 0.69597614
-0.021756025 -0.012691021 0.75887346
-0.017627822 -0.01175186 0.71734697
-0.017596949 -0.01319769 0.71703643
-0.015489333 0.01689747 0.71000004
-0.014943812 0.014943868 0.70401365
-0.015392213 0.013992965 0.70893425
-0.015896471 0.01300621 0.71446782
-0.0161041 0.011712074 0.71674633
-0.016157063 0.010281771 0.71732748
-0.015001939 0.0081828833 0.70465147
-0.014941418 0.0067915618 0.70398736
-0.01494095 0.0054331124 0.70398223
-0.014940891 0.0040748119 0.70398158
-0.01494095 0.0027165711 0.70398223
-0.01494095 0.0013582706 0.70398223
-0.01493027 2.9802322e-08 0.70386499
-0.014885845 -0.0013532341 0.70337749
-0.01374741 -0.002499491 0.69088471
-0.01369083 -0.0037338734 0.69026387
-0.013648005 -0.0049628913 0.68979388
-0.013541052 -0.006155014 0.68862015
-0.013602833 -0.0074197352 0.68929815
-0.013876478 -0.0088304579 0.69230103
-0.016157337 -0.011750787 0.71733052
-0.016092302 -0.013166398 0.71661681
-0.015849931 -0.014409006 0.71395707
-0.0132627 0.015915275 0.70011973
-0.013223886 0.014546275 0.69965118
-0.01360587 0.013605893 0.70426214
-0.013835962 0.012452394 0.70703959
-0.013798545 0.01103884 0.70658797
-0.013617869 0.009532541 0.70440698
-0.013616321 0.0081698298 0.70438826
-0.013616268 0.0068081617 0.70438761
-0.012697959 0.0050792098 0.69330275
-0.012589202 0.0037767589 0.6919899
-0.012526255 0.0025053024 0.69123
-0.012517095 0.0012517273 0.69111943
-0.012509208 2.9802322e-08 0.69102424
-0.012489335 -0.0012488961 0.69078434
-0.012469614 -0.0024939179 0.69054633
-0.012420938 -0.003726244 0.68995875
-0.012257892 -0.0049031377 0.68799055
-0.011936557 -0.0059682429 0.68411171
-0.011858423 -0.0071150064 0.68316859
-0.012081989 -0.0084573925 0.68586731
-0.013780377 -0.011024266 0.70636857
-0.013621232 -0.012259096 0.70444751
-0.013604379 -0.013604373 0.70424414
-0.014176811 -0.015594482 0.71115398
-0.013448806 0.019426048 0.72040415
-0.011350186 0.01513359 0.69225681
-0.011604365 0.014183104 0.69566596
-0.011938663 0.013265193 0.70014966
-0.012195619 0.012195617 0.703596
-0.012248977 0.01088798 0.70431173
-0.012279615 0.0095508397 0.70472252
-0.011325768 0.0075505078 0.69192934
-0.011270217 0.0062612593 0.69118428
-0.011267983 0.0050080121 0.6911543
-0.011268023 0.0037560463 0.69115484
-0.011268023 0.0025040209 0.69115484
-0.011268023 0.0012519956 0.69115484
-0.01126502 -0 0.6911146
-0.011241897 -0.0012490749 0.69080442
-0.011187043 -0.0024859905 0.69006872
-0.010978655 -0.0036595464 0.68727374
-0.010692213 -0.0047520995 0.68343186
-0.010420336 -0.0057890415 0.67978537
-0.010255253 -0.0068368316 0.6775713
-0.010437135 -0.0081177652 0.68001074
-0.012282605 -0.010917842 0.7047627
-0.012259445 -0.012259454 0.7044521
-0.012200758 -0.013556391 0.70366496
-0.012041174 -0.014717013 0.70152462
-0.011936426 0.020888776 0.72013152
-0.0099774823 0.016213417 0.69057333
-0.0097961528 0.014694244 0.68783724
-0.010063741 0.013837665 0.69187486
-0.010326755 0.012908459 0.69584346
-0.010645348 0.011976033 0.70065063
-0.010165872 0.01016587 0.69341594
-0.010041602 0.0087864101 0.69154084
-0.010040949 0.007530719 0.69153094
-0.010040913 0.0062755644 0.69153041
-0.010040913 0.0050204694 0.69153047
-0.010040913 0.0037653744 0.69153041
-0.010040913 0.0025102198 0.69153047
-0.010034823 0.0012543797 0.69143856
-0.0100078 2.9802322e-08 0.69103074
-0.0099452119 -0.0012431741 0.69008642
-0.0097117536 -0.0024279058 0.68656379
-0.0094595235 -0.003547281 0.68275791
-0.0092201242 -0.0046100318 0.67914569
-0.0089925434 -0.0056203306 0.67571175
-0.008797368 -0.0065979958 0.6727668
-0.0089192828 -0.007804364 0.67460638
-0.0091136582 -0.0091136396 0.67753923
-0.010197796 -0.011472493 0.6938976
-0.010076107 -0.012595087 0.69206142
-0.010125878 -0.013923079 0.69281244
-0.010710235 -0.016065329 0.70162964
-0.00984783 0.019695669 0.70984447
-0.0082775615 0.015372664 0.6827662
-0.0083731068 0.014353901 0.68441379
-0.0085963849 0.013508648 0.68826413
-0.0087663559 0.012523383 0.69119513
-0.0087946607 0.011307418 0.69168329
-0.0088026496 0.010060191 0.69182104
-0.0088077178 0.0088077486 0.69190842
-0.0088077178 0.0075494945 0.69190836
-0.0088076862 0.0062912107 0.69190788
-0.0088077178 0.0050329864 0.69190842
-0.0088076219 0.0037747025 0.69190681
-0.0087974286 0.0025135577 0.69173098
-0.0087682838 0.0012525916 0.69122839
-0.0086874831 2.9802322e-08 0.68983507
-0.0084569808 -0.0012081563 0.68586016
-0.0082384218 -0.0023538172 0.68209124
-0.0080308234 -0.0034417808 0.67851138
-0.0074119186 -0.004235357 0.66783869
-0.0073939157 -0.005281359 0.66752827
-0.0074168001 -0.0063572526 0.66792291
-0.0075142039 -0.0075141788 0.66960263
-0.0076484629 -0.0087410808 0.6719178
-0.0088073034 -0.011323661 0.69190127
-0.0087952968 -0.012564689 0.69169426
-0.0087639866 -0.013771981 0.6911543
-0.0087616825 -0.015020013 0.6911146
-0.0070620072 0.016478062 0.68210137
-0.006852746 0.014847666 0.67789137
-0.007014486 0.014028996 0.68114531
-0.0071971905 0.013194859 0.68482107
-0.0073896935 0.012316167 0.68869388
-0.0075045796 0.011256874 0.69100523
-0.0075442824 0.010059088 0.69180399
-0.0075641545 0.0088248551 0.69220376
-0.0075683286 0.0075683296 0.69228774
-0.0075683286 0.0063069463 0.6922878
-0.0075670099 0.0050446987 0.69226122
-0.0075552184 0.0037776232 0.69202399
-0.0069347601 0.0023115873 0.67954135
-0.0069294814 0.0011548996 0.67943513
-0.0069376444 2.9802322e-08 0.6795994
-0.0070286514 -0.0011714399 0.68143034
-0.0063825194 -0.0021274984 0.66843116
-0.0063259695 -0.0031629801 0.66729343
-0.0063076532 -0.0042050481 0.66692495
-0.0063036671 -0.0052530468 0.66684473
-0.0063072527 -0.0063072741 0.66691685
-0.0063204463 -0.0073738396 0.66718233
-0.0063465945 -0.0084621012 0.66770834
-0.0075517152 -0.011327565 0.69195354
-0.0075182463 -0.012530416 0.69128019
-0.0074208099 -0.01360479 0.68931991
-0.00727459 -0.014549136 0.68637818
-0.0076118498 -0.016492307 0.69316334
-0.0066451482 0.019935489 0.7004528
-0.0055917404 0.015656888 0.67502135
-0.0055775587 0.014501661 0.67467892
-0.0057160137 0.013718456 0.67802155
-0.0058615175 0.012895375 0.68153429
-0.0060146232 0.012029231 0.68523061
-0.0061759627 0.011116743 0.68912566
-0.0062703383 0.010032564 0.6914041
-0.0063031651 0.0088244379 0.69219661
-0.0057475171 0.0068970323 0.67878211
-0.0056895078 0.0056895316 0.67738163
-0.0053463783 0.0042771399 0.66909772
-0.0053169108 0.0031901896 0.66838634
-0.0053047026 0.0021219254 0.6680916
-0.0053030024 0.001060605 0.66805059
-0.0053003491 2.9802322e-08 0.66798651
-0.0052887965 -0.0010577738 0.66770762
-0.0052741538 -0.0021096468 0.66735411
-0.0052622049 -0.0031572878 0.66706556
-0.0052591623 -0.0042073429 0.66699219
-0.0052591623 -0.0052591562 0.66699219
-0.0052591623 -0.0063109696 0.66699213
-0.0052605318 -0.0073647201 0.66702527
-0.0052826372 -0.0084522069 0.66755891
-0.0062671714 -0.011280894 0.69132763
-0.0061612008 -0.012322366 0.68876928
-0.0060380972 -0.013283819 0.68579733
-0.0059198374 -0.014207602 0.68294227
-0.0059396918 -0.015443206 0.68342161
-0.0044571818 0.016714424 0.67453212
-0.0042917226 0.015021056 0.66953897
-0.0043677073 0.014195085 0.67183197
-0.0044737812 0.013421357 0.67503303
-0.0045851357 0.012609154 0.67839348
-0.0047021755 0.011755437 0.68192542
-0.0048253629 0.010857075 0.68564296
-0.0045793047 0.0091586113 0.67821753
-0.0042871423 0.0075024962 0.66940069
-0.0042455508 0.0063683391 0.6681456
-0.0042322478 0.0052903295 0.6677441
-0.0042260583 0.0042260885 0.66755736
-0.0042218734 0.0031664073 0.66743112
-0.0042206682 0.0021103621 0.6673947
-0.0042202966 0.0010550618 0.66738343
-0.0042200917 -0 0.66737729
-0.0042199893 -0.0010549724 0.66737419
-0.0042182603 -0.0021091104 0.66732204
-0.0042178887 -0.0031633973 0.66731083
-0.0042179017 -0.0042178929 0.66731119
-0.0042179017 -0.0052723885 0.66731119
-0.0042178887 -0.0063268244 0.66731083
-0.0042263283 -0.0073960423 0.66756546
-0.005009545 -0.010019064 0.69120109
-0.0049108486 -0.01104939 0.68822277
-0.0048130979 -0.012032717 0.68527281
-0.004719147 -0.01297766 0.6824376
-0.0046288087 -0.013886422 0.67971146
-0.0045521278 -0.014794409 0.67739737
-0.0055086766 -0.019280344 0.70626378
-0.0037781431 0.020150095 0.69204557
-0.0032002339 0.016001165 0.66879225
-0.0031832976 0.014855385 0.66811079
-0.0032092885 0.013906926 0.66915655
-0.003283788 0.013135135 0.67215419
-0.0033641828 0.01233536 0.67538905
-0.0034244368 0.011414826 0.67781341
-0.0033863685 0.010159135 0.67628169
-0.0031877074 0.008500576 0.66828817
-0.0031752591 0.0074089468 0.66778731
-0.0031704693 0.0063409507 0.66759461
-0.003166588 0.0052776635 0.66743845
-0.003162601 0.00421682 0.66727799
-0.0031591121 0.0031591356 0.66713762
-0.0031562618 0.002104193 0.66702294
-0.0031549626 0.0010516942 0.66697061
-0.0031563477 2.9802322e-08 0.6670264
-0.003159974 -0.0010533333 0.66717231
-0.0031638104 -0.0021091998 0.66732663
-0.0031674155 -0.0031673908 0.66747171
-0.0031702667 -0.0042269826 0.66758645
-0.0031713953 -0.0052856505 0.66763186
-0.0031713953 -0.0063427687 0.66763186
-0.0031793655 -0.0074184835 0.66795254
-0.003483684 -0.0092897713 0.68019736
-0.0035968693 -0.010790586 0.68475163
-0.0035269058 -0.011756331 0.6819365
-0.0034596238 -0.012685269 0.67922926
-0.0032299925 -0.012919962 0.66998965
-0.0033324668 -0.014440656 0.67411286
-0.003392518 -0.015831739 0.67652917
-0.0023962343 0.019169897 0.68465024
-0.0021237095 0.015927821 0.66820192
-0.0021206248 0.014844388 0.66801578
-0.002126914 0.013824999 0.66839534
-0.0021378933 0.012827367 0.66905808
-0.0021462061 0.011804163 0.66955978
-0.0021355217 0.010677636 0.66891491
-0.0021220753 0.0095493495 0.66810334
-0.0021162529 0.0084650517 0.66775191
-0.0021094438 0.0073830783 0.66734093
-0.002094175 0.0062825382 0.66641939
-0.0020884289 0.0052210987 0.66607255
-0.0020829269 0.0041658878 0.66574049
-0.0020773169 0.0031159818 0.66540188
-0.0020730041 0.0020729899 0.66514164
-0.0020715951 0.0010358095 0.66505659
-0.0020731834 2.9802322e-08 0.66515243
-0.0020784973 -0.0010392368 0.66547322
-0.0020843949 -0.0020843744 0.66582912
-0.0020896662 -0.0031344891 0.66614723
-0.0020984497 -0.0041968822 0.66667736
-0.0021114692 -0.0052786469 0.66746318
-0.0021170846 -0.0063512325 0.66780216
-0.0021204825 -0.0074216723 0.66800719
-0.0021311275 -0.0085245073 0.66864967
-0.0021564288 -0.0097039044 0.67017674
-0.0021507225 -0.010753602 0.66983235
-0.0021328477 -0.011730611 0.6687535
-0.0021270898 -0.012762547 0.66840595
-0.0021282427 -0.013833553 0.66847551
-0.0021445767 -0.015012026 0.66946137
-0.0025587799 -0.019190818 0.69446075
-0.0011966688 0.020343363 0.68447548
-0.0011425412 0.018280685 0.67794168
-0.0010656388 0.015984565 0.66865873
-0.0010624814 0.014874786 0.66827762
-0.0010628129 0.013816565 0.66831768
-0.0010640301 0.012768388 0.66846454
-0.0010635579 0.01169917 0.66840756
-0.0010609081 0.01060909 0.66808766
-0.0010558371 0.0095025599 0.66747558
-0.0010469423 0.0083755553 0.66640186
-0.0010396654 0.0072776675 0.66552347
-0.0010305261 0.0061831772 0.66442025
-0.0010233332 0.0051167011 0.66355193
-0.0010180621 0.0040722489 0.66291571
-0.0010146465 0.0030439198 0.66250342
-0.0010126504 0.0020253062 0.6622625
-0.0010120046 0.0010120273 0.66218448
-0.0010127596 -0 0.66227567
-0.0010154084 -0.0010153949 0.66259539
-0.001019478 -0.0020389557 0.66308665
-0.0010250933 -0.0030752718 0.66376448
-0.0010324337 -0.0041297078 0.66465056
-0.0010417663 -0.0052088201 0.66577709
-0.0010478863 -0.0062873065 0.66651589
-0.0010574051 -0.007401824 0.66766483
-0.0010615336 -0.0084922612 0.66816318
-0.0010643332 -0.0095789731 0.66850114
-0.0010654853 -0.010654867 0.66864026
-0.0010636393 -0.011700004 0.66841733
-0.0010625692 -0.012750804 0.66828823
-0.0010627902 -0.013816237 0.66831487
-0.0010653547 -0.01491496 0.66862446
-0.0010795509 -0.016193241 0.67033803
0 0.019400746 0.67778224
0 0.017470241 0.67182738
0 0.01601994 0.66894305
0 0.014912546 0.66860354
0 0.013847351 0.66860318
0 0.012778133 0.66856259
0 0.01167357 0.66812676
0 0.010500133 0.66677272
0 0.0093521774 0.66545892
0 0.0082067847 0.66385543
0 0.0071062744 0.66256779
0 0.0060407519 0.66155517
0 0.0050110519 0.66100204
0 0.0040002465 0.66074264
0 0.0029960573 0.66057611
0 0.0019960105 0.66049373
0 0.00099784136 0.66047263
0 5.9604645e-08 0.66049749
0 -0.00099900365 0.66062045
0 -0.0020014644 0.66082335
0 -0.0030094683 0.66111732
0 -0.0040340424 0.66176361
0 -0.0050876141 0.66285062
0 -0.0061731935 0.66421914
0 -0.0072996914 0.66590393
0 -0.0084109008 0.66693532
0 -0.0095627606 0.66828388
0 -0.010650903 0.66859293
0 -0.011716962 0.66860354
0 -0.012782127 0.66860312
0 -0.013847291 0.66860312
0 -0.014916629 0.668639
0 -0.016031384 0.66903543
0 -0.019969642 0.6906842
0.0011399061 0.020518333 0.67762363
0.0010906826 0.018541634 0.67168176
0.0010722685 0.017156303 0.66945904
0.0010684471 0.016026706 0.66899776
0.0010678888 0.014950454 0.66893035
0.0010673312 0.013875335 0.66886306
0.0010615239 0.012738287 0.66816205
0.0010482878 0.011531174 0.66656435
0.0010295215 0.010295242 0.66429901
0.0010141163 0.0091270208 0.66243947
0.0010045613 0.0080365241 0.661286
0.0010005089 0.0070036054 0.66079682
0.00099826115 0.0059895813 0.66052556
0.00099679199 0.0049839616 0.66034818
0.00099592353 0.0039837062 0.66024333
0.00099535286 0.0029860437 0.66017449
0.00099503656 0.0019900799 0.66013628
0.00099498522 0.00099498034 0.66013008
0.00099504797 2.9802322e-08 0.66013765
0.00099549268 -0.00099548697 0.66019136
0.00099620048 -0.0019923449 0.66027677
0.00099710096 -0.0029912889 0.66038549
0.00099882926 -0.0039952993 0.66059411
0.0010014115 -0.0050070584 0.66090584
0.0010063215 -0.0060379207 0.66149849
0.0010180054 -0.0071260333 0.66290891
0.0010348721 -0.008278966 0.66494489
0.0010510625 -0.0094595551 0.6668992
0.0010637728 -0.01063773 0.66843349
0.0010676952 -0.011744618 0.66890699
0.0010678888 -0.012814641 0.66893041
0.0010679512 -0.013883352 0.66893786
0.0010707023 -0.014989793 0.66926992
0.0012363133 -0.018544704 0.68926102
0.0012165236 -0.019464403 0.68687218
0.0021789644 0.019610703 0.67153692
0.00214898 0.01826632 0.66972721
0.0021423025 0.017138451 0.6693241
0.0021412265 0.01605919 0.66925919
0.0021402901 0.014982045 0.66920269
0.0021258143 0.013817817 0.668329
0.0020913766 0.012548238 0.66625053
0.0020451182 0.011248171 0.66345859
0.0020147786 0.01007393 0.66162741
0.0020046427 0.0090209246 0.66101563
0.0019988767 0.0079955161 0.66066766
0.0019954673 0.0069841444 0.6604619
0.0019940473 0.0059821308 0.66037619
0.0019931037 0.0049827993 0.66031921
0.0019932352 0.003986448 0.6603272
0.0019935439 0.0029903352 0.66034579
0.0019936585 0.001993686 0.66035271
0.0019936354 0.00099685788 0.66035128
0.0019935097 -0 0.66034371
0.0019932981 -0.00099661946 0.66033089
0.0019931952 -0.0019931495 0.66032469
0.0019932981 -0.0029899478 0.66033095
0.0019943849 -0.0039887726 0.66039652
0.0019963617 -0.0049909055 0.66051584
0.0019998662 -0.0059995651 0.66072732
0.0020064774 -0.0070226789 0.66112638
0.0020206135 -0.0080824196 0.66197962
0.0020568187 -0.0092556775 0.66416478
0.0021025129 -0.010512531 0.66692263
0.0021323699 -0.011728019 0.66872466
0.0021409099 -0.012845457 0.66924012
0.0021439549 -0.013935685 0.66942388
0.0024653373 -0.017257333 0.68882096
0.0024257773 -0.018193305 0.68643332
0.0023874589 -0.019099653 0.68412066
0.0032680368 0.020697564 0.67152041
0.0032305028 0.019383043 0.67001015
0.0032212688 0.018253863 0.66963863
0.0032200548 0.017173618 0.66958976
0.0032197763 0.016098917 0.66957855
0.0032036861 0.014950573 0.66893113
0.0031408176 0.013610214 0.66640151
0.0030566494 0.012226641 0.66301477
0.0030197864 0.011072546 0.66153157
0.0030068599 0.010022879 0.66101146
0.0030003171 0.009000957 0.66074818
0.0029976082 0.0079936683 0.66063917
0.0029975995 0.0069944263 0.66063887
0.0044261543 0.008852303 0.7181195
0.0045430921 0.0075718462 0.72282469
0.0046258108 0.0061677694 0.72615302
0.0046824119 0.0046824217 0.72843045
0.0047157751 0.003143847 0.72977287
0.0047268728 0.001575619 0.73021942
0.0047169914 2.9802322e-08 0.72982186
0.0046845162 -0.0015614927 0.72851515
0.0046283985 -0.0030856133 0.72625721
0.0045454893 -0.0045454502 0.72292113
0.0044279783 -0.0059039593 0.71819288
0.0029975045 -0.0049958229 0.66063505
0.0029983323 -0.0059966445 0.66066837
0.0030018552 -0.0070043206 0.66081011
0.0030097424 -0.008025974 0.66112739
0.0030259928 -0.0090779662 0.66178131
0.0031308841 -0.010436267 0.6660018
0.003161143 -0.011590809 0.66721928
0.0032102473 -0.012840986 0.66919518
0.0032235498 -0.013968676 0.66973037
0.0036281294 -0.016931266 0.68600941
0.0035709937 -0.017854959 0.68371046
0.0035156296 -0.018750042 0.68148279
0.0034643146 -0.019631088 0.67941797
0.0043059094 0.019376576 0.66996706
0.004304416 0.018293798 0.66992199
0.0043044025 0.017217636 0.66992158
0.0042939768 0.016102433 0.66960698
0.0042188619 0.014766008 0.66734022
0.004076058 0.013247192 0.66303068
0.0040307026 0.012092143 0.66166198
0.0040150071 0.011041284 0.6611883
0.0047315327 0.01182884 0.68281138
0.0040068468 0.0090154409 0.66094202
0.0047593843 0.0095188022 0.68365192
0.0055840584 0.0097721219 0.70853859
0.0057879486 0.0086819232 0.71469152
0.0059295367 0.0074119568 0.71896434
0.0060310923 0.006031096 0.72202909
0.0061001265 0.0045751035 0.72411239
0.0061410679 0.0030705631 0.72534788
0.0061548012 0.0015387237 0.72576231
0.0061424794 2.9802322e-08 0.72539049
0.0061019477 -0.0015254617 0.72416735
0.0060327416 -0.0030163527 0.72207886
0.0059312321 -0.0044484138 0.71901554
0.0057878522 -0.0057878494 0.71468866
0.005579418 -0.0069742799 0.70839864
0.0047576088 -0.0071364045 0.68359828
0.0040068696 -0.0070120096 0.66094273
0.0040093665 -0.0080187321 0.66101807
0.004018106 -0.0090407133 0.66128182
0.0040379511 -0.010094851 0.66188073
0.0041077528 -0.011296332 0.66398716
0.0042365696 -0.012709677 0.66787457
0.0042987578 -0.013970971 0.66975123
0.0043296511 -0.015153766 0.67068356
0.0043775016 -0.016415596 0.67212754
0.0043641687 -0.017456651 0.67172515
0.0043524839 -0.018498063 0.67137253
0.0054036137 0.019453049 0.67047954
0.0053943354 0.018340766 0.67025554
0.0053915903 0.017253101 0.67018926
0.0053165201 0.015949577 0.66837692
0.0051255566 0.014351577 0.66376662
0.0050498885 0.013129711 0.66193986
0.0050289859 0.012069583 0.66143525
0.0059190104 0.013021857 0.6829223
0.0059372964 0.011874616 0.68336374
0.0059556346 0.010720164 0.68380648
0.0064769364 0.010363102 0.69639182
0.0068688039 0.0096163154 0.70585239
0.007094658 0.0085135996 0.7113049
0.0072568152 0.0072568357 0.71521974
0.0073747006 0.0058997571 0.7180658
0.0074542803 0.0044725835 0.71998703
0.0075013996 0.0030005872 0.72112459
0.0075173364 0.0015034378 0.72150934
0.0075025335 -0 0.72115195
0.0074554319 -0.0014910996 0.72001481
0.0073754522 -0.0029501617 0.71808398
0.0072585437 -0.0043551028 0.71526146
0.007094021 -0.0056752264 0.71128958
0.0068588518 -0.0068588555 0.70561206
0.0059766755 -0.0071719885 0.68431449
0.0059533282 -0.0083346665 0.68375087
0.0050225309 -0.0080360472 0.66127938
0.0050229086 -0.0090412199 0.6612885
0.0050332109 -0.01006639 0.66153723
0.0050592264 -0.011130273 0.66216528
0.0052449838 -0.012587935 0.66664988
0.0053374106 -0.013877243 0.66888124
0.0053957598 -0.015108109 0.67028993
0.0054111369 -0.016233355 0.67066115
0.005410328 -0.017313033 0.67064166
0.0054040169 -0.018373668 0.67048931
0.0054221982 -0.019519925 0.67092824
0.0065022344 0.019506693 0.67083961
0.0064898874 0.018388033 0.67059124
0.0064682625 0.01724869 0.67015618
0.0062433537 0.01560837 0.66563135
0.0060802968 0.014187396 0.66235089
0.0060507385 0.013109922 0.66175622
0.0061451206 0.012290239 0.66365504
0.0071277758 0.013067603 0.68342453
0.0071507567 0.011917919 0.68388689
0.0071731457 0.010759741 0.68433732
0.0077183428 0.010291159 0.69530582
0.0081051895 0.0094560683 0.70308852
0.0083514256 0.0083514154 0.70804244
0.0085296826 0.0071080923 0.71162874
0.0086598173 0.0057732463 0.71424681
0.0087491088 0.0043745339 0.71604323
0.008801111 0.0029337108 0.71708947
0.0088188695 0.0014698505 0.71744674
0.0088018179 2.9802322e-08 0.71710366
0.0087492187 -0.0014581978 0.71604544
0.0086605009 -0.0028868318 0.71426058
0.0085287057 -0.0042643547 0.71160901
0.0083469115 -0.0055645704 0.70795161
0.0080941441 -0.0067451 0.70286632
0.0076747006 -0.0076746941 0.69442785
0.0071699386 -0.0083649158 0.68427277
0.0071469573 -0.0095292926 0.68381047
0.0071250964 -0.010687619 0.68337059
0.0060425838 -0.01007095 0.66159213
0.0060566273 -0.011103809 0.66187465
0.00609612 -0.012192219 0.66266924
0.0063272752 -0.013709068 0.66731972
0.0064789359 -0.015117496 0.67037088
0.0064899484 -0.016224861 0.67059243
0.0064898874 -0.017306358 0.67059124
0.0064899079 -0.018388063 0.67059159
0.0065020318 -0.019506097 0.67083549
0.0075980024 0.019537747 0.67104757
0.0075897044 0.01843214 0.67090452
0.0074802106 0.017097652 0.66901636
0.0071334997 0.015286118 0.66303754
0.0070825666 0.014165103 0.66215926
0.0070663523 0.013123274 0.66187966
0.0083160512 0.01425609 0.68342996
0.0083420342 0.013108909 0.68387794
0.0083677489 0.01195395 0.6843214
0.0083953021 0.010793984 0.68479657
0.0089121191 0.010185272 0.69370878
0.009300326 0.0093003511 0.70040309
0.0095612481 0.0081953704 0.70490259
0.0097513376 0.0069652796 0.70818055
0.0098909996 0.0056520104 0.71058893
0.009988402 0.004280746 0.71226859
0.010044169 0.0028697848 0.71323025
0.01006341 0.0014376044 0.71356201
0.010044252 -0 0.71323162
0.0099871717 -0.0014267266 0.71224737
0.0098906783 -0.0028259158 0.71058339
0.0097470004 -0.0041772425 0.70810574
0.0095513361 -0.0054578781 0.70473164
0.0092816232 -0.0066297054 0.70008063
0.0088640824 -0.0075977743 0.69288039
0.0083918553 -0.0083918273 0.68473709
0.0083653312 -0.0095603466 0.6842798
0.0083379447 -0.010720223 0.68380749
0.0083123567 -0.011874765 0.68336624
0.0070693097 -0.011108905 0.66193068
0.0070901643 -0.012154549 0.66229028
0.0071690753 -0.013313979 0.66365105
0.0075340113 -0.015067995 0.66994417
0.0075911018 -0.016266644 0.67092866
0.0075911018 -0.017351061 0.67092866
0.0075911018 -0.018435508 0.6709286
0.0075962227 -0.019533098 0.67101693
0.0087012351 0.019577801 0.67131627
0.0086873658 0.018460661 0.67110699
0.0083383303 0.016676635 0.66584051
0.008128969 0.015241832 0.6626814
0.0081003774 0.014175653 0.66224998
0.0095008425 0.015438884 0.68338144
0.0095299622 0.014294952 0.68382078
0.0095599508 0.01314491 0.6842733
0.0095904935 0.011988133 0.68473411
0.0096207988 0.010823399 0.68519139
0.010059954 0.010059983 0.69181776
0.010449817 0.0091435909 0.69770032
0.010721844 0.0080413818 0.70180488
0.01092465 0.0068279207 0.70486504
0.011071503 0.0055357814 0.70708084
0.011174986 0.0041906536 0.70864224
0.011234194 0.0028085709 0.70953566
0.011254526 0.0014068186 0.70984244
0.011233513 2.9802322e-08 0.70952535
0.011172785 -0.0013965964 0.7086091
0.011068814 -0.0027671754 0.70704031
0.010916542 -0.0040936768 0.70474267
0.010710401 -0.0053551793 0.7016322
0.010428295 -0.0065176785 0.6973756
0.010012702 -0.0075094998 0.69110477
0.0096169375 -0.0084148049 0.68513316
0.0095854998 -0.0095854998 0.68465883
0.0095565328 -0.010751069 0.68422174
0.0095269894 -0.01190871 0.68377596
0.008097074 -0.011133432 0.66220015
0.0081040142 -0.01215598 0.66230488
0.0081449263 -0.013235509 0.6629222
0.0085371286 -0.014939964 0.66884005
0.0086945668 -0.016302288 0.67121559
0.008697995 -0.017395943 0.67126733
0.008697995 -0.018483251 0.67126739
0.0087035233 -0.019582897 0.67135078
0.0098137408 0.019627482 0.67164958
0.0097798584 0.018473089 0.67119509
0.0092108129 0.016374797 0.66356289
0.0091455979 0.015242666 0.66268826
0.0091326442 0.01420638 0.66251451
0.010714486 0.015476495 0.6837306
0.010748587 0.01433146 0.68418801
0.010781308 0.013177156 0.68462694
0.010815089 0.012016773 0.68507993
0.01084814 0.010848165 0.68552327
0.011167108 0.0099263191 0.68980134
0.011557703 0.0089893639 0.69504011
0.01183842 0.0078922808 0.69880515
0.012050453 0.0066947043 0.70164907
0.012204472 0.0054242015 0.70371479
0.012311909 0.0041039884 0.70515573
0.012374513 0.0027498603 0.70599544
0.012395407 0.0013772547 0.70627564
0.012372945 2.9802322e-08 0.70597434
0.012309244 -0.0013676882 0.70511997
0.012198997 -0.002710849 0.70364136
0.012040154 -0.0040133595 0.70151085
0.011826511 -0.0052562356 0.69864547
0.011534598 -0.0064080954 0.69473022
0.011114599 -0.0074097216 0.68909705
0.010844115 -0.0084343255 0.68546927
0.010810938 -0.0096096992 0.68502426
0.010775995 -0.010775983 0.68455565
0.010743232 -0.011936933 0.68411624
0.010706013 -0.013085127 0.68361694
0.0091320304 -0.012176007 0.66250628
0.0091558797 -0.013225138 0.66282618
0.0092611937 -0.014406264 0.66423863
0.009797967 -0.016329944 0.67143804
0.0098106619 -0.017441154 0.67160827
0.0098231118 -0.018554747 0.67177522
0.010933836 0.019680947 0.6720078
0.010789776 0.018342614 0.67026889
0.010219065 0.016350538 0.66337979
0.010177222 0.015265822 0.6628747
0.011185821 0.015660137 0.67504954
0.011926273 0.015504152 0.68398762
0.011967514 0.014361054 0.68448544
0.012003025 0.013203323 0.68491411
0.012038998 0.012039006 0.68534833
0.012075859 0.010868311 0.68579328
0.012235575 0.0097885132 0.68772125
0.012628826 0.0088402033 0.69246823
0.012914297 0.007748574 0.69591409
0.013131481 0.0065657496 0.6985358
0.013292635 0.0053170919 0.70048106
0.013402768 0.0040208697 0.70181048
0.013468173 0.0026936531 0.7026
0.013489349 0.0013489425 0.70285559
0.013465616 2.9802322e-08 0.70256913
0.013399616 -0.001339972 0.70177245
0.013284097 -0.0026567876 0.700378
0.013120572 -0.0039361417 0.69840407
0.01289661 -0.0051586032 0.69570053
0.012596915 -0.0062984228 0.69208294
0.012182468 -0.0073094964 0.68708014
0.012071999 -0.0084503889 0.68574673
0.012035746 -0.0096285641 0.68530905
0.012000207 -0.010800153 0.68488002
0.011963805 -0.011963814 0.68444067
0.011907309 -0.013098061 0.68375868
0.010175106 -0.012210131 0.66284919
0.010182054 -0.013236642 0.66293305
0.010240901 -0.014337212 0.66364336
0.010900359 -0.016350508 0.67160368
0.010947408 -0.017515838 0.67217165
0.013473984 0.023273259 0.68788421
0.012061568 0.019737095 0.67238474
0.011877311 0.018355846 0.67036283
0.011246563 0.016358614 0.66344118
0.011220085 0.015300125 0.66315055
0.012321817 0.01568231 0.6752407
0.013083245 0.015462011 0.68359631
0.013189887 0.014389008 0.68476659
0.013227912 0.01322794 0.68518388
0.013266249 0.012060255 0.68560451
0.013303557 0.010884732 0.686014
0.013343127 0.0097040832 0.68644816
0.013660396 0.0086929798 0.68992984
0.013951747 0.0076100528 0.69312704
0.014171701 0.0064416826 0.69554067
0.014338368 0.0052139759 0.69736969
0.014450308 0.0039410293 0.69859809
0.014517984 0.0026396513 0.69934076
0.014539191 0.0013217628 0.69957346
0.014514402 5.9604645e-08 0.69930136
0.014446704 -0.0013133287 0.69855845
0.014326706 -0.0026048422 0.69724172
0.014160099 -0.0038618147 0.69541335
0.01392765 -0.0050645769 0.69286257
0.013623342 -0.006192416 0.68952322
0.013337167 -0.0072748065 0.68638277
0.013298281 -0.0084625185 0.68595606
0.013261093 -0.009644419 0.68554801
0.013221552 -0.010817617 0.68511403
0.013184518 -0.011985928 0.6847077
0.012987134 -0.012987107 0.68254161
0.012118164 -0.013219774 0.67300582
0.011221666 -0.013261944 0.66316789
0.011262835 -0.01433453 0.6636197
0.01200678 -0.016372889 0.67178357
0.01423414 0.02253741 0.68320912
0.013214496 0.019821763 0.67295229
0.012398968 0.01756525 0.66474879
0.012285172 0.01638025 0.66360402
0.012273383 0.015341759 0.66348547
0.013461032 0.015704572 0.67543226
0.014136081 0.015314102 0.68222278
0.014411844 0.014411837 0.68499672
0.014450553 0.013246328 0.68538606
0.014491031 0.012075871 0.68579328
0.014530876 0.010898173 0.68619406
0.014568395 0.0097122788 0.68657148
0.014653279 0.0085477829 0.68742537
0.014950767 0.0074754059 0.69041783
0.015173342 0.0063222349 0.69265682
0.015343414 0.0051144958 0.69436759
0.015457115 0.0038642883 0.69551134
0.015526529 0.0025877953 0.69620955
0.015547545 0.001295656 0.69642091
0.01552179 -0 0.69616193
0.015452876 -0.0012877285 0.69546866
0.015329367 -0.0025548935 0.69422632
0.015157402 -0.0037893355 0.69249642
0.014921715 -0.0049738884 0.69012564
0.014622704 -0.0060927868 0.68711782
0.01456356 -0.0072817504 0.68652284
0.014526623 -0.0084738433 0.68615127
0.014487306 -0.0096581876 0.68575579
0.014446998 -0.01083523 0.68535042
0.014406367 -0.012005299 0.68494165
0.014023782 -0.012855142 0.6810931
0.013264394 -0.013264388 0.67345428
0.012272228 -0.013294876 0.66347378
0.012300828 -0.014350921 0.6637615
0.013127667 -0.016409546 0.67207885
0.013260134 -0.017680168 0.67341137
0.014947749 0.021846712 0.67882115
0.014381289 0.019912571 0.67356133
0.013427303 0.017558783 0.66470313
0.013338608 0.016416788 0.66387951
0.013540323 0.01562348 0.66575259
0.014519179 0.015636027 0.6748417
0.015170899 0.015170902 0.68089318
0.015626388 0.014424354 0.68512261
0.015676171 0.013264447 0.6855849
0.015716916 0.012089968 0.68596315
0.015756663 0.010908455 0.68633229
0.015794458 0.0097196698 0.68668324
0.015830381 0.0085240602 0.68701679
0.015910843 0.0073434412 0.68776387
0.016138509 0.0062071383 0.68987787
0.016309118 0.0050182045 0.69146204
0.016425414 0.0037904978 0.6925419
0.016496195 0.0025378764 0.69319916
0.016516823 0.0012705326 0.69339067
0.016490232 2.9802322e-08 0.69314384
0.016419264 -0.0012629926 0.6924848
0.016294291 -0.0025068223 0.69132435
0.016117951 -0.0037195086 0.68968701
0.01588572 -0.0048878789 0.68753064
0.015826277 -0.0060870051 0.68697864
0.015790703 -0.0072880089 0.68664837
0.015751114 -0.0084813535 0.68628073
0.015709754 -0.0096675456 0.68589664
0.015670788 -0.010848999 0.68553483
0.015609864 -0.012007594 0.68496919
0.015062539 -0.012745231 0.67988706
0.014390452 -0.013283461 0.67364639
0.013330657 -0.013330638 0.66380572
0.013348225 -0.014375001 0.66396886
0.014269755 -0.016465068 0.67252564
0.014363318 -0.017677903 0.67339438
0.016085334 0.022979021 0.67871559
0.015635135 0.021219105 0.67483389
0.015498842 0.019927084 0.67365873
0.014482258 0.017585576 0.66489357
0.01439918 0.016456217 0.6641773
0.014652248 0.01569888 0.66635925
0.015513374 0.01551339 0.67378402
0.016157836 0.015003711 0.67934072
0.016668862 0.014287621 0.68374687
0.016899273 0.013278008 0.68573356
0.016941175 0.012100846 0.68609482
0.016980857 0.010916293 0.68643695
0.017019354 0.0097253323 0.68676889
0.017054858 0.0085274577 0.68707496
0.017086726 0.0073229074 0.6873498
0.017119739 0.0061141849 0.68763447
0.017239135 0.0049255192 0.68866384
0.017357422 0.0037194788 0.68968374
0.017429188 0.0024898946 0.69030261
0.017449258 0.0012463629 0.69047558
0.017421948 2.9802322e-08 0.69024014
0.017349312 -0.0012392104 0.68961382
0.01722357 -0.0024604797 0.68852973
0.017113354 -0.003667146 0.68757933
0.017082946 -0.0048808455 0.68731719
0.017050494 -0.0060894489 0.68703741
0.017013283 -0.0072914064 0.68671656
0.016975997 -0.0084879994 0.68639505
0.016935632 -0.0096774995 0.68604702
0.016893581 -0.010860115 0.68568444
0.016590524 -0.011850387 0.68307143
0.016084004 -0.012637407 0.67870408
0.015374325 -0.013177991 0.67258513
0.014396368 -0.01336804 0.66415298
0.014406515 -0.014406502 0.66424048
0.014551397 -0.015590757 0.66548967
0.015493017 -0.017706305 0.67360854
0.016765993 0.022354692 0.67494702
0.016654188 0.021095335 0.67404729
0.01661453 0.019937485 0.67372811
0.015557137 0.017631441 0.66521895
0.01546725 0.016498417 0.66449553
0.01572261 0.015722632 0.66655052
0.016492037 0.015392542 0.67274243
0.017107628 0.014826626 0.67769635
0.017622365 0.014097899 0.68183863
0.018059561 0.013243705 0.68535686
0.018163279 0.012108862 0.6861915
0.018204261 0.010922581 0.68652135
0.018242169 0.0097291768 0.68682641
0.01827684 0.0085291862 0.68710542
0.018307528 0.0073230267 0.68735236
0.01833548 0.0061118305 0.68757731
0.01835666 0.0048951209 0.68774778
0.018373227 0.0036746562 0.68788105
0.018385995 0.0024514794 0.68798375
0.018391963 0.0012261569 0.68803185
0.018384308 2.9802322e-08 0.68797022
0.018371608 -0.0012247562 0.68786806
0.018354915 -0.0024473369 0.68773371
0.0183329 -0.0036665797 0.68755656
0.018303864 -0.0048809648 0.68732285
0.018273316 -0.0060910881 0.68707705
0.018235914 -0.007294327 0.68677604
0.018197967 -0.0084923804 0.68647069
0.018159037 -0.0096848011 0.68615741
0.018009016 -0.010805398 0.68495017
0.017534623 -0.011689723 0.6811325
0.017023256 -0.012483716 0.67701733
0.016342694 -0.01307413 0.67154062
0.015490511 -0.013425082 0.66468275
0.015475241 -0.014443576 0.6645599
0.015639484 -0.015639454 0.66588163
0.016641479 -0.017750889 0.67394501
0.017803377 0.022254258 0.67434084
0.017767362 0.021098733 0.67406917
0.017764183 0.019984692 0.67404521
0.016654279 0.017695189 0.66567159
0.016543616 0.016543627 0.6648367
0.016751632 0.015704691 0.66640604
0.01745558 0.01527366 0.67171693
0.018035263 0.014653683 0.6760903
0.018565129 0.013923854 0.68008786
0.018961569 0.013036072 0.68307877
0.019356422 0.012097776 0.68605769
0.019425748 0.010926992 0.68658066
0.019463288 0.0097316504 0.6868639
0.019498169 0.0085304677 0.68712711
0.019526863 0.0073226094 0.68734354
0.019554336 0.0061107278 0.68755084
0.019573543 0.0048933923 0.68769574
0.01959065 0.0036732554 0.68782473
0.019599143 0.0024498999 0.68788886
0.019602807 0.0012252033 0.68791652
0.019599905 -0 0.68789458
0.01958775 -0.0012242496 0.68780291
0.019573681 -0.0024467111 0.68769675
0.019551242 -0.0036658347 0.68752748
0.019523846 -0.004880935 0.68732083
0.019491674 -0.0060911477 0.68707812
0.019459404 -0.0072972775 0.68683463
0.019421404 -0.0084968805 0.68654794
0.019314125 -0.0096570551 0.68573856
0.018904185 -0.010633618 0.6826458
0.018472293 -0.011545181 0.67938745
0.017939992 -0.012333751 0.67537159
0.017295923 -0.012971938 0.67051238
0.016539777 -0.013438582 0.66480774
0.016552234 -0.014483184 0.66490173
0.017763559 -0.016653299 0.67404044
0.017810734 -0.017810732 0.67439634
0.018956153 0.022301406 0.67462534
0.018924451 0.021150887 0.67440027
0.018924451 0.020037651 0.67440021
0.018924512 0.018924505 0.67440069
0.017628895 0.016591936 0.66520101
0.017698087 0.01561597 0.66569233
0.018404342 0.015156537 0.67070717
0.018941503 0.014484704 0.67452133
0.019453904 0.013732165 0.67815971
0.019863484 0.012852848 0.68106794
0.020251239 0.011912525 0.68382126
0.020585479 0.010898232 0.68619454
0.020683581 0.0097334683 0.68689114
0.020716805 0.0085304677 0.68712711
0.020745326 0.0073218942 0.68732959
0.020772975 0.0061096847 0.68752593
0.020790743 0.0048919618 0.68765205
0.020807659 0.0036719739 0.68777215
0.020815652 0.0024489164 0.68782896
0.020819394 0.0012246966 0.68785554
0.020815138 2.9802322e-08 0.68782532
0.020805461 -0.0012238324 0.6877566
0.020789864 -0.0024458468 0.68764585
0.020767352 -0.0036647916 0.68748599
0.02074467 -0.004881084 0.687325
0.020712955 -0.0060920417 0.68709975
0.020679599 -0.0072986484 0.68686283
0.020641299 -0.0084993541 0.68659097
0.020211535 -0.009511292 0.68353933
0.019796051 -0.010480255 0.6805892
0.01938699 -0.011404097 0.67768455
0.018834965 -0.012187302 0.67376482
0.018234473 -0.012871385 0.66950095
0.017617276 -0.013472021 0.66511852
0.017645167 -0.014531285 0.66531652
0.018925421 -0.016698897 0.67440712
0.019032683 -0.017913103 0.67516881
0.020227006 0.022474498 0.67567003
0.020092564 0.021208853 0.67476845
0.020090951 0.020090967 0.67475766
0.020091016 0.018974841 0.67475814
0.018727595 0.016646773 0.66561478
0.018703848 0.015586555 0.66545558
0.01928298 0.0149979 0.6693393
0.019827148 0.014319628 0.67298853
0.020318475 0.013545632 0.67628348
0.020740326 0.012674659 0.67911249
0.021115214 0.011730701 0.6816265
0.02143492 0.010717452 0.68377054
0.021739341 0.0096619129 0.685812
0.021927057 0.0085272193 0.68707085
0.021964712 0.0073215961 0.68732339
0.021989347 0.006108135 0.68748862
0.022007531 0.0048906207 0.68761051
0.022023881 0.0036706626 0.68772018
0.022029467 0.0024477243 0.68775767
0.022033658 0.0012241304 0.68778574
0.0220297 2.9802322e-08 0.68775916
0.02202047 -0.0012233257 0.68769729
0.022007374 -0.0024452507 0.68760949
0.021985559 -0.0036642551 0.68746316
0.021961704 -0.0048803389 0.68730319
0.021919295 -0.0060886443 0.68701881
0.021735262 -0.0072450936 0.6857847
0.02183512 -0.0084913969 0.68645436
0.021124199 -0.0093885064 0.68168676
0.020668294 -0.010334104 0.6786294
0.020257076 -0.011253923 0.67587173
0.019708937 -0.01204434 0.67219585
0.019163456 -0.0127756 0.66853774
0.018702058 -0.013507009 0.66544354
0.018754831 -0.014587075 0.66579747
0.020102123 -0.016751766 0.67483258
0.02132852 0.021328539 0.675529
0.021313095 0.020191342 0.67543101
0.021390645 0.019139022 0.67592371
0.019854456 0.01671955 0.66616392
0.019793442 0.015626431 0.66577631
0.020145198 0.014843851 0.66801107
0.02069108 0.014157027 0.67147917
0.021164624 0.013367146 0.67448765
0.021593187 0.012501359 0.67721045
0.021953281 0.01155439 0.6794982
0.022280607 0.010553956 0.6815778
0.022566354 0.009501636 0.68339318
0.022808269 0.0084030628 0.68493009
0.023024712 0.007270962 0.68630522
0.023176266 0.0060990155 0.68726802
0.023222081 0.0048888624 0.68755913
0.023237856 0.0036691427 0.68765938
0.023245629 0.0024469197 0.68770874
0.023248821 0.0012236238 0.687729
0.023245465 2.9802322e-08 0.68770766
0.023236549 -0.0012229681 0.68765104
0.023219794 -0.0024441481 0.68754458
0.023166832 -0.0036579072 0.68720818
0.023002088 -0.0048425496 0.68616146
0.022769017 -0.0059918463 0.6846807
0.022567434 -0.0071265697 0.68340003
0.022684133 -0.0083572865 0.6841414
0.02236704 -0.0094177127 0.68212688
0.021517109 -0.010192275 0.67672718
0.021094562 -0.011102408 0.67404258
0.020562639 -0.011904687 0.67066318
0.020023853 -0.012646616 0.66724014
0.019796884 -0.013545245 0.66579819
0.01990708 -0.014668375 0.6664983
0.021285472 -0.016804308 0.67525548
0.021085542 0.016868442 0.66728723
0.02090081 0.015675634 0.66617227
0.020994259 0.014696002 0.6667363
0.021536952 0.013999015 0.67001176
0.022000521 0.013200343 0.6728096
0.022423111 0.012332708 0.6753602
0.022766531 0.011383265 0.67743295
0.023100881 0.010395408 0.67945093
0.023376351 0.0093505383 0.68111354
0.02361257 0.0082643926 0.68253922
0.023831442 0.0071494281 0.68386024
0.023981696 0.0059954524 0.68476713
0.024127234 0.004825443 0.68564552
0.024213653 0.0036320388 0.68616712
0.024266751 0.0024266839 0.68648756
0.024284814 0.0012142658 0.68659657
0.024259213 -0 0.68644208
0.024209941 -0.0012104809 0.68614471
0.02410355 -0.0024103522 0.68550259
0.023967551 -0.0035951138 0.68468171
0.023802955 -0.0047605634 0.68368828
0.023578761 -0.0058946609 0.68233514
0.023373049 -0.0070119202 0.68109357
0.023508253 -0.0082278848 0.68190956
0.023193244 -0.0092773139 0.68000841
0.022343015 -0.01005435 0.67487681
0.021908415 -0.010954201 0.67225373
0.021404417 -0.011772424 0.66921186
0.02089484 -0.012536883 0.66613626
0.020911124 -0.013592213 0.66623455
0.022442661 -0.015709847 0.67547816
0.022447228 -0.016835421 0.67550576
0.022578212 -0.018062562 0.67629635
0.024557725 0.018710643 0.68118572
0.022044305 0.015745968 0.66673827
0.021994933 0.014663309 0.66645443
0.022349356 0.013835371 0.66849166
0.022973562 0.013127774 0.67207974
0.023224806 0.012165427 0.6735239
0.023556046 0.011217177 0.67542791
0.023896795 0.010241449 0.67738658
0.024160992 0.009204179 0.67890525
0.024401281 0.008133769 0.68028641
0.024613723 0.0070325136 0.68150759
0.024759715 0.0058951974 0.6823467
0.024907449 0.0047442913 0.68319595
0.024978729 0.0035684109 0.68360567
0.025032716 0.0023840368 0.68391597
0.02506143 0.001193434 0.68408102
0.025022585 2.9802322e-08 0.6838578
0.024983775 -0.0011896789 0.6836347
0.024875777 -0.0023691356 0.68301392
0.024743678 -0.0035347939 0.68225455
0.024590001 -0.0046838224 0.68137121
0.024365511 -0.0058012605 0.68008077
0.024153715 -0.0069010556 0.67886341
0.024307234 -0.0081023872 0.67974585
0.023995494 -0.0091410875 0.6779539
0.023146786 -0.0099200308 0.67307544
0.022700828 -0.010809898 0.67051202
0.022230607 -0.011644602 0.66780913
0.021993542 -0.012567699 0.66644639
0.022079859 -0.013668448 0.6669426
0.023634251 -0.01575616 0.67587745
0.025149716 0.018290728 0.6780175
0.024905864 0.016981274 0.67667943
0.023118269 0.014711678 0.66687119
0.0231317 0.013668746 0.66694492
0.023590561 0.01286757 0.66946262
0.024132274 0.012066156 0.67243493
0.024343921 0.011065423 0.6735962
0.024671709 0.010092974 0.67539471
0.024921453 0.0090623796 0.67676497
0.02516553 0.0080072284 0.67810422
0.025370827 0.0069193244 0.67923063
0.025518872 0.0057997406 0.68004298
0.025668656 0.0046670437 0.68086481
0.025735542 0.0035094321 0.6812318
0.025790242 0.0023445487 0.68153191
0.025818465 0.0011735857 0.68168676
0.025779022 -0 0.68147039
0.025739701 -0.0011699796 0.68125457
0.025633624 -0.0023303032 0.68067253
0.025499718 -0.0034772158 0.67993784
0.025352063 -0.0046094358 0.67912769
0.025127726 -0.0057108402 0.6778968
0.024910815 -0.0067938566 0.67670661
0.025083615 -0.0079811513 0.6776548
0.024773814 -0.009008646 0.67595494
0.024419976 -0.0099900067 0.6740135
0.023472635 -0.010669351 0.66881555
0.023105131 -0.011552542 0.66679913
0.023131629 -0.01261726 0.6669445
0.024838129 -0.014677078 0.67630786
0.026104372 0.018159568 0.67702806
0.026028704 0.016975284 0.67663097
0.024333499 0.014811695 0.66773403
0.024221547 0.013690472 0.66714644
0.024338908 0.012698591 0.6677624
0.024743417 0.011833787 0.6698854
0.025297238 0.010998845 0.67279196
0.025414933 0.0099450052 0.6734097
0.025658911 0.0089248717 0.67469019
0.025906276 0.0078845322 0.67598838
0.026103945 0.0068097413 0.67702585
0.026253844 0.0057073832 0.67781258
0.026405472 0.0045922697 0.6786083
0.026467739 0.003452301 0.67893517
0.02652299 0.0023063421 0.67922509
0.026550571 0.001154393 0.67936987
0.026510673 2.9802322e-08 0.67916048
0.026470894 -0.0011509061 0.67895168
0.026367053 -0.0022927523 0.67840672
0.026231525 -0.0034214854 0.67769539
0.026091503 -0.0045376122 0.67696053
0.025866533 -0.0056231618 0.67577982
0.025645819 -0.0066901743 0.67462146
0.025832754 -0.0078621507 0.67560256
0.025522474 -0.0088773966 0.6739741
0.025170239 -0.0098492205 0.67212546
0.024236826 -0.010537744 0.66722667
0.024231462 -0.011588931 0.66719848
0.024463328 -0.01276347 0.66841543
0.027242994 0.017026871 0.67704642
0.027222272 0.015879661 0.67694223
0.025417481 0.013767779 0.6678648
0.025339246 0.012669623 0.66747135
0.025467703 0.011672705 0.6681174
0.025824895 0.010760397 0.66991395
0.02612693 0.0097976327 0.67143309
0.026373409 0.0087911189 0.67267275
0.026624497 0.0077654719 0.67393565
0.026814118 0.0067035258 0.67488939
0.02696568 0.005617857 0.67565167
0.027118962 0.00451985 0.6764226
0.027176496 0.0033971071 0.67671198
0.027232317 0.0022693574 0.67699277
0.027259111 0.0011358261 0.67712748
0.027218807 -0 0.67692482
0.027178621 -0.0011324584 0.67672271
0.027077137 -0.0022564232 0.67621225
0.026940068 -0.0033675134 0.6755228
0.026804464 -0.0044673979 0.67484081
0.02658291 -0.0055380762 0.67372644
0.02635907 -0.0065897405 0.67260063
0.026557682 -0.0077459812 0.6735996
0.026249632 -0.0087498426 0.67205018
0.025899647 -0.0097123682 0.67028993
0.025345869 -0.010560751 0.66750461
0.025477352 -0.011677116 0.66816592
0.0273287 -0.013664305 0.67747748
0.028477475 0.015947431 0.67752618
0.028484385 0.014811903 0.67755955
0.026549211 0.012743652 0.66821563
0.026468799 0.011646301 0.66782743
0.026522946 0.01060918 0.66808885
0.026830887 0.0096591115 0.66957575
0.027072549 0.0086632371 0.67074263
0.027321694 0.0076500773 0.67194557
0.027502568 0.0066006482 0.6728189
0.027655622 0.0055311024 0.67355794
0.027806647 0.0044490993 0.67428714
0.027862838 0.0033435822 0.67455846
0.027919255 0.0022335649 0.67483079
0.027945392 0.0011178255 0.67495704
0.027904727 2.9802322e-08 0.6747607
0.027864089 -0.0011145473 0.67456448
0.027765231 -0.0022211969 0.67408717
0.027626861 -0.0033152103 0.673419
0.027489949 -0.0043983757 0.67275798
0.027275626 -0.0054551363 0.67172313
0.027051218 -0.0064922869 0.67063963
0.02725731 -0.0076320469 0.67163473
0.026959624 -0.0086270571 0.67019737
0.026613222 -0.0095807612 0.66852474
0.026610615 -0.010644227 0.66851217
0.028433384 -0.012510687 0.67731327
0.028495597 -0.013677865 0.67761368
0.027750015 0.011740416 0.66886026
0.027616665 0.010621816 0.66824114
0.027602825 0.0095548332 0.66817689
0.027767671 0.0085439384 0.66894221
0.02800394 0.0075395405 0.67003918
0.028179426 0.0065029562 0.67085385
0.02832716 0.0054475665 0.67153978
0.028471244 0.0043801963 0.67220879
0.028527886 0.0032916963 0.6724717
0.028584752 0.0021988451 0.67273575
0.028610099 0.001100421 0.67285335
0.028569113 -0 0.67266309
0.028528336 -0.0010972321 0.67247379
0.028432088 -0.0021870732 0.67202693
0.028296549 -0.0032649934 0.67139769
0.028160453 -0.0043323636 0.67076582
0.027947977 -0.0053745806 0.6697793
0.027723277 -0.0063976645 0.6687361
0.027932769 -0.0075203478 0.66970873
0.02764895 -0.0085073411 0.66839105
0.029742548 -0.012583345 0.67811102
0.031508259 0.011669755 0.6808908
0.028806087 0.0096020401 0.66881001
0.028746596 0.0085175335 0.66854405
0.028742367 0.0074517429 0.66852516
0.028842749 0.0064095259 0.66897392
0.028995989 0.0053696632 0.66965902
0.029119017 0.0043139458 0.67020905
0.02918705 0.0032430291 0.67051321
0.029241998 0.0021660924 0.67075884
0.029263616 0.0010838509 0.67085552
0.029226968 2.9802322e-08 0.67069167
0.029186143 -0.00108096 0.67050916
0.029094093 -0.0021550953 0.67009765
0.028963763 -0.003218174 0.66951495
0.028808031 -0.0042678416 0.66881871
0.028741576 -0.0053224862 0.66852158
0.028754437 -0.0063898563 0.6685791
0.028830253 -0.0074744523 0.66891807
0.032149512 0.010333776 0.67862433
0.032106437 0.009173274 0.67843866
0.0299732 0.0074933469 0.66924208
0.029908424 0.0064089596 0.66896284
0.029886467 0.0053369105 0.66886818
0.029887201 0.0042696297 0.66887134
0.029888762 0.0032023787 0.66887808
0.029893171 0.002135247 0.66889703
0.029894272 0.0010676682 0.6689018
0.029893629 -0 0.66889906
0.029890323 -0.0010675192 0.66888475
