# .PCD v0.7 - Point Cloud Data file format
VERSION 0.7
FIELDS x y z
SIZE 4 4 4
TYPE F F F
COUNT 1 1 1
WIDTH 1333
HEIGHT 1
VIEWPOINT 0 0 0 1 0 0 0
POINTS 1333
DATA ascii
-0.0092762066 -0.019877553 0.69998723
-0.0092762066 -0.021202713 0.69998723
-0.0092762066 -0.022527903 0.69998717
-0.0092762066 -0.023853093 0.69998717
-0.0092762066 -0.025178254 0.69998723
-0.0092762066 -0.026503444 0.69998723
-0.0092762066 -0.027828604 0.69998723
-0.0092762066 -0.029153764 0.69998717
-0.0092762066 -0.030478954 0.69998723
-0.009276242 -0.031804264 0.69998783
-0.0092762774 -0.033129543 0.69998842
-0.0092762774 -0.034454763 0.69998842
-0.0092762774 -0.035779923 0.69998842
-0.009276242 -0.037104964 0.69998783
-0.009276242 -0.038430125 0.69998783
-0.009276242 -0.039755315 0.69998783
-0.009276242 -0.041080475 0.69998777
-0.009276242 -0.042405665 0.69998783
-0.009276242 -0.043730855 0.69998777
-0.0092762774 -0.045056194 0.69998848
-0.0092762066 -0.046381027 0.69998717
-0.0094137834 -0.048413724 0.70235962
-0.00948219 -0.050120115 0.70353925
-0.0095065394 -0.051606894 0.70395917
-0.0095114838 -0.052992523 0.7040444
-0.0095163956 -0.054379374 0.7041291
-0.0095284749 -0.055809617 0.70433742
-0.0082178721 0.067112654 0.70535553
-0.0081539117 0.065231293 0.70406878
-0.0081483023 0.063828379 0.70395601
-0.0081483023 0.062470347 0.70395595
-0.0081482707 0.061112076 0.70395529
-0.008148239 0.059753746 0.7039547
-0.0081482073 0.058395505 0.70395404
-0.0081481757 0.057037264 0.70395339
-0.0081481757 0.055679202 0.70395339
-0.0081481431 0.054320991 0.70395273
-0.0081481114 0.05296275 0.70395213
-0.0081480797 0.051604509 0.70395148
-0.0081480481 0.050246328 0.70395082
-0.0081480481 0.048888296 0.70395088
-0.0081480164 0.047530115 0.70395017
-0.0081479838 0.046171963 0.70394957
-0.0081479521 0.044813752 0.70394892
-0.0081479205 0.043455601 0.70394826
-0.0081479205 0.042097628 0.70394826
-0.0081478888 0.040739447 0.7039476
-0.0081478572 0.039381325 0.70394701
-0.0081478255 0.038023174 0.70394635
-0.0081477929 0.036665082 0.7039457
-0.0081477929 0.035307109 0.70394576
-0.0081477612 0.033949047 0.70394504
-0.0081477296 0.032590955 0.70394444
-0.0081476979 0.031232864 0.70394379
-0.0081476979 0.029874921 0.70394379
-0.0081476662 0.028516859 0.70394313
-0.0081476662 0.027158886 0.70394313
-0.008148239 0.025802761 0.7039547
-0.008153975 0.024461925 0.70407009
-0.008153975 0.023102969 0.70407009
-0.008153975 0.021743953 0.70407009
-0.008153975 0.020384938 0.70407009
-0.008153975 0.019025981 0.70407009
-0.008153975 0.017666966 0.70407009
-0.008153975 0.01630798 0.70407009
-0.008153975 0.014948994 0.70407003
-0.008153975 0.013590008 0.70407009
-0.0081489077 0.012223363 0.70396811
-0.0081476662 0.010863543 0.70394319
-0.0081476662 0.0095056295 0.70394313
-0.0081476662 0.0081477165 0.70394313
-0.008143656 0.0067863762 0.70386243
-0.0078142155 0.0052094758 0.69723463
-0.0078142155 0.0039071441 0.69723457
-0.0078142444 0.0026047528 0.69723523
-0.0078142444 0.0013023615 0.69723529
-0.007814303 -0 0.69723642
-0.0078144204 -0.0013023913 0.6972388
-0.0078145666 -0.0026048422 0.69724172
-0.007814684 -0.0039073229 0.69724405
-0.0078148013 -0.0052098334 0.69724637
-0.0078149475 -0.0065124035 0.69724935
-0.0078150649 -0.007815063 0.69725174
-0.0078151813 -0.0091176927 0.69725406
-0.00781524 -0.010420322 0.69725525
-0.0078152111 -0.011722803 0.69725466
-0.00781524 -0.013025403 0.69725525
-0.0078151813 -0.014327824 0.69725412
-0.0078151235 -0.015630215 0.69725287
-0.0078150649 -0.016932607 0.69725168
-0.0078150062 -0.018234968 0.69725055
-0.0078149475 -0.019537359 0.69724929
-0.007814859 -0.020839572 0.69724762
-0.0078148013 -0.022141933 0.69724637
-0.0078147426 -0.023444206 0.69724524
-0.007814684 -0.024746448 0.69724405
-0.0078146253 -0.02604872 0.69724292
-0.0078145377 -0.027350873 0.69724113
-0.0078144791 -0.028653055 0.69723994
-0.0078144204 -0.029955268 0.69723874
-0.0078143617 -0.031257451 0.69723755
-0.007814303 -0.032559574 0.69723642
-0.0078142444 -0.033861727 0.69723523
-0.0078141857 -0.03516382 0.69723403
-0.0078141857 -0.036466181 0.69723403
-0.0078141857 -0.037768543 0.69723403
-0.0078141857 -0.039070934 0.69723403
-0.0078141857 -0.040373296 0.69723409
-0.0078141857 -0.041675627 0.69723403
-0.0078141857 -0.042977989 0.69723403
-0.0078141857 -0.04428032 0.69723403
-0.0078141857 -0.045582741 0.69723403
-0.0078141857 -0.046885103 0.69723409
-0.0080929194 -0.049906343 0.7028417
-0.0081143696 -0.051391006 0.7032733
-0.0081183827 -0.052769482 0.703354
-0.0081223994 -0.0541493 0.70343482
-0.00812905 -0.055548519 0.70356858
-0.0068045072 0.066684186 0.70430011
-0.0067707496 0.064999223 0.70348513
-0.0067675319 0.063614815 0.70340741
-0.0067675053 0.062261045 0.70340681
-0.0067675053 0.060907543 0.70340681
-0.0067674792 0.059553832 0.70340616
-0.0067674527 0.058200091 0.7034055
-0.0067674266 0.05684641 0.7034049
-0.0067674266 0.055492938 0.7034049
-0.0067674001 0.054139256 0.70340425
-0.0067673735 0.052785546 0.70340359
-0.0067673735 0.051432073 0.70340359
-0.0067673475 0.050078362 0.703403
-0.0067673209 0.048724741 0.70340234
-0.0067672944 0.04737106 0.70340168
-0.0067672944 0.046017617 0.70340168
-0.0067672683 0.044663996 0.70340109
-0.0067672417 0.043310344 0.70340043
-0.0067672417 0.041956931 0.70340049
-0.0067672157 0.04060331 0.70339984
-0.0067671891 0.039249718 0.70339918
-0.0067671626 0.037896097 0.70339853
-0.0067671626 0.036542714 0.70339847
-0.0067671365 0.035189152 0.70339787
-0.00676711 0.03383556 0.70339727
-0.00676711 0.032482147 0.70339727
-0.0067670839 0.031128585 0.70339662
-0.0067670573 0.029775083 0.70339596
-0.0067670308 0.028421551 0.70339537
-0.0067670308 0.027068138 0.70339531
-0.0068939887 0.026197165 0.70646036
-0.0069869221 0.025152951 0.70870394
-0.0069891992 0.023763299 0.70875895
-0.0069886087 0.022363544 0.7087447
-0.0069879903 0.020963997 0.70872974
-0.0069873999 0.019564718 0.7087155
-0.0069868099 0.018165708 0.70870125
-0.0069862199 0.016766965 0.70868695
-0.0069856299 0.015368402 0.70867276
-0.0069850404 0.013970077 0.70865858
-0.0069699641 0.012545943 0.70829451
-0.0067670308 0.010827243 0.70339537
-0.0067670573 0.0094738901 0.70339596
-0.0067671365 0.0081205666 0.70339787
-0.0067636063 0.0067636371 0.70331264
-0.0064971857 0.0051977634 0.69688076
-0.0064972588 0.0038983822 0.69688249
-0.0064973556 0.0025989711 0.69688481
-0.0064973803 0.0012995005 0.69688541
-0.0064973803 2.9802322e-08 0.69688541
-0.0064973803 -0.0012994707 0.69688541
-0.0064973803 -0.0025989413 0.69688541
-0.0064973803 -0.0038984418 0.69688541
-0.0064973803 -0.0051978827 0.69688541
-0.0064974045 -0.0064974129 0.69688594
-0.0064974045 -0.0077968836 0.69688594
-0.006497453 -0.0090964437 0.69688714
-0.0064975503 -0.010396093 0.69688952
-0.0064976476 -0.011695772 0.69689184
-0.0064976718 -0.012995362 0.69689244
-0.0064976718 -0.014294863 0.69689244
-0.0064976718 -0.015594393 0.69689238
-0.0064976476 -0.016893864 0.69689184
-0.0064976476 -0.018193424 0.6968919
-0.0064976718 -0.019492984 0.69689238
-0.0064976718 -0.020792514 0.69689244
-0.0064976718 -0.022092074 0.6968925
-0.0064976718 -0.023391604 0.69689244
-0.0064976476 -0.024691045 0.69689184
-0.0064975987 -0.025990397 0.69689065
-0.0064975261 -0.027289599 0.69688886
-0.0064974772 -0.028588891 0.69688767
-0.0064974288 -0.029888183 0.69688654
-0.0064974288 -0.031187654 0.69688654
-0.0064974288 -0.032487124 0.6968866
-0.0064974045 -0.033786505 0.69688594
-0.0064974045 -0.035085976 0.69688594
-0.0064974045 -0.036385447 0.69688606
-0.0064974045 -0.037684917 0.69688594
-0.0064974045 -0.038984388 0.69688594
-0.0064974045 -0.040283918 0.69688594
-0.0064974045 -0.041583389 0.69688594
-0.0064974045 -0.04288286 0.69688594
-0.0064973803 -0.044182152 0.69688535
-0.0064972588 -0.045480788 0.69688249
-0.0064971615 -0.046779543 0.6968801
-0.0065291477 -0.048315674 0.69765234
-0.0067399126 -0.051223308 0.70274067
-0.0067431037 -0.052596211 0.70281768
-0.0067463247 -0.053970605 0.7028954
-0.0067502302 -0.055351853 0.7029897
-0.0054221568 0.066421419 0.70365286
-0.0054020733 0.064824909 0.70304668
-0.0054004779 0.063455641 0.70299858
-0.0054004779 0.062105507 0.70299858
-0.005400457 0.060755134 0.70299798
-0.005400457 0.059405059 0.70299798
-0.005400457 0.058054924 0.70299792
-0.005400436 0.056704581 0.70299733
-0.005400436 0.055354446 0.70299733
-0.005400436 0.054004371 0.70299733
-0.005400415 0.052654058 0.70299673
-0.005400415 0.051303953 0.70299673
-0.005400415 0.049953848 0.70299667
-0.0054003941 0.048603565 0.70299608
-0.0054003941 0.04725346 0.70299608
-0.0054003941 0.045903355 0.70299608
-0.0054003941 0.04455325 0.70299608
-0.0054003727 0.043202996 0.70299548
-0.0054003727 0.041852891 0.70299542
-0.0054003727 0.040502787 0.70299542
-0.0054003517 0.039152563 0.70299482
-0.0054003517 0.037802458 0.70299482
-0.0054003308 0.036452234 0.70299417
-0.0054003098 0.03510204 0.70299351
-0.0054003098 0.033751935 0.70299351
-0.0054002889 0.032401741 0.70299292
-0.0054002889 0.031051666 0.70299292
-0.0054002469 0.029701382 0.70299166
-0.0054001422 0.02835077 0.70298845
-0.0054001422 0.027000755 0.70298845
-0.0054845698 0.02605176 0.70553631
-0.0055688219 0.0250597 0.70807886
-0.0055726622 0.023683846 0.70819467
-0.0055726846 0.022290766 0.70819539
-0.0055720815 0.020895302 0.70817721
-0.0055716122 0.019500673 0.70816302
-0.0055711656 0.018106312 0.70814949
-0.005570719 0.016712189 0.70813608
-0.0055688219 0.015314251 0.70807886
-0.0055571324 0.013892829 0.70772606
-0.0054010022 0.012152314 0.70301437
-0.0054001631 0.010800302 0.7029891
-0.0054001422 0.0094502866 0.70298845
-0.0054058759 0.0081088245 0.70316148
-0.0055477717 0.0069347024 0.70744359
-0.0051901205 0.0051901042 0.69665051
-0.0051900819 0.0038925707 0.69664931
-0.0051914002 0.0025957227 0.69668907
-0.0055461559 0.0013865829 0.70739484
-0.0055478159 2.9802322e-08 0.70744491
-0.0055473512 -0.0013868213 0.7074309
-0.0055467756 -0.0027733445 0.70741349
-0.0055461777 -0.0041595995 0.70739549
-0.0055456245 -0.0055456161 0.70737875
-0.0055166138 -0.0068957806 0.70650333
-0.0051901015 -0.0077851415 0.69664991
-0.0051900819 -0.0090826154 0.69664931
-0.0051901592 -0.010380298 0.6966517
-0.0055437447 -0.012473434 0.707322
-0.0055433023 -0.013858229 0.70730865
-0.005542838 -0.015242785 0.7072947
-0.0055422192 -0.016626656 0.70727599
-0.0055416226 -0.018010259 0.70725805
-0.0055369204 -0.019379199 0.70711613
-0.0054788836 -0.02054581 0.7053647
-0.0051901401 -0.020760536 0.6966511
-0.0051900623 -0.022057772 0.69664872
-0.0051901401 -0.023355603 0.6966511
-0.0055393255 -0.026311755 0.70718867
-0.005538906 -0.027694494 0.70717609
-0.0055384426 -0.029076785 0.70716202
-0.0055379793 -0.030458868 0.70714808
-0.0055375379 -0.031840831 0.70713472
-0.0055287927 -0.033172727 0.70687085
-0.005465182 -0.034157366 0.70495123
-0.0053838887 -0.034995258 0.70249796
-0.0053605493 -0.036183685 0.70179367
-0.0053605493 -0.037523806 0.70179367
-0.0053605493 -0.038863987 0.70179367
-0.0053605493 -0.040204108 0.70179367
-0.0053605493 -0.041544259 0.70179361
-0.0053605493 -0.04288438 0.70179367
-0.0053578219 -0.044202 0.7017113
-0.0053069438 -0.045109004 0.700176
-0.005190392 -0.045415908 0.69665867
-0.0051901015 -0.046710879 0.69664991
-0.0052098674 -0.048191249 0.69724643
-0.0053787841 -0.051098406 0.70234394
-0.0053812624 -0.052467316 0.70241868
-0.0053837425 -0.053837389 0.70249355
-0.0053862254 -0.055208832 0.70256853
-0.0040557641 0.066244125 0.70321608
-0.0040440732 0.064705163 0.70274568
-0.0040433048 0.063345134 0.7027148
-0.004043289 0.061997116 0.70271409
-0.0040432732 0.060649127 0.70271349
-0.0040432578 0.059301108 0.70271289
-0.0040432578 0.057953387 0.70271289
-0.004043242 0.056605369 0.70271224
-0.0040432261 0.05525744 0.70271158
-0.0040432108 0.053909451 0.70271099
-0.0040432108 0.05256176 0.70271099
-0.0040431949 0.051213831 0.70271039
-0.0040431791 0.049865901 0.70270967
-0.0040431637 0.048518002 0.70270908
-0.0040431637 0.047170222 0.70270908
-0.0040431479 0.045822352 0.70270848
-0.0040431321 0.044474453 0.70270783
-0.0040431167 0.043126583 0.70270717
-0.0040431167 0.041778892 0.70270717
-0.0040431009 0.040431023 0.70270658
-0.0040431009 0.039083332 0.70270658
-0.0040431009 0.037735611 0.70270658
-0.0040431009 0.03638795 0.70270658
-0.0040431009 0.03504023 0.70270658
-0.0040431009 0.033692539 0.70270658
-0.0040805787 0.032644659 0.70421457
-0.0041646021 0.031928629 0.70759541
-0.0040531778 0.029723316 0.70311207
-0.0040436499 0.02830559 0.70272863
-0.0040433519 0.026955724 0.70271665
-0.0040433672 0.025608033 0.7027173
-0.0040891264 0.024534732 0.70455849
-0.0041605299 0.023576349 0.70743155
-0.0041669826 0.02222392 0.70769119
-0.0041673994 0.020837039 0.70770794
-0.0041670827 0.019446403 0.70769519
-0.0041667828 0.018056065 0.70768315
-0.0041652843 0.016661167 0.70762283
-0.0041046967 0.01505059 0.70518506
-0.0040439633 0.013479918 0.70274127
-0.0040435088 0.012130558 0.70272291
-0.0040432578 0.010782033 0.70271289
-0.0041515324 0.0096869171 0.70706952
-0.0041638203 0.0083276331 0.707564
-0.0041629388 0.0069382787 0.70752847
-0.0039053948 0.0052072108 0.69716573
-0.0039051024 0.0039051175 0.69715393
-0.0041321791 0.0027548373 0.70629078
-0.0041606957 0.0013869107 0.70743823
-0.0041619251 -0 0.7074877
-0.0041618254 -0.0013872683 0.70748365
-0.0041614929 -0.002774328 0.7074703
-0.0041611777 -0.0041611493 0.7074576
-0.0041601146 -0.005546838 0.70741487
-0.0041417014 -0.0069028437 0.70667398
-0.0039052486 -0.0078105032 0.69715983
-0.0039051608 -0.0091120303 0.69715631
-0.0041461657 -0.011056423 0.70685357
-0.004159119 -0.012477368 0.70737481
-0.0041588037 -0.013862669 0.70736212
-0.0041586873 -0.015248507 0.70735741
-0.0041583721 -0.016633481 0.70734477
-0.0041580568 -0.018018216 0.70733207
-0.0041540801 -0.019385666 0.70717198
-0.0041211518 -0.020605743 0.70584708
-0.0039095841 -0.020851105 0.69733429
-0.0039052193 -0.022129565 0.69715869
-0.0039055413 -0.023433238 0.69717157
-0.0041560014 -0.026321292 0.70724934
-0.0041558687 -0.027705759 0.70724398
-0.0041555539 -0.029088855 0.70723134
-0.0041552391 -0.030471742 0.70721865
-0.0041547422 -0.03185302 0.70719862
-0.004141619 -0.033132941 0.70667064
-0.0040942016 -0.034118325 0.7047627
-0.0040352126 -0.034971803 0.70238918
-0.0040180874 -0.036162764 0.70170009
-0.0040180874 -0.03750214 0.70170015
-0.0040180874 -0.038841516 0.70170009
-0.0040181186 -0.04018116 0.7017014
-0.004018134 -0.041520715 0.701702
-0.0040181652 -0.042860389 0.70170319
-0.0040180255 -0.044198245 0.70169759
-0.004004627 -0.045385808 0.70115852
-0.0039116233 -0.045635611 0.69741637
-0.0039053804 -0.046864569 0.69716513
-0.0040179789 -0.049555063 0.70169574
-0.0040272619 -0.05101195 0.70206922
-0.0040290831 -0.052378058 0.70214254
-0.0040308903 -0.05374518 0.70221525
-0.0040327148 -0.055113763 0.70228869
-0.0040609464 -0.056853205 0.70342463
-0.002700113 0.066152781 0.70299101
-0.0026931441 0.064635456 0.70257044
-0.0026927788 0.063280284 0.70254838
-0.0026927684 0.061933696 0.70254773
-0.0026927579 0.060587078 0.70254707
-0.0026927474 0.05924046 0.70254648
-0.0026927474 0.057894081 0.70254648
-0.0026927372 0.056547493 0.70254576
-0.0026927267 0.055200875 0.70254517
-0.0026927162 0.053854316 0.70254457
-0.0026927057 0.052507788 0.70254391
-0.0026926952 0.05116123 0.70254332
-0.002692685 0.049814701 0.70254266
-0.0026926745 0.048468173 0.70254207
-0.002692664 0.047121614 0.70254141
-0.002692664 0.045775324 0.70254135
-0.002692664 0.044428974 0.70254141
-0.002692664 0.043082654 0.70254147
-0.002692664 0.041736275 0.70254141
-0.002692664 0.040389955 0.70254141
-0.002692664 0.039043635 0.70254141
-0.0026926745 0.037697494 0.70254201
-0.0026926745 0.036351115 0.70254207
-0.0026926745 0.035004795 0.70254207
-0.0026936033 0.033670038 0.70259809
-0.0027692213 0.033230662 0.70716208
-0.0027753371 0.03191638 0.70753115
-0.0027755478 0.030531049 0.70754385
-0.0027751266 0.029138803 0.70751846
-0.0026930189 0.026930183 0.70256281
-0.0026927684 0.0255813 0.70254773
-0.0026927998 0.024235219 0.70254964
-0.002704958 0.022992164 0.70328343
-0.0027588871 0.022071123 0.70653832
-0.0027733324 0.020799994 0.70741022
-0.0027740076 0.019418061 0.70745093
-0.0027709329 0.018011093 0.70726532
-0.0026961952 0.016177177 0.7027545
-0.00269281 0.014810473 0.70255023
-0.0026927893 0.013463974 0.70254898
-0.0026934675 0.012120634 0.70258987
-0.0027698616 0.01107946 0.70720071
-0.0027721487 0.0097025633 0.70733869
-0.0027717617 0.008315295 0.70731533
-0.0027709659 0.0069274306 0.7072674
-0.0026433587 0.0052867234 0.69956553
-0.002643449 0.0039651692 0.69957101
-0.0027511653 0.0027511418 0.70607233
-0.0027697843 0.0013849139 0.707196
-0.0027706346 2.9802322e-08 0.70724732
-0.0027704246 -0.0013851821 0.70723462
-0.0027702148 -0.0027701855 0.70722204
-0.0027698835 -0.0041548014 0.70720196
-0.0027695082 -0.005539 0.70717937
-0.0027575188 -0.0068938136 0.70645577
-0.002643419 -0.007930249 0.69956923
-0.002643419 -0.009251982 0.69956923
-0.0027599609 -0.011039793 0.70660311
-0.0027687137 -0.012459189 0.70713139
-0.0027685703 -0.013842851 0.7071228
-0.002768372 -0.015226007 0.70711076
-0.0027681403 -0.016608834 0.70709682
-0.0027678427 -0.017990947 0.70707881
-0.0027655845 -0.019359052 0.70694256
-0.0027447653 -0.020585746 0.70568597
-0.0026436502 -0.021149188 0.69958317
-0.002643429 -0.022469133 0.69956982
-0.002763506 -0.024871558 0.70681709
-0.0027667626 -0.026284218 0.70701367
-0.0027665645 -0.027665645 0.70700169
-0.0027663661 -0.029046834 0.70698977
-0.002766036 -0.030426353 0.7069698
-0.0027658488 -0.031807244 0.70695847
-0.0027576829 -0.033092171 0.70646566
-0.002727336 -0.034091711 0.70463407
-0.0026884764 -0.034950197 0.70228869
-0.0026761668 -0.036128223 0.70154572
-0.0026761359 -0.03746587 0.70154381
-0.0026761049 -0.038803488 0.70154196
-0.0026760739 -0.040141076 0.70154011
-0.0026760432 -0.041478664 0.70153821
-0.0026760225 -0.042816341 0.70153701
-0.0026760225 -0.044154376 0.70153701
-0.0026681626 -0.045358747 0.70106262
-0.0026435093 -0.0462614 0.69957465
-0.0026468623 -0.047643512 0.69977701
-0.002675971 -0.049505442 0.70153391
-0.0026821471 -0.050960779 0.70190662
-0.002683908 -0.052336216 0.70201296
-0.0026851005 -0.053702027 0.7020849
-0.0026859203 -0.05506137 0.70213437
-0.0026993684 -0.056686729 0.70294607
-0.0013494903 0.066125065 0.70292258
-0.0013460921 0.064612448 0.70251244
-0.0013459305 0.063258737 0.70249295
-0.0013459253 0.061912596 0.7024923
-0.00134592 0.060566425 0.7024917
-0.0013459148 0.059220284 0.70249104
-0.0013459095 0.057874113 0.70249045
-0.0013459044 0.056528002 0.70248979
-0.0013459044 0.055182099 0.70248979
-0.0013458992 0.053835988 0.70248914
-0.001345894 0.052489907 0.70248854
-0.001345894 0.051144034 0.70248854
-0.0013458887 0.049797922 0.70248789
-0.0013458887 0.04845199 0.70248795
-0.0013458887 0.047106087 0.70248795
-0.0013458836 0.045760065 0.70248723
-0.0013458836 0.044414163 0.70248729
-0.0013458784 0.043068111 0.70248663
-0.0013458784 0.041722238 0.70248663
-0.0013458784 0.040376365 0.70248663
-0.0013458731 0.039030343 0.70248604
-0.0013458731 0.03768447 0.70248604
-0.0013458731 0.036338568 0.70248604
-0.0013458731 0.034992695 0.70248604
-0.0013467286 0.03366822 0.70258927
-0.0013833538 0.033200532 0.70701027
-0.001386301 0.031884909 0.70736611
-0.0013862125 0.030496687 0.70735544
-0.0013861241 0.029108614 0.70734477
-0.0013860301 0.02772063 0.70733339
-0.0013458887 0.025571913 0.70248789
-0.0013459825 0.024227709 0.70249927
-0.0013460504 0.022882879 0.70250744
-0.0013469113 0.021550596 0.70261139
-0.0013686257 0.020529389 0.7052325
-0.0013785571 0.019299805 0.70643133
-0.0013461129 0.017499506 0.70251495
-0.0013459356 0.016151249 0.70249355
-0.0013458992 0.0148049 0.70248914
-0.0013460139 0.013460159 0.70250303
-0.0013823851 0.012441486 0.70689344
-0.0013849308 0.01107946 0.70720071
-0.0013848369 0.009693861 0.70718932
-0.0013847486 0.0083085001 0.70717871
-0.0013843569 0.006921798 0.70713145
-0.0013260575 0.0053042471 0.7000941
-0.0013260271 0.0039781332 0.70009035
-0.0013496685 0.0026993454 0.70294416
-0.0013792082 0.0013792217 0.70650989
-0.001380145 -0 0.70662296
-0.0013799805 -0.0013799965 0.70660317
-0.0013798106 -0.0027596354 0.70658267
-0.0013796408 -0.0041389167 0.70656216
-0.0013792191 -0.0055168569 0.7065112
-0.0013658444 -0.006829232 0.70489681
-0.0013257843 -0.0079546869 0.70006108
-0.0013258955 -0.0092812181 0.70007449
-0.0013637751 -0.010910213 0.704647
-0.0013789017 -0.012410104 0.70647287
-0.0013788196 -0.013788193 0.70646298
-0.001378743 -0.015166163 0.7064538
-0.0013786609 -0.016543925 0.70644385
-0.0013785789 -0.017921507 0.70643389
-0.0013769618 -0.019277453 0.70623875
-0.0013555392 -0.020333081 0.7036528
-0.0013259158 -0.021214634 0.70007694
-0.0013258955 -0.022540241 0.70007455
-0.0013745433 -0.024741769 0.7059468
-0.0013780978 -0.026183844 0.7063759
-0.0013780376 -0.027560741 0.70636863
-0.0013779557 -0.028937042 0.70635873
-0.0013778737 -0.030313224 0.70634884
-0.0013777917 -0.031689197 0.706339
-0.001376182 -0.033028334 0.70614463
-0.001362433 -0.034060806 0.70448494
-0.001343947 -0.034942627 0.70225352
-0.0013376662 -0.036116987 0.70149535
-0.0013376662 -0.037454635 0.70149541
-0.0013376662 -0.038792312 0.70149535
-0.0013376713 -0.040130138 0.70149595
-0.0013376713 -0.041467786 0.70149601
-0.0013376662 -0.042805284 0.70149529
-0.0013376044 -0.044140935 0.7014879
-0.0013331446 -0.045326889 0.70094955
-0.0013259411 -0.046407908 0.70007998
-0.0013266549 -0.047759563 0.70016617
-0.0013375632 -0.049489826 0.70148289
-0.0013406286 -0.050943851 0.70185292
-0.0013535169 -0.054140657 0.70340872
-0.0013424258 -0.055039465 0.70206988
-0.0013485946 -0.056640983 0.70281458
0 0.066154838 0.70299602
0 0.064635992 0.70257163
0 0.063279837 0.70254707
0 0.061933428 0.70254707
0 0.06058681 0.70254648
0 0.059240192 0.70254582
0 0.057893634 0.70254517
0 0.056547076 0.70254457
0 0.055200458 0.70254397
0 0.053854138 0.70254397
0 0.052507579 0.70254332
0 0.051161021 0.70254266
0 0.049814701 0.70254266
0 0.048468322 0.70254266
0 0.047122002 0.70254266
0 0.045775682 0.70254266
0 0.044429332 0.70254266
0 0.043082982 0.70254272
0 0.041736633 0.70254266
0 0.040390134 0.70254201
0 0.039043814 0.70254207
0 0.037697494 0.70254201
0 0.036351115 0.70254207
0 0.035004795 0.70254207
0 0.033658445 0.70254207
0 0.032429606 0.70313299
0 0.031078368 0.70313293
0 0.029727161 0.70313293
0 0.028375924 0.70313299
0 0.027004302 0.70301002
0 0.025580436 0.70254201
0 0.024234086 0.70254207
0 0.022887737 0.70254207
0 0.021541327 0.70254147
0 0.020195007 0.70254141
0 0.018848687 0.70254147
0 0.017502308 0.70254141
0 0.016155988 0.70254141
0 0.014809668 0.70254141
0 0.013463408 0.70254201
0 0.012160897 0.70313042
0 0.010809898 0.70313293
0 0.0094586611 0.70313299
0 0.008107394 0.70313233
0 0.0067431629 0.70281959
0 0.0052907467 0.699687
0 0.003967762 0.69967425
0 0.0026481748 0.69985497
0 0.0013381541 0.70155317
0 -0 0.70177436
0 -0.001339525 0.70171881
0 -0.0026780665 0.70166272
0 -0.0040158033 0.70160729
0 -0.0053524971 0.70155132
0 -0.0066334605 0.70017105
0 -0.0079297721 0.69955951
0 -0.0092512965 0.69955832
0 -0.010582328 0.69970036
0 -0.012016714 0.70119685
0 -0.013371825 0.70143694
0 -0.014709026 0.70143694
0 -0.016046166 0.70143694
0 -0.017383337 0.70143688
0 -0.018720537 0.701437
0 -0.019902706 0.70018941
0 -0.021147013 0.69956672
0 -0.022467524 0.69955826
0 -0.023805439 0.69966757
0 -0.025371999 0.70121801
0 -0.026743621 0.70143694
0 -0.028080791 0.70143688
0 -0.029418021 0.70143694
0 -0.030755192 0.70143688
0 -0.032092333 0.70143694
0 -0.033429533 0.70143688
0 -0.034736246 0.7012955
0 -0.036006778 0.70100266
0 -0.037340373 0.70100266
0 -0.038673967 0.70100266
0 -0.040007532 0.70100272
0 -0.041341126 0.70100272
0 -0.04267472 0.70100266
0 -0.043991387 0.70094085
0 -0.045033872 0.69990915
0 -0.046257526 0.69956136
0 -0.047640413 0.69976664
0 -0.049506962 0.70153886
0 -0.050961733 0.70190972
0 -0.054140657 0.70340872
0 -0.055057913 0.70212436
0 -0.05668804 0.70294988
0.0013519212 0.066244125 0.70321608
0.00134804 0.064705938 0.70274758
0.0013477576 0.063344628 0.70271355
0.0013477576 0.061996877 0.70271349
0.0013477524 0.060648859 0.70271289
0.0013477472 0.05930087 0.7027123
0.0013477472 0.057953179 0.70271224
0.0013477472 0.056605369 0.70271224
0.0013477524 0.055257887 0.70271283
0.0013477524 0.053910106 0.70271289
0.0013477524 0.052562326 0.70271289
0.0013477524 0.051214635 0.70271289
0.0013477524 0.049866855 0.70271289
0.0013477524 0.048519105 0.70271283
0.0013477524 0.047171354 0.70271283
0.0013477524 0.045823604 0.70271289
0.0013477524 0.044475824 0.70271289
0.0013477524 0.043128073 0.70271289
0.0013477524 0.041780353 0.70271283
0.0013477524 0.040432602 0.70271289
0.0013477524 0.039084852 0.70271283
0.0013477524 0.037737072 0.70271289
0.0013477524 0.036389321 0.70271289
0.0013477524 0.0350416 0.70271289
0.0013477524 0.03369382 0.70271289
0.0013477524 0.03234604 0.70271289
0.0013477524 0.03099829 0.70271289
0.0013477524 0.029650599 0.70271283
0.0013477524 0.028302819 0.70271283
0.0013477524 0.026955038 0.70271289
0.0013477524 0.025607318 0.70271289
0.0013477524 0.024259567 0.70271289
0.0013477524 0.022911817 0.70271283
0.0013477524 0.021564066 0.70271289
0.0013477524 0.020216286 0.70271289
0.0013477524 0.018868566 0.70271283
0.0013477524 0.017520815 0.70271289
0.0013477524 0.016173065 0.70271289
0.0013477524 0.014825284 0.70271289
0.0013477524 0.013477534 0.70271289
0.0013477524 0.012129813 0.70271283
0.0013477524 0.010782033 0.70271289
0.0013477524 0.0094342828 0.70271289
0.0013477419 0.0080864429 0.70271158
0.0013467338 0.0067336857 0.70258993
0.0012969635 0.0051878989 0.69658208
0.001296886 0.0038906634 0.69657278
0.0012968086 0.0025936663 0.69656342
0.0012967312 0.0012967587 0.69655406
0.0012966538 -0 0.69654471
0.0012965763 -0.0012965798 0.69653535
0.0012964989 -0.0025929809 0.69652599
0.0012964506 -0.0038893223 0.69652027
0.0012964071 -0.0051856041 0.6965149
0.0012963635 -0.0064817965 0.69650972
0.00129632 -0.0077779293 0.69650447
0.0012963054 -0.0090741515 0.69650269
0.0012963054 -0.010370433 0.69650269
0.0012963054 -0.011666775 0.69650269
0.0012963054 -0.012963057 0.69650263
0.0012963054 -0.014259338 0.69650263
0.0012963054 -0.01555565 0.69650269
0.0012963054 -0.016851962 0.69650269
0.0012963054 -0.018148303 0.69650269
0.0012963054 -0.019444555 0.69650269
0.0012963054 -0.020740896 0.69650263
0.0012963054 -0.022037178 0.69650269
0.0012963054 -0.02333349 0.69650269
0.0012963054 -0.024629831 0.69650269
0.0012963054 -0.025926083 0.69650269
0.0012963054 -0.027222425 0.69650263
0.0012963054 -0.028518707 0.69650269
0.0012963054 -0.029815018 0.69650269
0.0012963054 -0.03111133 0.69650269
0.0012963054 -0.032407641 0.69650275
0.0012963054 -0.033703983 0.69650269
0.0012963054 -0.035000235 0.69650263
0.0012963054 -0.036296546 0.69650269
0.0012963054 -0.037592828 0.69650263
0.0012963054 -0.03888914 0.69650269
0.0012963054 -0.040185481 0.69650269
0.0012963054 -0.041481763 0.69650269
0.0012963054 -0.042778075 0.69650269
0.0012963054 -0.044074386 0.69650269
0.0012963054 -0.045370698 0.69650269
0.0012963054 -0.04666701 0.69650275
0.0013393883 -0.049557358 0.70170325
0.0013424621 -0.051013559 0.70207429
0.0013535169 -0.054140657 0.70340872
0.0013442538 -0.055114388 0.70229053
0.0013537173 -0.056856126 0.70343292
0.0027110891 0.066421688 0.70365345
0.0027010785 0.064825892 0.70304924
0.0027001863 0.06345439 0.70299542
0.0027001759 0.062104076 0.70299482
0.0027001759 0.060753971 0.70299482
0.0027001654 0.059403658 0.70299417
0.0027001654 0.058053613 0.70299417
0.0027001654 0.056703508 0.70299417
0.0027001654 0.055353403 0.70299417
0.0027001654 0.054003328 0.70299411
0.0027001654 0.052653253 0.70299411
0.0027001654 0.051303148 0.70299423
0.0027001654 0.049953073 0.70299417
0.0027001654 0.048602998 0.70299417
0.0027001654 0.047252923 0.70299417
0.0027001654 0.045902818 0.70299411
0.0027001654 0.044552743 0.70299411
0.0027001654 0.043202668 0.70299417
0.0027001654 0.041852593 0.70299417
0.0027001549 0.04050234 0.70299351
0.0027001549 0.039152294 0.70299351
0.0027001549 0.03780219 0.70299351
0.0027001549 0.036452115 0.70299351
0.0027001549 0.03510204 0.70299351
0.0027001549 0.033751935 0.70299351
0.002703832 0.032445967 0.70321548
0.002703832 0.031094074 0.70321548
0.0027038425 0.029742301 0.70321608
0.0027038425 0.028390348 0.70321614
0.0027030853 0.027030885 0.70317042
0.0027001654 0.025651604 0.70299411
0.0027001759 0.024301589 0.70299482
0.0027001759 0.022951514 0.70299482
0.0027001759 0.021601439 0.70299482
0.0027001759 0.020251334 0.70299482
0.0027001759 0.018901259 0.70299482
0.0027001759 0.017551154 0.70299482
0.0027001759 0.016201079 0.70299476
0.0027001654 0.014850944 0.70299411
0.0027001654 0.013500869 0.70299411
0.002703832 0.012167275 0.70321542
0.002703832 0.010815322 0.70321542
0.002703832 0.0094633996 0.70321548
0.002703832 0.0081115365 0.70321548
0.002700879 0.0067522228 0.7030372
0.0025947017 0.0051894188 0.69662881
0.0025947406 0.0038921237 0.69663125
0.002594789 0.0025947988 0.69663417
0.0025948277 0.0012974441 0.69663644
0.0025948761 -0 0.69663942
0.002594915 -0.0012974441 0.69664174
0.0025949536 -0.002594918 0.69664407
0.0025950021 -0.0038925111 0.69664699
0.0025950409 -0.0051901042 0.69664937
0.0025950894 -0.0064877272 0.69665229
0.0025950894 -0.0077852607 0.69665229
0.0025950894 -0.0090827942 0.69665229
0.0025950894 -0.010380358 0.69665223
0.0025950894 -0.011677891 0.69665229
0.0025950894 -0.012975425 0.69665223
0.0025950894 -0.014272988 0.69665229
0.0025950894 -0.015570492 0.69665223
0.0025950894 -0.016868055 0.69665229
0.0025950894 -0.018165618 0.69665229
0.0025950796 -0.019463062 0.6966517
0.0025950701 -0.020760536 0.6966511
0.0025950603 -0.02205798 0.69665045
0.0025950507 -0.023355424 0.69664991
0.0025950409 -0.024652869 0.69664931
0.0025950312 -0.025950283 0.69664878
0.0025950312 -0.027247787 0.69664872
0.0025950216 -0.028545201 0.69664818
0.0025950118 -0.029842645 0.69664764
0.0025950021 -0.03114 0.69664699
0.0025949925 -0.032437384 0.69664645
0.0025949827 -0.033734769 0.6966458
0.0025949732 -0.035032094 0.69664526
0.0025949732 -0.036329597 0.6966452
0.0025949634 -0.037626952 0.69664466
0.0025949248 -0.038923889 0.69664234
0.0025948666 -0.040220439 0.69663882
0.0025948181 -0.041517079 0.6966359
0.002594789 -0.042814016 0.69663411
0.0025947599 -0.044110924 0.69663239
0.0025947213 -0.045407623 0.69663
0.0025947017 -0.04670459 0.69662881
0.0026042601 -0.048178792 0.69720578
0.0026894649 -0.051099807 0.70234835
0.0027070444 -0.054140896 0.70340931
0.0026931544 -0.055209666 0.70257103
0.0040824963 0.066680759 0.70429176
0.0040623234 0.064997196 0.70348001
0.0040604877 0.063614339 0.70340616
0.0040604719 0.062260568 0.70340556
0.0040604561 0.060906857 0.7034049
0.0040604561 0.059553385 0.7034049
0.0040604402 0.058199674 0.70340425
0.0040604402 0.056846142 0.70340425
0.0040604402 0.055492699 0.70340425
0.0040604244 0.054138988 0.70340359
0.0040604402 0.052785724 0.70340419
0.0040604402 0.051432222 0.70340431
0.0040604402 0.050078779 0.70340425
0.0040604402 0.048725307 0.70340425
0.0040604402 0.047371835 0.70340425
0.0040604402 0.046018302 0.70340425
0.0040604402 0.04466486 0.70340425
0.0040604402 0.043311387 0.70340425
0.0040604402 0.041957885 0.70340425
0.0040604402 0.040604413 0.70340425
0.0040604402 0.03925097 0.70340425
0.0040604402 0.037897438 0.70340425
0.0040604402 0.036543965 0.70340425
0.0040604561 0.035190612 0.7034049
0.0040612789 0.033843994 0.70343798
0.0041762483 0.033410013 0.70806396
0.0041965917 0.032173872 0.70888263
0.0041965074 0.030774385 0.70887923
0.0041950718 0.02936551 0.70882142
0.0041787759 0.027858496 0.70816576
0.0040604244 0.025716007 0.70340359
0.0040604561 0.024362743 0.7034049
0.0040605352 0.023009717 0.70340806
0.0040611206 0.021659285 0.70343161
0.0041945991 0.020973027 0.7088024
0.0041945823 0.019574702 0.70880175
0.0040618167 0.017601222 0.70345962
0.0040612789 0.016245127 0.70343798
0.0040606936 0.01488921 0.70341438
0.004060741 0.013535827 0.70341635
0.0041397768 0.012419343 0.70659649
0.0041819951 0.011151999 0.70829529
0.0041907541 0.00977844 0.70864773
0.0041906196 0.0083812773 0.70864224
0.0041895583 0.0069826245 0.70859957
0.0038987489 0.0051983297 0.69689834
0.0038987342 0.0038987696 0.69689769
0.0038987342 0.0025991797 0.69689769
0.0039015359 0.0013005137 0.6970104
0.0039028069 2.9802322e-08 0.6970616
0.0039028069 -0.001300931 0.69706154
0.0039028069 -0.002601862 0.6970616
0.0039028069 -0.0039027929 0.6970616
0.0039028069 -0.0052036941 0.69706154
0.0038989531 -0.0064982176 0.69690645
0.0038987342 -0.0077974498 0.69689775
0.0038987342 -0.0090970099 0.69689775
0.0038987342 -0.01039663 0.69689775
0.0038999449 -0.011699855 0.69694644
0.0039028069 -0.013009369 0.69706154
0.0039028069 -0.014310271 0.6970616
0.0039028069 -0.015611202 0.69706154
0.0039028069 -0.016912162 0.6970616
0.0039028069 -0.018213093 0.6970616
0.0038998136 -0.019499093 0.6969412
0.0038987342 -0.0207932 0.69689775
0.0038987342 -0.022092789 0.69689775
0.0038987342 -0.023392349 0.69689769
0.0038989822 -0.024693549 0.69690764
0.0039027922 -0.02601856 0.69706094
0.0039027922 -0.027319551 0.69706094
0.0039027922 -0.028620481 0.69706094
0.0039027922 -0.029921383 0.697061
0.0039027922 -0.031222314 0.697061
0.0039027922 -0.032523304 0.697061
0.0039027922 -0.033824176 0.697061
0.0039027776 -0.035124958 0.69706035
0.0039027776 -0.036425948 0.69706047
0.0039027776 -0.03772682 0.69706041
0.0039027776 -0.03902778 0.69706041
0.0039027776 -0.040328652 0.69706035
0.0039027922 -0.041629791 0.697061
0.0039027922 -0.042930692 0.697061
0.0039003389 -0.044203848 0.6969623
0.0038987198 -0.045485049 0.69689715
0.0038987489 -0.046784967 0.69689828
0.0039187255 -0.048330933 0.69770211
0.0040440108 -0.051224113 0.70274317
0.004101499 -0.053319454 0.70505631
0.0040605511 -0.054140657 0.70340872
0.0040501854 -0.055352509 0.7029916
0.0054787542 0.067114741 0.70536077
0.0054359413 0.065231293 0.70406878
0.005432372 0.063830405 0.70396107
0.0054323506 0.062472075 0.70396048
0.0054323291 0.061113715 0.70395982
0.0054323082 0.059755415 0.70395917
0.0054322868 0.058397084 0.70395851
0.0054322658 0.057038814 0.70395786
0.0054322444 0.055680513 0.70395726
0.005432223 0.054322243 0.7039566
0.005432223 0.052964211 0.7039566
0.005432202 0.05160594 0.70395595
0.005432202 0.050247908 0.70395601
0.0054321806 0.048889637 0.70395535
0.0054321806 0.047531635 0.70395529
0.0054321596 0.046173394 0.7039547
0.0054321382 0.044815153 0.70395404
0.0054321382 0.043457121 0.70395404
0.0054321168 0.042098939 0.70395339
0.0054321168 0.040740907 0.70395339
0.0054320958 0.039382726 0.70395273
0.0054320958 0.038024694 0.70395273
0.0054320744 0.036666512 0.70395213
0.0054320744 0.03530851 0.70395213
0.0054320744 0.033950478 0.70395213
0.0055190232 0.033114165 0.70657605
0.0055979802 0.032188416 0.70895875
0.0056050234 0.030827671 0.7091713
0.0055266162 0.029014766 0.70680517
0.0054337098 0.027168542 0.70400149
0.0054326477 0.025805086 0.70396942
0.0054323082 0.024445415 0.70395917
0.005622346 0.023894966 0.70969409
0.0056233015 0.022493213 0.70972288
0.0056233699 0.021087646 0.70972496
0.0056228237 0.019679904 0.70970845
0.0056222552 0.01827234 0.70969129
0.0056215958 0.016864777 0.70967138
0.0054321596 0.014938474 0.70395464
0.0054323082 0.013580799 0.70395911
0.0054331576 0.012224644 0.7039848
0.0054764226 0.01095286 0.70529044
0.0055790599 0.00976336 0.70838779
0.0056087105 0.0084130764 0.70928258
0.0056153499 0.007019192 0.70948297
0.0052213166 0.0052213371 0.6975919
0.0052210027 0.0039157569 0.69758242
0.0055648754 0.002782464 0.70795977
0.0056107705 0.0014027357 0.70934474
0.0056120846 2.9802322e-08 0.70938438
0.0056115407 -0.0014028847 0.70936799
0.0056109973 -0.0028055012 0.7093516
0.0056104539 -0.0042078197 0.70933521
0.0056097289 -0.0056097209 0.70931333
0.0055775824 -0.0069719851 0.70834321
0.0052214148 -0.0078321099 0.69759488
0.0052211597 -0.0091370344 0.69758719
0.005227719 -0.01045543 0.69778514
0.0056078504 -0.012617648 0.70925659
0.0056074206 -0.014018565 0.70924366
0.0056069456 -0.015419096 0.70922929
0.0056064706 -0.016819388 0.70921504
0.0056055663 -0.01821807 0.70918763
0.0055966051 -0.019588083 0.70891726
0.0055179498 -0.020692289 0.70654362
0.005222023 -0.02088806 0.69761324
0.0052212188 -0.022190183 0.69758904
0.0052211992 -0.023495376 0.69758844
0.0056031933 -0.026615173 0.70911604
0.0056027416 -0.028013706 0.70910245
0.0056022671 -0.029411882 0.70908815
0.0056017931 -0.03080985 0.70907378
0.0056007323 -0.032204211 0.70904177
0.0055696922 -0.033418149 0.70810509
0.0054878183 -0.034298867 0.70563436
0.0054087583 -0.035156906 0.7032485
0.0053953417 -0.036418527 0.70284361
0.0053953417 -0.03776738 0.70284361
0.0053953417 -0.039116204 0.70284361
0.0053953417 -0.040465087 0.70284367
0.0053953417 -0.04181388 0.70284355
0.0053953417 -0.043162733 0.70284367
0.0053947344 -0.04450655 0.70282525
0.0053578219 -0.045541465 0.7017113
0.0052224156 -0.04569611 0.6976251
0.0052215327 -0.046993762 0.69759846
0.0053955722 -0.049908996 0.70285058
0.0054104426 -0.051399201 0.70329928
0.0054136249 -0.052782834 0.70339537
0.0054162829 -0.05416283 0.70347559
0.0054192818 -0.055547625 0.70356607
0.0068299468 0.065567493 0.70491433
0.0068200803 0.064108759 0.70467603
0.0068200533 0.062744528 0.70467544
0.0068200533 0.061380506 0.70467538
0.0068200268 0.060016245 0.70467478
0.0068199998 0.058652014 0.70467412
0.0068199732 0.057287812 0.70467347
0.0068199462 0.055923581 0.70467281
0.0068199197 0.05455935 0.70467222
0.0068198927 0.053195149 0.7046715
0.0068198927 0.051831186 0.70467156
0.0068198661 0.050467044 0.70467091
0.0068198391 0.049102873 0.70467019
0.0068198126 0.047738701 0.70466959
0.0068197856 0.046374559 0.70466894
0.006819759 0.045010448 0.70466828
0.006819732 0.043646276 0.70466769
0.006819732 0.042282373 0.70466763
0.0068197055 0.040918231 0.70466703
0.0068196785 0.039554149 0.70466638
0.0068196519 0.038190067 0.70466572
0.0068196249 0.036825985 0.70466506
0.0068195984 0.035461932 0.70466441
0.0068195714 0.03409791 0.70466375
0.0068233749 0.032752216 0.7047556
0.0068500089 0.031510025 0.70539862
0.0068325792 0.030063361 0.70497781
0.0068204552 0.028645903 0.70468515
0.0068203211 0.027281284 0.70468187
0.006820214 0.025916845 0.70467931
0.0070786439 0.025483161 0.71091831
0.0070843301 0.024086773 0.71105564
0.0070835794 0.022667468 0.71103752
0.0070828861 0.021248668 0.71102077
0.0070821354 0.019829988 0.71100265
0.0070813848 0.018411607 0.71098453
0.0070806057 0.016993463 0.71096575
0.0070798555 0.015575677 0.71094763
0.006820214 0.013640434 0.70467925
0.0068197055 0.012275457 0.70466703
0.0068199462 0.010911942 0.70467281
0.0068284702 0.0095598698 0.70487863
0.0069282437 0.0083138943 0.70728737
0.0069996738 0.0069997013 0.70901185
0.0067020562 0.0053616762 0.70182669
0.006701746 0.0040210783 0.70181918
0.0069597727 0.0027839541 0.70804846
0.0070169754 0.0014034212 0.7094295
0.0070191016 2.9802322e-08 0.70948088
0.0070181377 -0.0014036298 0.70945764
0.0070172022 -0.0028068423 0.70943499
0.0070162104 -0.0042096972 0.70941103
0.0070141144 -0.0056112707 0.70936048
0.0069761211 -0.0069760978 0.70844322
0.0067015137 -0.0080418289 0.70181364
0.0067015137 -0.0093820989 0.70181358
0.0069944044 -0.01119104 0.7088846
0.0070118215 -0.012621254 0.70930511
0.0070114816 -0.014022917 0.70929688
0.0070111421 -0.01542452 0.70928872
0.0070106611 -0.016825557 0.70927709
0.0070101805 -0.018226445 0.70926547
0.0069990815 -0.019597411 0.70899755
0.0068875114 -0.020662487 0.70630401
0.0067015137 -0.021444857 0.70181364
0.0067015393 -0.022785246 0.70181423
0.0070052338 -0.025218815 0.70914608
0.0070071835 -0.026627302 0.70919311
0.0070069856 -0.028027952 0.70918834
0.0070064771 -0.029427141 0.70917606
0.0070059965 -0.03082636 0.7091645
0.007005488 -0.032225251 0.70915216
0.006984591 -0.033526003 0.70864767
0.0068800924 -0.034400463 0.7061249
0.0067829094 -0.035271108 0.70377862
0.0067713829 -0.036565453 0.70350039
0.0067713303 -0.037919432 0.70349914
0.0067712246 -0.039273083 0.70349658
0.0067710928 -0.040626556 0.70349342
0.0067711454 -0.041981071 0.70349467
0.0067712246 -0.043335795 0.70349658
0.0067696944 -0.04467997 0.70345962
0.0067130625 -0.045648813 0.70209241
0.0067022634 -0.046915859 0.7018317
0.0067318426 -0.048469245 0.70254582
0.0067729931 -0.050120115 0.70353925
0.0067905709 -0.051608324 0.70396364
0.0067941295 -0.052994192 0.70404953
0.0067977183 -0.054381728 0.70413625
0.0068060001 -0.0558092 0.70433617
0.00825343 0.066027462 0.7060709
0.0082291272 0.064461499 0.70558202
0.0082290955 0.063089728 0.70558137
0.0082290955 0.061718225 0.70558137
0.0082290955 0.060346693 0.70558131
0.0082290629 0.058974952 0.70558071
0.0082290629 0.057603478 0.70558071
0.0082290303 0.056231707 0.70558006
0.0082290303 0.054860234 0.70558006
0.0082289977 0.053488493 0.7055794
0.0082289651 0.052116811 0.70557874
0.0082289651 0.050745308 0.70557874
0.0082289325 0.049373597 0.70557809
0.0082288999 0.048001945 0.70557743
0.0082288673 0.046630293 0.70557678
0.0082288356 0.045258611 0.70557612
0.0082288031 0.04388696 0.70557547
0.0082287705 0.042515337 0.70557481
0.0082287379 0.041143686 0.70557421
0.0082287379 0.039772272 0.70557421
0.0082287053 0.03840065 0.7055735
0.0082286727 0.037029028 0.7055729
0.0082286401 0.035657465 0.70557219
0.0082286075 0.034285873 0.70557159
0.0082285758 0.032914311 0.70557094
0.0082285432 0.031542748 0.70557022
0.0082285106 0.030171245 0.70556962
0.0082285106 0.028799772 0.70556962
0.0082285106 0.027428389 0.70556962
0.0083301691 0.0263789 0.70761484
0.0084896684 0.025469035 0.71082366
0.008508482 0.024107397 0.7112022
0.0085078571 0.022687614 0.71118963
0.0085072676 0.021268189 0.71117777
0.0085066771 0.019848913 0.7111659
0.0085060867 0.018429846 0.71115404
0.0085055316 0.017011076 0.71114284
0.0085049421 0.015592426 0.71113098
0.0085043525 0.014173955 0.71111912
0.0084926086 0.012738943 0.71088284
0.0082286727 0.010971576 0.7055729
0.0082294522 0.0096010268 0.70558858
0.0082302317 0.0082302392 0.70560431
0.0082355635 0.006862998 0.70571148
0.0080653671 0.0053769052 0.70228744
0.0080650868 0.0040325224 0.70228183
0.0081472201 0.0027157366 0.70393419
0.0083489846 0.00139153 0.70799333
0.0083548725 2.9802322e-08 0.70811182
0.0083530322 -0.0013921559 0.70807481
0.0083511919 -0.0027836859 0.70803773
0.0083493516 -0.0041746795 0.70800078
0.0083443057 -0.0055628419 0.70789921
0.0082217604 -0.0068514645 0.70543385
0.0080607831 -0.0080607831 0.70219523
0.0080640577 -0.0094080567 0.70226097
0.0082354993 -0.010980666 0.70571017
0.0083433706 -0.012515038 0.70788038
0.0083431704 -0.013905257 0.70787638
0.0083429366 -0.015295386 0.70787168
0.0083427029 -0.016685367 0.70786697
0.0083425026 -0.018075407 0.70786297
0.0083158817 -0.019403726 0.70732737
0.0081614451 -0.020403624 0.70422041
0.0080640577 -0.021504134 0.70226097
0.008064026 -0.02284807 0.70226049
0.0083132954 -0.024939865 0.70727533
0.0083414679 -0.026414603 0.70784211
0.0083421357 -0.027807117 0.70785558
0.0083420351 -0.029197097 0.7078535
0.0083418684 -0.030586839 0.70785022
0.0083417352 -0.03197664 0.70784754
0.0083303023 -0.033321202 0.70761752
0.0082523199 -0.034384668 0.70604867
0.0081664957 -0.035388142 0.70432198
0.0081582833 -0.036712259 0.70415676
0.0081582833 -0.03807199 0.70415676
0.0081582833 -0.039431691 0.70415676
0.0081582507 -0.040791273 0.7041561
0.0081582507 -0.042150974 0.7041561
0.0081582507 -0.043510646 0.7041561
0.0081420969 -0.044781506 0.70383108
0.0080686137 -0.045722127 0.7023527
0.008064026 -0.047040135 0.70226043
0.0081520947 -0.048912525 0.70403218
0.0081812693 -0.05045113 0.70461917
0.0081923604 -0.051884919 0.70484233
0.0081969351 -0.053280056 0.70493436
0.0082015134 -0.054676771 0.70502645
0.0082240636 -0.056197733 0.70548016
0.0097485241 0.066847056 0.70813203
0.0096728867 0.064946562 0.70682764
0.0096677728 0.063531071 0.70673954
0.0096677346 0.062149763 0.70673883
0.0096676964 0.060768396 0.70673823
0.0096676573 0.059387058 0.70673752
0.0096676191 0.05800575 0.70673686
0.0096675809 0.056624442 0.70673621
0.0096675428 0.055243105 0.70673549
0.0096675036 0.053861827 0.7067349
0.0096674655 0.052480519 0.70673418
0.0096674273 0.051099271 0.70673358
0.0096673891 0.049717993 0.70673293
0.0096673891 0.048336953 0.70673287
0.0096673891 0.046955913 0.70673287
0.0096673891 0.045574844 0.70673293
0.00966735 0.044193625 0.70673221
0.00966735 0.042812586 0.70673221
0.00966735 0.041431487 0.70673227
0.00966735 0.040050477 0.70673227
0.00966735 0.038669407 0.70673221
0.0096673118 0.037288219 0.70673162
0.0096673118 0.035907149 0.70673156
0.0096673118 0.034526139 0.70673162
0.0096673118 0.03314507 0.70673156
0.0096672736 0.031763941 0.7067309
0.0096672736 0.030382872 0.7067309
0.0096672736 0.029001832 0.7067309
0.0096672736 0.027620763 0.70673096
0.009671771 0.026251972 0.70680851
0.009702675 0.024949729 0.70734143
0.0097027523 0.023563802 0.70734274
0.0097027523 0.022177756 0.70734268
0.0097027523 0.02079165 0.70734268
0.0097027523 0.019405514 0.70734268
0.0097027523 0.018019408 0.70734268
0.0097027523 0.016633332 0.70734274
0.0097027132 0.015247136 0.70734203
0.0097027132 0.01386106 0.70734209
0.0096945148 0.012464404 0.70720071
0.0096673891 0.011048466 0.70673287
0.0096679265 0.009667933 0.70674217
0.0096684648 0.0082873106 0.70675147
0.0096657369 0.0069040954 0.70670444
0.0093805632 0.0053603351 0.70178682
0.0093790805 0.0040195882 0.70176125
0.0093874065 0.0026821196 0.70190477
0.0094462112 0.001349479 0.70291883
0.0094557591 -0 0.70308352
0.0094531868 -0.0013504326 0.70303911
0.0094506526 -0.0027001798 0.70299542
0.0094480831 -0.0040491521 0.70295107
0.0094455145 -0.0053974092 0.70290679
0.0093949484 -0.0067106485 0.70203483
0.0093727196 -0.0080337226 0.70165145
0.0093726469 -0.0093726218 0.70165026
0.0093836756 -0.010724187 0.7018404
0.0094344504 -0.012129992 0.70271605
0.0094403457 -0.013486207 0.70281768
0.0094403457 -0.014834821 0.70281768
0.0094403457 -0.016183406 0.70281768
0.0094403457 -0.017532051 0.70281768
0.0094371596 -0.018874288 0.70276272
0.0093903784 -0.0201222 0.70195603
0.0093726115 -0.021423101 0.70164967
0.0093726115 -0.02276206 0.70164961
0.0093858847 -0.024135143 0.70187861
0.0094389906 -0.025620073 0.70279431
0.0094404183 -0.026972592 0.70281893
0.009440382 -0.028321147 0.70281833
0.0094403457 -0.029669642 0.70281768
0.0094403457 -0.031018287 0.70281768
0.0094403457 -0.032366872 0.70281768
0.0094403084 -0.033715367 0.70281702
0.0094403084 -0.035064012 0.70281708
0.0094403084 -0.036412627 0.70281708
0.0094403084 -0.037761241 0.70281708
0.0094403084 -0.039109826 0.70281708
0.0094403457 -0.040458649 0.70281768
0.0094403457 -0.041807234 0.70281768
0.009440382 -0.043156058 0.70281833
0.0094133103 -0.044377029 0.70235151
0.0093768025 -0.045544446 0.70172191
0.0093726469 -0.046863198 0.7016502
0.0095846457 -0.049292445 0.70530605
0.0096148811 -0.050821483 0.70582741
0.0096218791 -0.05223304 0.70594811
0.0096277064 -0.053640097 0.70604861
0.0096335029 -0.055048615 0.70614862
0.011175255 0.065654635 0.70864636
0.011150511 0.064115435 0.70827293
0.011150556 0.062721878 0.70827359
0.011150556 0.061328083 0.70827365
0.0111506 0.059934467 0.70827436
0.0111506 0.058540672 0.70827436
0.01115069 0.057147264 0.70827568
0.011150958 0.055754811 0.70827973
0.011151182 0.054362029 0.70828313
0.01115145 0.052969366 0.70828712
0.011151673 0.051576495 0.70829052
0.011151942 0.050183773 0.70829457
0.011152211 0.048790932 0.70829862
0.011152434 0.047397852 0.70830202
0.011152702 0.046004891 0.70830607
0.011152972 0.044611901 0.70831007
0.011153195 0.043218642 0.70831347
0.011153463 0.041825503 0.70831752
0.011153688 0.040432125 0.70832086
0.011153956 0.039038867 0.70832497
0.011154224 0.037645519 0.70832902
0.011154448 0.036251992 0.70833236
0.011154717 0.034858495 0.70833641
0.01115494 0.033464819 0.70833981
0.01115521 0.032071263 0.70834386
0.011155478 0.030677587 0.70834792
0.011155701 0.029283732 0.70835131
0.011155746 0.027889371 0.70835197
0.011155299 0.026493847 0.70834517
0.011154896 0.025098532 0.7083391
0.011154493 0.023703307 0.70833308
0.01115409 0.02230823 0.70832694
0.011153688 0.020913184 0.70832092
0.011153284 0.019518286 0.70831484
0.011152882 0.018123478 0.70830876
