# .PCD v0.7 - Point Cloud Data file format
VERSION 0.7
FIELDS x y z
SIZE 4 4 4
TYPE F F F
COUNT 1 1 1
WIDTH 1323
HEIGHT 1
VIEWPOINT 0 0 0 1 0 0 0
POINTS 1323
DATA ascii
-0.016126338 -0.02994889 0.6790691
-0.016320569 -0.031475365 0.68074387
-0.016420892 -0.032841772 0.6816088
-0.016411196 -0.033994585 0.68152529
-0.016404944 -0.035153449 0.68147135
-0.01637369 -0.036256015 0.68120182
-0.016340964 -0.037350774 0.68091965
-0.01630968 -0.038444221 0.68064994
-0.016282167 -0.039542407 0.68041277
-0.016261648 -0.040654093 0.6802358
-0.016298532 -0.041910499 0.68055385
-0.019316427 -0.051050544 0.70657468
-0.019218745 -0.052165121 0.70573246
-0.019120693 -0.053264767 0.70488703
-0.018758729 0.012986809 0.71420777
-0.0186406 0.011471152 0.71311086
-0.018540144 0.009983182 0.71217811
-0.018643908 0.0086049139 0.71314162
-0.018859528 0.0072537065 0.71514368
-0.017808547 0.0054795742 0.70538491
-0.017669849 0.0040776432 0.70409709
-0.017842524 0.0027450323 0.7057004
-0.018143669 0.0013956726 0.70849663
-0.016675908 -0 0.69486785
-0.016567407 -0.0012744069 0.69386041
-0.016459888 -0.0025322735 0.69286197
-0.016356835 -0.0037746727 0.69190514
-0.016265016 -0.0050045848 0.69105256
-0.016198989 -0.0062303543 0.69043946
-0.016376227 -0.0075582266 0.69208515
-0.016666064 -0.0089740455 0.69477642
-0.016960042 -0.010436893 0.69750613
-0.017088879 -0.011830747 0.69870251
-0.017076345 -0.013135642 0.69858605
-0.017012995 -0.014395565 0.69799781
-0.016924899 -0.015622973 0.69717985
-0.016830059 -0.016830027 0.6962992
-0.016734723 -0.018022001 0.69541395
-0.015419002 -0.017791152 0.6831969
-0.01535892 -0.018903285 0.682639
-0.01529941 -0.020006895 0.68208647
-0.015240769 -0.021102607 0.68154198
-0.015191971 -0.022203654 0.68108881
-0.015309623 -0.023553252 0.6821813
-0.015554553 -0.025126576 0.68445563
-0.015577028 -0.026361108 0.68466431
-0.015541602 -0.027496666 0.68433529
-0.015493572 -0.028603524 0.68388927
-0.015415003 -0.029644221 0.68315977
-0.015213974 -0.030427933 0.68129313
-0.015204244 -0.031578034 0.68120277
-0.015221715 -0.032785207 0.68136501
-0.015274629 -0.034074157 0.68185633
-0.015256417 -0.035207123 0.68168724
-0.015249876 -0.036365092 0.68162656
-0.015223972 -0.037474364 0.68138599
-0.015198105 -0.038579822 0.68114579
-0.015176455 -0.039692223 0.68094468
-0.01515568 -0.04080373 0.6807518
-0.015160512 -0.041982919 0.68079668
-0.015243649 -0.043385744 0.68156874
-0.0177873 -0.051993638 0.70518762
-0.017684516 -0.053053528 0.70423323
-0.017597433 -0.054145932 0.70342463
-0.017486403 0.016029209 0.71592438
-0.017375786 0.014479846 0.71481168
-0.017243069 0.01293233 0.7134766
-0.017224336 0.011482924 0.71328819
-0.017443826 0.010175586 0.71549606
-0.017661946 0.0088309646 0.71769023
-0.01772848 0.0073868632 0.71835947
-0.016352721 0.0054509342 0.70452046
-0.016248407 0.0040621161 0.70347118
-0.01553897 0.0025898516 0.69633472
-0.0154368 0.001286447 0.69530702
-0.015335513 2.9802322e-08 0.69428813
-0.015243402 -0.0012702942 0.69336152
-0.015239557 -0.0025398731 0.69332284
-0.015099657 -0.0037748814 0.69191557
-0.015037849 -0.0050126016 0.69129384
-0.015015429 -0.0062564313 0.69106829
-0.015068281 -0.0075341165 0.69159997
-0.015332073 -0.0089437068 0.69425356
-0.015634114 -0.010422736 0.69729173
-0.015772799 -0.011829555 0.69868684
-0.015758015 -0.013131678 0.69853812
-0.015671546 -0.014365584 0.69766831
-0.015584853 -0.015584856 0.6967963
-0.014352761 -0.015548825 0.68440241
-0.014296267 -0.016678959 0.68383408
-0.014240799 -0.017800957 0.68327618
-0.014185327 -0.018913746 0.6827181
-0.014137855 -0.020028621 0.68224061
-0.014234236 -0.021351337 0.68321013
-0.014468906 -0.022909105 0.68557072
-0.014495363 -0.024158955 0.68583685
-0.014462783 -0.025309861 0.68550915
-0.014418074 -0.02643314 0.68505943
-0.014373442 -0.027549118 0.68461037
-0.014331597 -0.028663158 0.6841895
-0.014290828 -0.02977255 0.68377936
-0.014114309 -0.030580968 0.6820038
-0.014067357 -0.031651527 0.68153143
-0.014038797 -0.032757163 0.68124413
-0.014110249 -0.034099787 0.68196291
-0.014120714 -0.035301775 0.68206823
-0.014122244 -0.036482453 0.68208355
-0.014106383 -0.037617028 0.68192405
-0.014086938 -0.038739055 0.68172842
-0.01406992 -0.039864749 0.68155724
-0.014055455 -0.040995091 0.68141174
-0.014046695 -0.042140067 0.68132359
-0.014079328 -0.043411225 0.68165183
-0.016332416 -0.051719308 0.70431614
-0.016231898 -0.052753627 0.70330507
-0.016125619 -0.053752065 0.70223594
-0.015975671 0.015975714 0.71533692
-0.015740663 0.014309704 0.71275806
-0.015739495 0.012877762 0.71274519
-0.015958728 0.011606365 0.71515107
-0.016176961 0.010294467 0.71754587
-0.016319174 0.0089013875 0.71910644
-0.01632238 0.0074192882 0.7191416
-0.014380879 0.0052294433 0.69783616
-0.01428462 0.0038958192 0.69677991
-0.014189958 0.002579987 0.69574106
-0.01409857 0.0012817085 0.69473827
-0.014069921 -0 0.69442379
-0.01424188 -0.0012947023 0.69631082
-0.014432793 -0.0026241541 0.69840586
-0.014628838 -0.0039896667 0.70055723
-0.014731511 -0.005356878 0.70168388
-0.01391472 -0.0063248575 0.69272071
-0.013905557 -0.0075848103 0.6926201
-0.013919736 -0.0088580251 0.69277573
-0.01419038 -0.010320276 0.69574571
-0.014386076 -0.011770397 0.6978932
-0.014396099 -0.013087362 0.69800323
-0.013268413 -0.013268411 0.68562829
-0.013215654 -0.014417022 0.6850493
-0.013163948 -0.015557379 0.68448198
-0.01311224 -0.016688317 0.68391454
-0.013066338 -0.017817706 0.68341082
-0.013143215 -0.019117385 0.68425441
-0.013363653 -0.02065292 0.68667346
-0.013395971 -0.021920651 0.68702811
-0.013366223 -0.023087084 0.68670166
-0.013324706 -0.024226755 0.6862461
-0.013283215 -0.025358826 0.68579072
-0.013244229 -0.026488453 0.68536294
-0.013207571 -0.027615815 0.68496066
-0.013171841 -0.028738558 0.68456858
-0.013137884 -0.029858828 0.68419594
-0.013070628 -0.03089419 0.68345791
-0.012871454 -0.031593591 0.68127221
-0.01280123 -0.032584935 0.68050158
-0.012843773 -0.033860862 0.68096846
-0.012984928 -0.035413444 0.68251747
-0.012973865 -0.036562711 0.68239605
-0.012987223 -0.03778097 0.68254256
-0.012973821 -0.038921446 0.68239552
-0.012961546 -0.040062934 0.68226087
-0.012953112 -0.041214436 0.68216825
-0.01294539 -0.042366713 0.68208361
-0.012953551 -0.043571025 0.68217313
-0.013020669 -0.044980496 0.68290961
-0.014774675 -0.052382916 0.70215762
-0.014659472 -0.053307146 0.7008934
-0.014278058 0.015705884 0.71237612
-0.014178547 0.014178544 0.71117496
-0.014357646 0.0129219 0.71333688
-0.014563452 0.011650771 0.71582115
-0.014774048 0.010341853 0.71836329
-0.013215033 0.0079290271 0.69954431
-0.013110177 0.0065551102 0.69827855
-0.013022471 0.0052090287 0.69721991
-0.01293598 0.0038808584 0.69617581
-0.01289283 0.0025785863 0.69565493
-0.01302335 0.0013023615 0.69723046
-0.01319892 -0 0.69934988
-0.013379287 -0.0013379157 0.70152706
-0.013499359 -0.002699852 0.70297647
-0.013506075 -0.0040518045 0.70305753
-0.013480139 -0.0053920448 0.70274442
-0.013436561 -0.0067182481 0.70221841
-0.01267938 -0.007607609 0.69307834
-0.012621121 -0.0088348091 0.69237518
-0.012706178 -0.010164946 0.69340193
-0.01216596 -0.010949314 0.68688089
-0.012116621 -0.012116611 0.68628532
-0.012068813 -0.013275683 0.68570817
-0.012021421 -0.014425695 0.68513614
-0.011977043 -0.015570104 0.68460047
-0.012036121 -0.016850561 0.68531358
-0.012239498 -0.018359214 0.68776858
-0.01245 -0.019919962 0.69030952
-0.01249823 -0.02124697 0.69089174
-0.012213599 -0.021984488 0.68745595
-0.012175039 -0.023132563 0.68699044
-0.012139056 -0.024278104 0.6865561
-0.012104675 -0.025419801 0.68614113
-0.01207158 -0.026557446 0.6857416
-0.012041002 -0.027694285 0.68537253
-0.012010867 -0.028826058 0.68500876
-0.01197337 -0.029933393 0.68455607
-0.011743638 -0.030533433 0.68178302
-0.011488611 -0.031019241 0.67870456
-0.011468477 -0.032111734 0.67846149
-0.011514309 -0.033391505 0.67901474
-0.011811261 -0.035433799 0.68259931
-0.011849768 -0.036734253 0.68306416
-0.01185458 -0.037934631 0.68312222
-0.011857735 -0.039130539 0.68316031
-0.011850456 -0.040291518 0.68307239
-0.011847748 -0.04146713 0.68303972
-0.011845769 -0.042644769 0.68301582
-0.01184884 -0.043840736 0.6830529
-0.011881171 -0.045148432 0.68344319
-0.011994283 -0.046777695 0.68480855
-0.01317345 -0.052693784 0.69904232
-0.012732947 0.015562505 0.71080285
-0.012710176 0.014122427 0.71049744
-0.012892474 0.012892514 0.71294248
-0.013079149 0.011625916 0.71544617
-0.011912604 0.0092653632 0.69980013
-0.01183215 0.0078881085 0.69872111
-0.011752996 0.0065294504 0.69765937
-0.011679037 0.0051907003 0.69666749
-0.011646719 0.0038822591 0.69623405
-0.011811815 0.0026248693 0.69844836
-0.01199117 0.0013323724 0.70085388
-0.01217596 2.9802322e-08 0.70333236
-0.012254161 -0.0013615489 0.70438123
-0.012238623 -0.0027196705 0.70417273
-0.012200995 -0.0040670037 0.70366812
-0.012145177 -0.0053978562 0.70291948
-0.012075393 -0.0067085028 0.70198351
-0.01138531 -0.0075901747 0.69272792
-0.011044648 -0.0085902512 0.68815887
-0.010998695 -0.0097766221 0.68754256
-0.010954926 -0.010954916 0.68695551
-0.010911542 -0.012123942 0.68637365
-0.010870351 -0.013285965 0.68582112
-0.010912684 -0.014550239 0.68638891
-0.011098545 -0.016031206 0.68888175
-0.011290806 -0.017563432 0.69146037
-0.01145139 -0.019085646 0.69361413
-0.011473783 -0.020397812 0.69391459
-0.011450551 -0.021628827 0.69360298
-0.011040203 -0.022080392 0.68809921
-0.010984131 -0.02318871 0.68734717
-0.010953659 -0.024341464 0.68693852
-0.010925876 -0.025493681 0.68656588
-0.010898119 -0.026639849 0.68619359
-0.010863289 -0.027761728 0.68572646
-0.010807837 -0.028820902 0.68498278
-0.010422837 -0.02895233 0.67981899
-0.01039443 -0.030028313 0.67943788
-0.010371435 -0.03111431 0.67912948
-0.010350805 -0.032202512 0.6788528
-0.010358107 -0.033376127 0.67895079
-0.010480929 -0.034936428 0.68059814
-0.010703375 -0.036867172 0.68358159
-0.010713532 -0.038092524 0.68371779
-0.010735231 -0.03936252 0.6840089
-0.010735673 -0.040556997 0.6840148
-0.010738474 -0.041760743 0.68405241
-0.010742864 -0.042971432 0.68411124
-0.010751765 -0.044201732 0.68423063
-0.010769055 -0.045469314 0.68446249
-0.010828158 -0.046921998 0.68525523
-0.011008916 -0.048928499 0.68767959
-0.011533109 -0.052539706 0.69471025
-0.011257215 0.015478671 0.70988297
-0.011219277 0.014024109 0.70931053
-0.01069215 0.012028694 0.70135677
-0.010618875 0.010618865 0.70025122
-0.010547357 0.0092289448 0.69917208
-0.010480786 0.0078606009 0.69816756
-0.010419774 0.0065123737 0.69724703
-0.010377877 0.0051889718 0.69661486
-0.010371372 0.0038892925 0.69651675
-0.010529418 0.0026323795 0.69890141
-0.010697417 0.0013372302 0.70143628
-0.010861347 2.9802322e-08 0.70390981
-0.010916499 -0.0013645291 0.70474195
-0.010894935 -0.0027237236 0.70441663
-0.010831511 -0.0040617883 0.70345962
-0.010768945 -0.005384475 0.7025156
-0.0099036498 -0.0061897635 0.68945932
-0.0098613836 -0.0073960423 0.68882155
-0.0098218014 -0.0085940659 0.68822426
-0.0097825704 -0.0097825527 0.68763232
-0.0097447783 -0.010962844 0.68706208
-0.009772459 -0.012215525 0.68747973
-0.0099401623 -0.013667732 0.69001019
-0.010113721 -0.015170544 0.69262904
-0.010260279 -0.016672939 0.69484043
-0.010285412 -0.01799947 0.69521964
-0.010272413 -0.019260734 0.69502354
-0.010246551 -0.02049309 0.69463325
-0.010217099 -0.021711349 0.69418895
-0.010152209 -0.022842437 0.69320977
-0.0097927023 -0.023257643 0.68778521
-0.0097670341 -0.024417549 0.68739796
-0.009735086 -0.025554597 0.68691587
-0.0096839089 -0.026630729 0.68614364
-0.009339828 -0.026851982 0.68095189
-0.00931504 -0.027945131 0.68057787
-0.0092943897 -0.029044956 0.68026626
-0.0092750387 -0.030143827 0.67997426
-0.0092561068 -0.031239331 0.67968857
-0.0092384182 -0.032334447 0.67942166
-0.0092310859 -0.033462673 0.67931116
-0.0092730271 -0.034773827 0.67994392
-0.0094804289 -0.036736667 0.6830734
-0.0095813368 -0.03832534 0.68459594
-0.0095878467 -0.039549828 0.68469417
-0.0096162055 -0.040868849 0.68512213
-0.0096242288 -0.042106003 0.68524319
-0.0096359057 -0.043361545 0.68541938
-0.0096510947 -0.044636309 0.68564856
-0.0096740685 -0.045951813 0.68599516
-0.009711856 -0.047345281 0.68656534
-0.0098208301 -0.049104095 0.68820959
-0.010155102 -0.052044868 0.6932534
-0.010757944 0.018442214 0.72553885
-0.0094481194 0.01484707 0.70295179
-0.009381975 0.013402849 0.70181108
-0.0093183191 0.011980712 0.70071346
-0.0092625003 0.010585725 0.6997509
-0.0092799934 0.0092799962 0.70005256
-0.0094074123 0.0080634952 0.70224977
-0.0095383395 0.0068131089 0.70450747
-0.0091255112 0.005214572 0.69738853
-0.0091421809 0.0039181113 0.697676
-0.0091642262 0.0026184022 0.6980561
-0.0092948172 0.0013278723 0.70030808
-0.0094465045 -0 0.70292395
-0.0095193377 -0.0013599098 0.70417988
-0.0095052384 -0.0027157962 0.70393676
-0.0087437294 -0.0037472844 0.69080496
-0.008704178 -0.004973799 0.6901229
-0.0086689368 -0.0061920583 0.68951517
-0.0086340094 -0.0074005723 0.68891293
-0.008599394 -0.0085994005 0.68831599
-0.0085701542 -0.0097944438 0.68781179
-0.0086814063 -0.011161804 0.68973029
-0.0088433921 -0.012633413 0.6925236
-0.0090084681 -0.014156133 0.6953702
-0.0090722088 -0.015552342 0.69646943
-0.0090652779 -0.016835511 0.69634992
-0.0090425955 -0.018085182 0.69595873
-0.009018857 -0.019326121 0.69554937
-0.0089952424 -0.020560533 0.69514215
-0.0089716185 -0.02178818 0.69473475
-0.0089408169 -0.022990644 0.69420362
-0.0086456416 -0.023466706 0.6891135
-0.0085418327 -0.024405211 0.68732333
-0.0082390923 -0.024717301 0.6821028
-0.0082178526 -0.025827557 0.68173659
-0.0081997057 -0.026941895 0.68142366
-0.008182493 -0.028054237 0.68112683
-0.0081655988 -0.029162854 0.68083549
-0.0081522707 -0.030279845 0.68060559
-0.0081409197 -0.031400681 0.68040991
-0.0081290035 -0.032516003 0.68020439
-0.0081312861 -0.033686757 0.68024379
-0.0081642289 -0.034989536 0.68081188
-0.0083058849 -0.036783189 0.6832546
-0.008405311 -0.038424253 0.68496919
-0.0084557459 -0.039862782 0.68583894
-0.0084769353 -0.041173667 0.68620425
-0.008503994 -0.042519927 0.6866709
-0.0085243797 -0.043839663 0.68702245
-0.0085512931 -0.045199692 0.68748653
-0.0085883411 -0.046622425 0.68812543
-0.0086426614 -0.04815194 0.68906212
-0.008755249 -0.050029993 0.69100362
-0.009311121 0.021725953 0.72735012
-0.0081878239 0.017740309 0.70475107
-0.0081209121 0.016241819 0.7034049
-0.008065274 0.014786392 0.70228553
-0.0080128862 0.013354808 0.7012316
-0.0080034742 0.01200521 0.70104218
-0.0081127277 0.010817021 0.70324016
-0.008226335 0.0095973909 0.70552588
-0.0083431704 0.00834319 0.70787638
-0.0083842054 0.0069868565 0.70870197
-0.0083777029 0.005585134 0.70857114
-0.0079002054 0.003950119 0.6989646
-0.0078780847 0.0026260614 0.69851959
-0.007899398 0.0013165474 0.69894838
-0.0080242977 -0 0.7014612
-0.0075628101 -0.0012604296 0.6921767
-0.0075265518 -0.0025088489 0.69144732
-0.0074958103 -0.0037478805 0.6908288
-0.0074652922 -0.0049768388 0.69021481
-0.0074350215 -0.0061958134 0.68960583
-0.0074071004 -0.007407099 0.68904412
-0.007384066 -0.0086147487 0.68858063
-0.0073723681 -0.0098298192 0.68834537
-0.007493116 -0.011239648 0.69077456
-0.0076358258 -0.012726367 0.69364572
-0.007768848 -0.014242858 0.6963219
-0.0078049414 -0.01560986 0.69704807
-0.0077958358 -0.016890973 0.6968649
-0.0077765561 -0.018145293 0.696477
-0.0077559869 -0.019389987 0.69606316
-0.0077299327 -0.020613134 0.69553906
-0.007694812 -0.021801949 0.69483244
-0.0076495544 -0.022948653 0.69392192
-0.007120254 -0.022547454 0.6832732
-0.0071024252 -0.023674726 0.68291456
-0.0070868046 -0.024803787 0.6826002
-0.0070718047 -0.025929928 0.68229842
-0.0070570349 -0.027051955 0.68200135
-0.0070486125 -0.028194427 0.6818319
-0.0072083641 -0.03003484 0.68504584
-0.0073187952 -0.031714737 0.68726754
-0.0073159961 -0.032922 0.68721122
-0.0073114033 -0.034119874 0.68711883
-0.007306125 -0.035312921 0.68701267
-0.0071620075 -0.035809994 0.6841132
-0.0071766274 -0.037079245 0.68440735
-0.0072071431 -0.038438052 0.68502128
-0.0072910246 -0.040100604 0.68670887
-0.0073324633 -0.041550636 0.68754256
-0.0073702312 -0.042992979 0.68830234
-0.0074131051 -0.044478595 0.68916494
-0.0074595492 -0.04600051 0.6900993
-0.0075443098 -0.047780633 0.69180453
-0.0078447545 0.025103241 0.72941387
-0.0077951606 0.023385525 0.72821659
-0.0077595096 0.021726668 0.7273559
-0.0067873346 0.017647088 0.7038855
-0.0067417435 0.016180217 0.70278484
-0.0067045912 0.014750093 0.70188791
-0.0067665037 0.013533056 0.70338255
-0.0068612085 0.012350172 0.70566905
-0.0069585741 0.01113373 0.70801961
-0.0070377826 0.009852916 0.70993185
-0.0070437174 0.0084524155 0.7100752
-0.0070272782 0.0070272684 0.70967823
-0.0070005199 0.0056004524 0.7090323
-0.0066031218 0.0039618909 0.69943821
-0.0065609552 0.0026244223 0.69842023
-0.0063615567 0.0012723207 0.69360638
-0.0063279597 2.9802322e-08 0.69279522
-0.0063018617 -0.0012603402 0.69216514
-0.0062759556 -0.0025103688 0.69153976
-0.0062502613 -0.0037501752 0.6909194
-0.0062474743 -0.0049979687 0.69085211
-0.0063571571 -0.0063571036 0.6935001
-0.0061931349 -0.0074317455 0.68954027
-0.0061856378 -0.0086598992 0.68935925
-0.0061901999 -0.0099042952 0.6894694
-0.006241011 -0.011233807 0.69069606
-0.0063234917 -0.012646943 0.69268739
-0.0064467974 -0.014182925 0.69566417
-0.0065068221 -0.015616357 0.69711328
-0.006516071 -0.016941786 0.69733661
-0.0064970157 -0.018191606 0.69687659
-0.0064668106 -0.019400418 0.69614732
-0.0064281924 -0.020570189 0.69521505
-0.0059829121 -0.020341873 0.68446499
-0.0059682988 -0.021485895 0.68411225
-0.0059552467 -0.022629917 0.68379712
-0.0059425156 -0.023770034 0.68348974
-0.0059299804 -0.02490592 0.68318713
-0.0059267236 -0.026077598 0.68310851
-0.0060751098 -0.027945518 0.68669093
-0.0061510573 -0.029525042 0.68852437
-0.0061483798 -0.03074187 0.68845975
-0.0061445744 -0.031951785 0.6883679
-0.0061437273 -0.033176094 0.68834746
-0.0061436836 -0.034404606 0.68834645
-0.006143901 -0.035634607 0.68835163
-0.0061389296 -0.036833555 0.68823165
-0.0060326252 -0.037402272 0.68566525
-0.0060395035 -0.038652778 0.68583119
-0.0060809786 -0.04013443 0.68683255
-0.0061693834 -0.041951805 0.68896681
-0.0062236618 -0.043565631 0.69027722
-0.0062932558 -0.045311421 0.69195735
-0.0062960736 0.026758313 0.73002559
-0.0062670032 0.025068015 0.72914827
-0.0058381287 0.021893024 0.71620589
-0.005778708 0.020225465 0.71441269
-0.0054123178 0.017590046 0.70335591
-0.0053817416 0.016145229 0.70243317
-0.0053718821 0.014772683 0.70213562
-0.0054435632 0.013608932 0.70429879
-0.0055196588 0.012419254 0.70659524
-0.0055979351 0.011195868 0.70895743
-0.0056487154 0.0098852515 0.71048981
-0.0056512416 0.0084768832 0.71056604
-0.0056227329 0.0070284009 0.70970571
-0.005588504 0.0055885315 0.70867276
-0.0051389602 0.0038542151 0.69510663
-0.0051078363 0.00255391 0.69416738
-0.0050865449 0.0012716353 0.69352484
-0.0050654486 2.9802322e-08 0.69288814
-0.0050445269 -0.0012611151 0.69225681
-0.0050386018 -0.0025192797 0.69207799
-0.0051255235 -0.003844142 0.69470108
-0.0052178474 -0.0052178204 0.69748718
-0.0053080991 -0.0066350996 0.70021081
-0.0053226738 -0.0079839826 0.70065069
-0.0053169932 -0.0093047023 0.70047915
-0.0050435932 -0.010087192 0.69222862
-0.0050382912 -0.011336118 0.69206864
-0.0050295037 -0.012573779 0.69180346
-0.0051071979 -0.014044791 0.69414806
-0.0051923892 -0.015577108 0.69671899
-0.0052065887 -0.016921371 0.69714743
-0.0048570479 -0.016999662 0.68659914
-0.0048267036 -0.018100142 0.68568349
-0.0048149987 -0.019259989 0.68533021
-0.0048045125 -0.02041918 0.68501377
-0.0047941715 -0.021573722 0.68470168
-0.0047839242 -0.022723615 0.68439245
-0.0047914777 -0.023957372 0.68462038
-0.0049158684 -0.025808305 0.68837422
-0.0049632126 -0.027297646 0.68980289
-0.0049606794 -0.028523892 0.68972647
-0.0049577598 -0.029746562 0.68963838
-0.004957017 -0.030981362 0.68961602
-0.0049569993 -0.032220483 0.68961549
-0.0049581314 -0.033467382 0.68964964
-0.0049624862 -0.034737378 0.68978101
-0.0049673812 -0.036013484 0.68992877
-0.0049768258 -0.037326187 0.6902138
-0.0048879995 -0.037881941 0.68753314
-0.0048856628 -0.039085299 0.68746269
-0.0049018078 -0.040439904 0.6879499
-0.0049540666 -0.042109549 0.68952698
-0.0050515118 -0.044200718 0.69246763
-0.0052613211 -0.047351867 0.69879919
-0.0047678864 0.030196667 0.7318697
-0.0047456594 0.028473973 0.73097539
-0.0047236383 0.026767284 0.73008931
-0.0043801237 0.023360699 0.71626729
-0.0043387758 0.021693885 0.7146036
-0.0043024407 0.020078063 0.71314156
-0.0042671282 0.018490911 0.71172071
-0.0040490371 0.016196162 0.70294547
-0.0040476695 0.014841467 0.7028904
-0.0040667448 0.013555855 0.70365793
-0.0041189697 0.012356907 0.70575929
-0.0041767671 0.011138022 0.70808494
-0.0042225155 0.0098525584 0.70992565
-0.0042259735 0.0084519982 0.71006477
-0.0042056842 0.0070095062 0.70924842
-0.0038655398 0.0051540434 0.69556206
-0.0038493099 0.0038493574 0.69490898
-0.0038332015 0.0025554895 0.69426084
-0.0038172279 0.00127244 0.69361812
-0.0038098476 2.9802322e-08 0.69332117
-0.0038721447 -0.0012907088 0.69582784
-0.0039406805 -0.0026271045 0.69858545
-0.0040110839 -0.0040110946 0.70141828
-0.0040272931 -0.005369693 0.70207047
-0.0040232209 -0.0067053735 0.70190668
-0.0040129982 -0.0080260038 0.70149529
-0.0040021515 -0.0093383193 0.70105892
-0.0039909203 -0.010642439 0.700607
-0.0037881385 -0.0113644 0.69244766
-0.0037698767 -0.012566239 0.69171292
-0.0037641863 -0.013802022 0.69148391
-0.003671733 -0.014686912 0.68776387
-0.0036508236 -0.015820205 0.68692255
-0.0036420606 -0.016996264 0.68656993
-0.0036341373 -0.018170655 0.68625116
-0.0036262488 -0.019339979 0.68593377
-0.0036184194 -0.020504355 0.68561864
-0.0036342514 -0.021805495 0.68625581
-0.0037296945 -0.02362138 0.69009608
-0.0038303002 -0.025535345 0.69414419
-0.003936484 -0.027555346 0.69841659
-0.0037578493 -0.027557552 0.69122893
-0.00374986 -0.0287489 0.69090742
-0.00374986 -0.029998839 0.69090748
-0.0037514255 -0.031261861 0.69097048
-0.0037543708 -0.032537848 0.69108897
-0.0037587842 -0.033829033 0.69126654
-0.0037661991 -0.035151184 0.69156492
-0.0037752423 -0.036493987 0.6919288
-0.0037895294 -0.037895292 0.69250363
-0.0038100705 -0.039370716 0.69333011
-0.0038329198 -0.040884465 0.69424957
-0.0037500893 -0.041250974 0.69091666
-0.0038010539 -0.043078572 0.69296736
-0.0038184302 -0.044548333 0.69366658
-0.0038743468 -0.046492159 0.69591647
-0.0032098775 0.033703744 0.73375803
-0.0031946348 0.031946361 0.73283803
-0.0031796817 0.030206978 0.73193556
-0.0029514716 0.026563257 0.71816182
-0.0029230916 0.024846315 0.71644896
-0.0028978842 0.023183107 0.71492755
-0.0028948786 0.021711588 0.71474612
-0.0029370394 0.020559251 0.71729082
-0.0028316423 0.018405706 0.71092951
-0.0028153071 0.016891867 0.70994365
-0.0027285353 0.015006989 0.70470643
-0.0027225814 0.013612926 0.70434707
-0.0027269723 0.012271404 0.70461214
-0.0027643086 0.011057258 0.70686549
-0.0027985955 0.0097950995 0.7089349
-0.002600508 0.0078015029 0.69697928
-0.0025895003 0.0064737797 0.69631493
-0.0025786234 0.0051572621 0.69565845
-0.0025677807 0.0038516521 0.69500405
-0.0025575084 0.0025575459 0.69438404
-0.0025488879 0.0012744665 0.69386375
-0.0025756033 2.9802322e-08 0.69547611
-0.0026181038 -0.0013090372 0.69804126
-0.0026619793 -0.0026619732 0.70068944
-0.0026939898 -0.0040409565 0.7026214
-0.0026983516 -0.0053966939 0.70288467
-0.0026916629 -0.006729126 0.70248103
-0.0026846132 -0.0080538392 0.70205545
-0.00267727 -0.0093704164 0.70161223
-0.0026676096 -0.010670453 0.70102924
-0.0025184427 -0.011332989 0.69202626
-0.0024677359 -0.012338668 0.6889658
-0.0024547651 -0.013501197 0.68818295
-0.0024489865 -0.014693886 0.68783414
-0.002443613 -0.015883476 0.68750989
-0.002438263 -0.01706782 0.68718696
-0.0024329366 -0.018247038 0.68686551
-0.0024505581 -0.019604445 0.68792903
-0.0025156713 -0.021383226 0.69185901
-0.0025843482 -0.023259133 0.69600397
-0.0026568805 -0.025240391 0.7003817
-0.0026775587 -0.026775569 0.70162976
-0.0026774351 -0.028113037 0.70162225
-0.0026732637 -0.029405892 0.70137042
-0.0025266926 -0.029056937 0.69252414
-0.0025249666 -0.030299604 0.69242001
-0.0025286693 -0.031608343 0.69264346
-0.0025336014 -0.032936811 0.69294113
-0.0025402324 -0.034293115 0.69334131
-0.002550656 -0.035709172 0.6939705
-0.0025658845 -0.037205309 0.69488955
-0.002589481 -0.038842171 0.69631374
-0.00258923 -0.040133029 0.69629866
-0.0025798774 -0.041278005 0.69573414
-0.0025651173 -0.042324424 0.69484323
-0.0025580828 -0.04348737 0.69441873
-0.0025536271 -0.044688493 0.69414979
-0.0025577815 -0.046040058 0.69440055
-0.001572793 0.036174238 0.72987759
-0.0015899354 0.034978569 0.73194695
-0.0016031172 0.033665478 0.73353809
-0.0014917714 0.029835433 0.72009754
-0.0014772729 0.028068215 0.71834737
-0.0014634356 0.026341856 0.71667707
-0.0014588459 0.02480042 0.71612298
-0.0014780395 0.023648649 0.71843994
-0.0014852291 0.022278428 0.71930778
-0.0014205385 0.019887567 0.71149898
-0.0014111751 0.018345296 0.71036863
-0.0014147777 0.01697737 0.71080351
-0.0014342237 0.015776455 0.71315086
-0.0013625131 0.013625145 0.7044946
-0.0013544719 0.012190253 0.70352399
-0.0013122604 0.010498106 0.69842863
-0.001306576 0.0091460347 0.69774246
-0.0013010476 0.0078063011 0.69707513
-0.001295566 0.0064778328 0.6964134
-0.0012915449 0.005166173 0.69592804
-0.0012858858 0.0038576722 0.69524491
-0.0012826201 0.0025652647 0.69485074
-0.0012809086 0.001280874 0.69464409
-0.001286681 -0 0.69534093
-0.001306291 -0.0013062656 0.69770801
-0.001327263 -0.0026544929 0.70023954
-0.0013458157 -0.0040374398 0.70247912
-0.0013513849 -0.0054055452 0.70315135
-0.0013506495 -0.0067532063 0.70306253
-0.0013456802 -0.008074075 0.70246279
-0.0013390116 -0.0093730688 0.70165777
-0.0012441842 -0.0099534392 0.69021106
-0.0012380048 -0.011142015 0.68946517
-0.0012351531 -0.012351543 0.68912089
-0.001232415 -0.01355654 0.68879044
-0.0012296934 -0.014756322 0.6884619
-0.0012269838 -0.015950799 0.68813479
-0.0012394576 -0.017352402 0.68964046
-0.0012727868 -0.019091785 0.69366372
-0.0013079579 -0.02092734 0.6979093
-0.0013445399 -0.022857159 0.70232505
-0.0013507598 -0.024313658 0.70307583
-0.0013504028 -0.025657624 0.70303285
-0.0013479564 -0.026959091 0.70273745
-0.0013442538 -0.028229326 0.70229053
-0.0013396362 -0.029471964 0.70173311
-0.0013347168 -0.030698448 0.70113927
-0.0012814944 -0.030755848 0.69471478
-0.0012823124 -0.032057822 0.69481361
-0.0012877157 -0.033480614 0.6954658
-0.0012962716 -0.034999311 0.69649851
-0.0013068068 -0.036590606 0.6977703
-0.0013054076 -0.037856817 0.69760144
-0.0013012815 -0.03903845 0.69710338
-0.0012966441 -0.040195942 0.69654357
-0.0012920348 -0.04134509 0.69598716
-0.0012873485 -0.042482466 0.69542146
-0.0012828711 -0.043617576 0.69488096
-0.0012784014 -0.044744045 0.69434142
-0.0012761946 -0.045942992 0.69407511
0 0.039588302 0.73117375
0 0.037195653 0.72710443
0 0.035941929 0.72865844
0 0.033179939 0.72207808
0 0.031360209 0.72028708
0 0.029576302 0.71853328
0 0.027963102 0.71767974
0 0.026778311 0.71960402
0 0.025483221 0.72097147
0 0.023922086 0.72050267
0 0.022281408 0.7193315
0 0.019827992 0.71098518
0 0.01834023 0.71032166
0 0.017136693 0.71240664
0 0.015836954 0.71381438
0 0.013246089 0.69991893
0 0.011867702 0.69919741
0 0.010503948 0.69851661
0 0.0091519654 0.69784445
0 0.0078224242 0.69739985
0 0.0066138506 0.69969672
0 0.005389452 0.70266682
0 0.0041187406 0.70575011
0 0.0027580559 0.70648479
0 0.0013024211 0.69723874
0 2.9802322e-08 0.69765705
0 -0.0013044775 0.69749081
0 -0.002633214 0.69895256
0 -0.0040137172 0.70152402
0 -0.0054009557 0.70301318
0 -0.0067504644 0.70299608
0 -0.0075280964 0.69147843
0 -0.0087420344 0.69077569
0 -0.009967953 0.69042969
0 -0.011188895 0.69009393
0 -0.012404412 0.68975914
0 -0.013614416 0.68942517
0 -0.014826059 0.68916333
0 -0.016349018 0.69183254
0 -0.01799345 0.69516796
0 -0.019708574 0.69862741
0 -0.021490335 0.7021569
0 -0.023083746 0.70393413
0 -0.024465144 0.70409185
0 -0.025753796 0.70364392
0 -0.027013928 0.70306832
0 -0.028259605 0.70246458
0 -0.029496223 0.70186603
0 -0.030723602 0.70127124
0 -0.031942129 0.70068145
0 -0.033132076 0.70000064
0 -0.034288645 0.69921738
0 -0.035537273 0.6989038
0 -0.036728173 0.69836342
0 -0.03790307 0.69779408
0 -0.039069563 0.69722873
0 -0.040227771 0.69666749
0 -0.041377723 0.69611019
0 -0.042519659 0.69555748
0 -0.043653369 0.69500804
0 -0.044782937 0.69447559
0.001614214 0.043583781 0.73487759
0.0015685402 0.040782034 0.72936434
0.0015441227 0.038603038 0.72641689
0.0015250718 0.036601782 0.72411716
0.001509686 0.034722775 0.72226
0.0014947619 0.032884777 0.72045845
0.0014823083 0.031128466 0.71895522
0.0014916945 0.029833943 0.72008824
0.0015086045 0.028663486 0.7221294
0.0015098762 0.027177781 0.72228295
0.0015008762 0.025514901 0.72119653
0.0014889268 0.023822874 0.7197541
0.0014216196 0.021324307 0.71162939
0.0014135173 0.019789279 0.7106514
0.0014215033 0.018479586 0.71161544
0.0014390051 0.017268062 0.71372807
0.0013309438 0.014640391 0.70068383
0.0013251572 0.013251603 0.69998538
0.0013195361 0.011875838 0.69930691
0.0013154947 0.010523945 0.69881898
0.0013335334 0.009334743 0.70099652
0.0013582044 0.0081492364 0.7039746
0.0013822862 0.0069114566 0.70688146
0.0013916368 0.0055665374 0.7080102
0.0013905285 0.0041716099 0.70787638
0.0013869152 0.0027738512 0.70744026
0.0013830509 0.0013830662 0.70697379
0.0013126272 2.9802322e-08 0.69847286
0.0013075691 -0.0013075769 0.69786233
0.0013042219 -0.0026084185 0.69745827
0.0013188249 -0.0039564371 0.69922101
0.0012654582 -0.0050618351 0.69277906
0.0012599108 -0.0062995553 0.69210947
0.0012570302 -0.0075421631 0.69176173
0.001254199 -0.0087793767 0.69141996
0.0012513578 -0.010010839 0.69107699
0.0012485655 -0.011237085 0.69073999
0.0012462771 -0.012462735 0.69046372
0.0012449019 -0.013693899 0.69029772
0.0012450357 -0.014940411 0.69031388
0.0012624788 -0.016412228 0.69241947
0.0012879114 -0.018030733 0.69548941
0.0013139476 -0.01970917 0.69863224
0.0013409649 -0.021455437 0.70189357
0.0013570375 -0.02306962 0.70383364
0.001359565 -0.024472147 0.70413876
0.0013568572 -0.025780231 0.70381188
0.001351816 -0.027036279 0.70320338
0.0013468069 -0.02828294 0.70259875
0.00134184 -0.029520482 0.70199919
0.0013369044 -0.030748814 0.70140338
0.001332005 -0.031968117 0.70081198
0.0013271514 -0.033178777 0.70022607
0.0013223231 -0.034380376 0.69964325
0.0013175297 -0.035573304 0.69906467
0.001312771 -0.036757559 0.69849026
0.0013080515 -0.037933469 0.6979205
0.0013033609 -0.039100826 0.69735432
0.0012987037 -0.040259808 0.69679219
0.0012940798 -0.041410506 0.69623405
0.0012900633 -0.042572081 0.69574916
0.0031794927 0.044512928 0.73192418
0.0031255109 0.042194366 0.72866601
0.0030849278 0.040104091 0.72621655
0.0030524211 0.038155288 0.72425473
0.0030219322 0.036263227 0.72241449
0.0029942896 0.034434348 0.7207461
0.002969811 0.032667935 0.71926868
0.0029614833 0.031095594 0.71876609
0.0029898454 0.029898465 0.72047788
0.0030168945 0.028660506 0.72211045
0.0030077156 0.027069449 0.72155643
0.0029854269 0.025376141 0.72021121
0.0029631881 0.023705512 0.71886891
0.0028389299 0.021291971 0.71136934
0.002824174 0.019769251 0.71047872
0.0028330276 0.018414676 0.71101314
0.0027969398 0.016781628 0.70883501
0.0026637444 0.014650583 0.70079601
0.0026527022 0.013263553 0.70012945
0.0026431375 0.011894137 0.69955218
0.0026720406 0.010688186 0.70129669
0.0027118297 0.0094914436 0.70369816
0.0027525602 0.0082576871 0.70615649
0.0027883546 0.0069708526 0.70831686
0.0027967147 0.0055934489 0.70882142
0.0027913339 0.0041870475 0.70849669
0.0027839313 0.0027839243 0.70804989
0.0027757473 0.0013878942 0.70755589
0.0027655405 -0 0.70693994
0.002606184 -0.0013030469 0.69732189
0.0025529612 -0.0025529265 0.69410956
0.0025423141 -0.0038134456 0.69346696
0.0025365236 -0.0050729811 0.6931175
0.0025307136 -0.0063267648 0.69276685
0.0025249207 -0.0075747371 0.6924172
0.0025197121 -0.0088190138 0.69210279
0.0025680843 -0.010272324 0.69502234
0.0026396937 -0.01187858 0.69934434
0.0027154004 -0.013576984 0.70391369
0.0025192096 -0.013855666 0.69207251
0.0025502162 -0.015301287 0.69394392
0.0025624405 -0.016655833 0.6946817
0.0025668133 -0.017967671 0.69494569
0.0026025241 -0.019518912 0.697101
0.0026547692 -0.021238148 0.70025426
0.002703832 -0.022982568 0.70321548
0.0027158994 -0.02444309 0.70394379
0.0027148915 -0.025791436 0.70388293
0.0027058744 -0.02705875 0.70333874
0.0026958394 -0.028306305 0.7027331
0.0026858891 -0.029544771 0.70213252
0.0026760122 -0.030774117 0.70153636
0.0026661973 -0.031994373 0.70094407
0.002656464 -0.033205807 0.70035654
0.0026467917 -0.034408271 0.69977278
0.0026371893 -0.035602063 0.69919324
0.0026276566 -0.036787212 0.69861788
0.0026182025 -0.037963927 0.69804722
0.0026088061 -0.039132059 0.69748008
0.0026031383 -0.040348619 0.69713807
0.0048360592 0.048360616 0.73461276
0.0047460264 0.045878261 0.73099017
0.0046814238 0.043693274 0.72839069
0.0046293237 0.041663885 0.7262944
0.0045825569 0.039715499 0.72441262
0.004539452 0.037828803 0.72267818
0.0045014424 0.036011547 0.72114879
0.0044665695 0.034243703 0.7197457
0.0044341749 0.032517314 0.7184422
0.0044045532 0.030831873 0.71725035
0.0044000726 0.02933383 0.71707004
0.0044207857 0.027998328 0.71790344
0.0044416757 0.026650071 0.71874398
0.0044494681 0.025213689 0.71905756
0.0042775115 0.022813439 0.71213853
0.0042555612 0.021277815 0.71125531
0.0042351247 0.019763947 0.71043301
0.0042158044 0.018268496 0.70965564
0.0041972846 0.016789168 0.70891041
0.0041798651 0.015326202 0.70820951
0.003990401 0.013301373 0.70058608
0.0039840867 0.011952281 0.70033205
0.0040069977 0.010685325 0.70125389
0.0040613106 0.0094763935 0.7034393
0.004117473 0.0082350075 0.70569909
0.0041737566 0.0069562495 0.70796376
0.0041988571 0.0055984855 0.70897371
0.0042022765 0.0042022765 0.70911127
0.0041870177 0.0027914047 0.70849735
0.0041649351 0.0013883412 0.70760876
0.0038631044 2.9802322e-08 0.69546407
0.0038479457 -0.0012826025 0.69485414
0.0038390178 -0.0025593042 0.69449484
0.0038301311 -0.0038301051 0.69413733
0.0038212999 -0.0050950348 0.69378203
0.0038142668 -0.0063571334 0.69349897
0.0038988655 -0.007797718 0.69690299
0.0040089241 -0.0093541145 0.70133138
0.0041253762 -0.011000991 0.70601708
0.0041974369 -0.012592286 0.7089166
0.0042007351 -0.014002442 0.70904928
0.0041952915 -0.015382707 0.70883024
0.0041849329 -0.016739696 0.70841348
0.0038844096 -0.016832411 0.69632137
0.0038852203 -0.018131018 0.69635391
0.0038897435 -0.019448698 0.696536
0.0039422303 -0.021025181 0.69864786
0.0040221806 -0.022792369 0.70186484
0.0040650638 -0.02439037 0.70359027
0.0040709535 -0.025782704 0.70382726
0.0040621967 -0.027081281 0.70347488
0.0040471191 -0.028329819 0.70286822
0.004032169 -0.029569209 0.70226675
0.0040173135 -0.030799389 0.70166898
0.0040025664 -0.032020539 0.70107561
0.0039879433 -0.033232838 0.70048726
0.0039734109 -0.034436196 0.69990242
0.0039589843 -0.035630822 0.69932199
0.0039448561 -0.036818653 0.69875348
0.0065475916 0.052380741 0.73761582
0.006409246 0.04967171 0.73344082
0.0063158721 0.047369033 0.73062307
0.0062415055 0.045250952 0.72837883
0.0061777811 0.043244511 0.72645575
0.0061180908 0.041297108 0.72465444
0.0060657044 0.039427102 0.7230736
0.0060177492 0.037610948 0.7216264
0.0059734969 0.035840988 0.72029096
0.005933967 0.034120321 0.71909803
0.0058942316 0.032418311 0.71789891
0.0058574183 0.030751467 0.71678793
0.0058220373 0.029110223 0.71572024
0.00578995 0.027502269 0.71475196
0.0057599088 0.025919616 0.71384537
0.0057332269 0.02436623 0.71304017
0.0057010558 0.02280423 0.71206939
0.0056748232 0.021280587 0.71127772
0.0056496109 0.019773662 0.71051687
0.0056254179 0.018282592 0.70978677
0.0056356369 0.016906917 0.71009517
0.0057104486 0.015703768 0.71235275
0.0057423464 0.014355868 0.71331537
0.0053974786 0.012144327 0.7029081
0.0054167896 0.010833591 0.70349085
0.0054103374 0.0094681084 0.70329612
0.0054519335 0.0081779063 0.70455146
0.0055278474 0.0069098473 0.7068423
0.0055899424 0.005589962 0.70871621
0.0055978447 0.0041984022 0.70895463
0.005197593 0.0025987923 0.69687599
0.00517711 0.0012943149 0.69625783
0.0051651429 5.9604645e-08 0.69589674
0.0051530786 -0.0012882352 0.69553268
0.0051410892 -0.0025705397 0.69517088
0.0051296856 -0.0038472414 0.69482672
0.0051840036 -0.0051839948 0.69646591
0.005286355 -0.0066079497 0.69955468
0.0053895046 -0.0080842376 0.70266747
0.0054922202 -0.0096113682 0.70576715
0.0055950731 -0.011190116 0.70887101
0.0056290179 -0.012665272 0.70989537
0.0056279693 -0.014069885 0.70986372
0.005608914 -0.01542452 0.70928872
0.005587358 -0.016762048 0.70863819
0.0055659898 -0.018089443 0.70799339
0.0052420925 -0.018347293 0.69821882
0.0052548763 -0.019705743 0.6986047
0.0052743587 -0.021097451 0.69919264
0.0053233672 -0.022624284 0.70067155
0.0054098531 -0.024344325 0.70328152
0.0054292735 -0.025789022 0.70386755
0.0054207612 -0.027103782 0.70361072
0.0054006455 -0.028353393 0.70300364
0.005380658 -0.029593587 0.70240051
0.0053608185 -0.030824721 0.70180178
0.0053411443 -0.032046825 0.70120806
0.005321594 -0.033259958 0.70061803
0.0053040273 -0.034476161 0.70008796
0.0083303973 0.056646705 0.7411384
0.0081168478 0.053571194 0.73598278
0.0079902243 0.051137418 0.73292583
0.0078916484 0.048928231 0.730546
0.0078087198 0.04685232 0.72854394
0.0077313674 0.044841945 0.72667646
0.0076636369 0.042916358 0.72504133
0.0076018036 0.041049719 0.72354859
0.0075447913 0.039232969 0.72217214
0.0074910172 0.037455112 0.72087383
0.0074548558 0.035783291 0.72000092
0.0075354325 0.034662992 0.72194624
0.00760643 0.033468306 0.72366023
0.0075846133 0.031855375 0.7231335
0.0072687473 0.029075027 0.71550786
0.0072311116 0.027478248 0.71459925
0.0071954732 0.025903732 0.7137388
0.0071619251 0.024350584 0.71292889
0.0071296832 0.022815019 0.71215051
0.0070988326 0.021296531 0.71140569
0.0070697721 0.019795358 0.71070409
0.0070422045 0.018309772 0.71003866
0.0070498055 0.016919553 0.71022213
0.0071101049 0.015642226 0.71167791
0.0071473112 0.014294654 0.71257609
0.007148311 0.012866974 0.71260023
0.0068082139 0.010893136 0.70438957
0.006779389 0.0094911754 0.70369363
0.0067603164 0.0081124008 0.70323324
0.0068229996 0.0068230033 0.70474654
0.0065566218 0.0052453279 0.69831556
0.0065306448 0.0039184093 0.69768846
0.0065152403 0.0026060939 0.69731659
0.0065001026 0.0013000369 0.69695115
0.0064849146 2.9802322e-08 0.6965844
0.006470616 -0.0012941062 0.69623923
0.0064602699 -0.0025840998 0.69598949
0.0064562848 -0.0038737655 0.69589323
0.0065178801 -0.0052142739 0.6973803
0.0066285925 -0.0066285729 0.7000531
0.0067401477 -0.0080881417 0.70274633
0.0068534138 -0.0095947385 0.70548081
0.0069689574 -0.01115033 0.70827031
0.0070277047 -0.012649834 0.70968854
0.0070356168 -0.014071256 0.70987958
0.0070171738 -0.015437782 0.70943433
0.0069902116 -0.016776502 0.70878339
0.0069634267 -0.018104911 0.70813668
0.0069368747 -0.019423217 0.70749569
0.0069068423 -0.020720541 0.70677066
0.0068374733 -0.021879882 0.70509595
0.0068206158 -0.023190081 0.70468897
0.0068151574 -0.024534553 0.70455724
0.0068030953 -0.025851756 0.70426607
0.0067816121 -0.027126431 0.70374733
0.0067563993 -0.028376877 0.70313865
0.0067313733 -0.029618025 0.7025345
0.0067065582 -0.030850142 0.70193541
0.0066894889 -0.032109499 0.7015233
0.0098704435 0.05757758 0.73860276
0.0097078783 0.055011302 0.73533225
0.0095806895 0.052693814 0.73277336
0.0094766496 0.050542146 0.73068023
0.0093811322 0.048469216 0.72875851
0.0092966305 0.046483189 0.72705853
0.0092200348 0.044563502 0.72551757
0.0091491863 0.042696208 0.72409219
0.0090828594 0.040872902 0.72275776
0.0090213893 0.039092749 0.72152108
0.0089636734 0.037348658 0.72035998
0.0089570498 0.035828203 0.72022671
0.0090593752 0.034727603 0.72228533
0.0091237612 0.033453792 0.72358072
0.0090804854 0.031781673 0.72271001
0.0087191407 0.029063851 0.71544033
0.0086779483 0.027480185 0.71461159
0.0086383605 0.025915086 0.71381515
0.0086006215 0.024368435 0.71305597
0.0085652508 0.022840679 0.71234429
0.0085324747 0.021331191 0.71168494
0.0085010929 0.019835889 0.71105349
0.0084699402 0.018351555 0.71042675
0.0084402449 0.016880512 0.70982939
0.0084130997 0.015424073 0.70928323
0.0083902786 0.013983846 0.70882416
0.0083729587 0.012559444 0.70847571
0.0083684213 0.0111579 0.70838439
0.0081077423 0.0094590485 0.70313996
0.0079408586 0.0079408884 0.69978249
0.0079092868 0.0065910816 0.69914734
0.0078900997 0.0052600801 0.69876128
0.0078715999 0.0039357841 0.69838911
0.0078531867 0.0026177466 0.69801867
0.0078681838 0.0013113916 0.69832039
0.0080923531 -0 0.70283031
0.0083296699 -0.0013882518 0.70760477
0.0078287991 -0.0026096106 0.697528
0.007883328 -0.0039416552 0.69862509
0.0079660118 -0.0053106546 0.70028853
0.0079848366 -0.0066540241 0.70066726
0.0080244523 -0.0080244243 0.70146424
0.0081558889 -0.0095151961 0.7041086
0.0082922326 -0.011056304 0.7068516
0.008406586 -0.012609869 0.70915222
0.0084349522 -0.014058232 0.70972288
0.0084260879 -0.015447825 0.70954454
0.0083954483 -0.016790867 0.70892811
0.0083632516 -0.018120348 0.70828044
0.0083313016 -0.019439697 0.70763761
0.0082996273 -0.020749032 0.70700037
0.0082646525 -0.022039056 0.70629674
0.0082327994 -0.023326278 0.70565593
0.008205032 -0.024615079 0.70509726
0.0081752064 -0.025888115 0.70449722
0.0081447056 -0.027148992 0.70388359
0.008114527 -0.028400779 0.7032764
0.011685529 0.061766416 0.74153453
0.011469794 0.058987528 0.73781431
0.011312479 0.056562424 0.73510152
0.011182765 0.054316282 0.73286462
0.011068569 0.052180439 0.7308954
0.010966118 0.050130814 0.72912866
0.010873415 0.048153698 0.72753012
0.010787813 0.046233505 0.72605389
0.010708404 0.044363409 0.72468454
0.010634755 0.04253906 0.72341454
0.010565324 0.040751964 0.7222172
0.010500146 0.039000541 0.7210933
0.010438501 0.037280351 0.72003019
0.010406167 0.035678297 0.71947265
0.010515035 0.034549385 0.72135007
0.010282028 0.032314956 0.71733201
0.010223811 0.030671418 0.71632802
0.010176544 0.029075861 0.71551299
0.010131652 0.027500212 0.71473885
0.010089082 0.025943369 0.71400476
0.010049397 0.024405688 0.71332043
0.010098253 0.02308175 0.71416295
0.010242151 0.021947473 0.71664435
0.010277726 0.020555466 0.71725786
0.010245861 0.019028068 0.7167083
0.009881557 0.016939819 0.71042609
0.0098499032 0.015478462 0.70988029
0.0098230122 0.0140329 0.70941657
0.0097985966 0.012598217 0.70899546
0.0093509555 0.010686815 0.70127618
0.0093136812 0.0093137026 0.70063341
0.0092904503 0.0079632699 0.70023286
0.0092684655 0.0066203475 0.69985378
0.0092470068 0.0052840114 0.69948363
0.0092933252 0.0039828718 0.70028245
0.0095614363 0.0027318299 0.70490581
0.0098196417 0.0014028251 0.70935839
0.010024092 2.9802322e-08 0.71288401
0.010159541 -0.0014513433 0.7152198
0.010172883 -0.0029065311 0.71544993
0.010150002 -0.0043499768 0.71505523
0.010116776 -0.0057809949 0.71448231
0.009409341 -0.0067209601 0.70228302
0.0094164805 -0.0080712438 0.70240611
0.0094508361 -0.0094508231 0.70299858
0.0095933788 -0.010963827 0.70545667
0.0097550536 -0.012542188 0.70824456
0.0098235682 -0.014033645 0.70942611
0.0098320656 -0.015450358 0.70957267
0.0098030986 -0.016805261 0.70907313
0.0097655104 -0.018135905 0.70842493
0.0097281709 -0.019456327 0.70778102
0.0096911164 -0.020766646 0.70714206
0.0096543422 -0.02206704 0.70650792
0.0096178846 -0.023357689 0.70587921
0.0095817009 -0.024638653 0.70525527
0.0095480746 -0.025916189 0.70467544
0.013087168 0.060528189 0.73749489
0.012930171 0.058185816 0.7351259
0.012794596 0.055976361 0.73308033
0.012673035 0.053860396 0.73124611
0.012563067 0.051822692 0.72958678
0.012461746 0.049847007 0.72805798
0.012369032 0.047930032 0.726659
0.012282136 0.046058029 0.72534788
0.012200253 0.044225931 0.72411239
0.012123842 0.04243347 0.7229594
0.012051726 0.040674627 0.72187126
0.01198351 0.03894642 0.72084194
0.011919024 0.037247002 0.71986896
0.011857859 0.035573602 0.71894604
0.011800373 0.0339261 0.71807861
0.011745079 0.032298982 0.71724427
0.011692809 0.03069362 0.71645564
0.011690252 0.029225647 0.71641701
0.011596034 0.027540624 0.71499544
0.011551509 0.025990933 0.71432352
0.011514711 0.02446878 0.7137683
0.011651346 0.023302734 0.71582997
0.011800573 0.022126108 0.71808165
0.011790013 0.020632535 0.71792233
0.011759936 0.019109905 0.71746844
0.011736401 0.017604649 0.71711338
0.011712912 0.016105294 0.71675897
0.011689465 0.01461184 0.71640521
0.01125325 0.012659937 0.70982313
0.011231924 0.011231899 0.70950145
0.010691739 0.0093552768 0.70135063
0.010667326 0.0080005229 0.70098227
0.010645838 0.0066536963 0.70065796
0.01079697 0.0053985119 0.70293844
0.010980145 0.0041175485 0.70570236
0.011161435 0.0027903914 0.7084378
0.01134094 0.0014176667 0.71114635
0.011521775 2.9802322e-08 0.71387488
0.011631991 -0.0014539659 0.71553791
0.011651151 -0.0029127896 0.71582711
0.011621438 -0.0043580234 0.7153787
0.011574307 -0.0057871342 0.71466756
0.011527508 -0.0072046816 0.71396148
0.010908103 -0.0081810653 0.70461535
0.010947626 -0.0095791221 0.70521164
0.011012334 -0.011012346 0.70618808
0.011154627 -0.012548953 0.70833504
0.011238237 -0.014047801 0.70959663
0.01124674 -0.015464246 0.70972496
0.011213168 -0.016819715 0.70921838
0.011170091 -0.018151402 0.70856839
0.011127434 -0.019472986 0.70792472
0.011085013 -0.020784378 0.70728469
0.011042958 -0.022085905 0.70665008
0.011011767 -0.023400009 0.7061795
0.014720154 0.06215179 0.73745584
0.014560598 0.059860229 0.7353158
0.014418676 0.057674706 0.73341233
0.014290195 0.055572987 0.7316891
0.01417265 0.053541124 0.73011255
0.014065494 0.051573515 0.72867537
0.013964561 0.049651802 0.72732157
0.013869738 0.04777357 0.7260499
0.01378172 0.045939088 0.72486925
0.013698291 0.044138938 0.72375035
0.013619483 0.04237172 0.72269332
0.013545389 0.040636212 0.7216996
0.013474767 0.038927108 0.72075236
0.013408499 0.03724587 0.71986347
0.013344874 0.035586357 0.71901017
0.013284895 0.033950329 0.71820569
0.013268379 0.032433838 0.7179842
0.013540463 0.031594425 0.72163349
0.013566367 0.030147523 0.72198087
0.013078437 0.027610064 0.71543664
0.013028636 0.026057273 0.71476871
0.013047662 0.024645597 0.71502388
0.013234519 0.023528039 0.71753007
0.013356671 0.022261113 0.71916842
0.013333096 0.02074039 0.71885216
0.013307055 0.019221336 0.71850288
0.013280042 0.017706722 0.7181406
0.013236312 0.016177744 0.71755403
0.012827692 0.01425302 0.71207356
0.012734244 0.012734264 0.7108202
0.012716896 0.011303902 0.71058762
0.012096506 0.0094083846 0.70226669
0.012074182 0.0080494583 0.70196724
0.012073995 0.0067077875 0.70196474
0.012176624 0.0054118335 0.70334125
0.012348615 0.0041162372 0.70564806
0.01252097 0.002782464 0.70795977
0.012699028 0.0014110208 0.71034795
0.012882172 -0 0.71280432
0.013045267 -0.0014494359 0.71499181
0.013093661 -0.0029097199 0.71564084
0.013082924 -0.0043609738 0.71549678
0.013033143 -0.0057924986 0.71482909
0.012980398 -0.0072113276 0.71412176
0.012928078 -0.0086187124 0.71341997
0.012873104 -0.010012388 0.7126826
0.012787408 -0.011366576 0.71153325
0.012741922 -0.012741923 0.71092325
0.012714 -0.014126658 0.71054876
0.012674016 -0.015490443 0.71001244
0.012625712 -0.016834259 0.70936459
0.012577219 -0.018167078 0.70871413
0.012529046 -0.019489616 0.70806801
0.016204245 0.061576128 0.73562729
0.016056063 0.059407443 0.73383856
0.015922159 0.05731979 0.73222226
0.015799085 0.055296808 0.73073655
0.015683278 0.053323179 0.72933865
0.015575018 0.051397592 0.72803181
0.015474717 0.049519122 0.72682112
0.015379307 0.047675848 0.7256695
0.015289641 0.045868963 0.72458702
0.015205137 0.04409492 0.72356701
0.015124657 0.04234907 0.72259551
0.015049259 0.040633053 0.72168541
0.014976868 0.038939893 0.72081149
0.014908817 0.037272036 0.71999013
0.014843726 0.035624951 0.71920437
0.014794366 0.03402704 0.71860856
0.014938749 0.032865226 0.72035146
0.01509463 0.031698763 0.722233
0.015121498 0.030243009 0.72255737
0.014572429 0.027687639 0.71592957
0.014525341 0.026145607 0.71536112
0.014636884 0.024882734 0.71670753
0.014847404 0.023755848 0.71924877
0.014927967 0.022391975 0.72022128
0.01490223 0.020863146 0.71991056
0.014850323 0.019305408 0.719284
0.014367739 0.017241299 0.71345878
0.014286629 0.015715301 0.71247965
0.014266334 0.014266372 0.71223462
