# .PCD v0.7 - Point Cloud Data file format
VERSION 0.7
FIELDS x y z
SIZE 4 4 4
TYPE F F F
COUNT 1 1 1
WIDTH 1331
HEIGHT 1
VIEWPOINT 0 0 0 1 0 0 0
POINTS 1331
DATA ascii
-0.010867902 0.029343367 0.67121196
-0.010937036 0.028436273 0.67204648
-0.011007056 0.027517647 0.67289168
-0.011072435 0.026573867 0.67368084
-0.011121627 0.025579751 0.67427468
-0.011128109 0.024481833 0.67435294
-0.011065101 0.023236722 0.67359233
-0.01106084 0.022121668 0.67354089
-0.011111277 0.021111459 0.67414975
-0.011171939 0.020109504 0.67488199
-0.011233266 0.019096583 0.67562228
-0.011295271 0.018072426 0.67637074
-0.011357963 0.017036974 0.67712748
-0.011421355 0.0159899 0.67789274
-0.011485459 0.014931113 0.67866653
-0.011550326 0.013860375 0.67944956
-0.01161589 0.012777478 0.68024093
-0.01168401 0.01168403 0.68106323
-0.011764035 0.010587633 0.68202925
-0.011857007 0.0094856024 0.68315148
-0.011955984 0.0083692074 0.6843462
-0.012057212 0.0072343647 0.68556821
-0.012161063 0.006080538 0.68682182
-0.012266763 0.004906714 0.68809766
-0.012374315 0.0037123263 0.68939596
-0.012483637 0.0024967492 0.69071561
-0.012594542 0.0012595057 0.69205427
-0.012719853 2.9802322e-08 0.69356698
-0.013497943 -0.0013498068 0.70295936
-0.013545563 -0.0027090907 0.70353413
-0.013846162 -0.0041538477 0.70716274
-0.013937468 -0.0055749416 0.70826489
-0.014026586 -0.0070132911 0.70934069
-0.014116796 -0.0084700584 0.71042955
-0.014205211 -0.0099436343 0.71149683
-0.014280053 -0.011424005 0.71240026
-0.014387728 -0.01294893 0.7137
-0.011337265 0.052907258 0.69208348
-0.011330816 0.051618159 0.69199705
-0.011390535 0.050624639 0.69279802
-0.011451348 0.049622506 0.69361365
-0.011514891 0.048618436 0.69446588
-0.011579143 0.04760316 0.69532764
-0.011644117 0.0465765 0.69619912
-0.011709823 0.045538247 0.69708037
-0.011776276 0.044488192 0.6979717
-0.011843487 0.043426126 0.69887316
-0.011909927 0.042346418 0.69976425
-0.011974458 0.041245401 0.70062971
-0.0097054346 0.032351464 0.67019695
-0.0096780416 0.031184822 0.66982955
-0.0097027551 0.030186355 0.67016101
-0.0097599877 0.029279977 0.6709286
-0.009820736 0.028371036 0.67174339
-0.0098831831 0.027453303 0.67258096
-0.0099423816 0.02651304 0.67337495
-0.0099845687 0.025516152 0.67394078
-0.0099966973 0.024436384 0.67410344
-0.0099843778 0.023296922 0.67393816
-0.010017351 0.022260785 0.67438042
-0.010075185 0.021269858 0.67515612
-0.010130999 0.020262003 0.67590475
-0.010187036 0.019242167 0.67665631
-0.010243697 0.018211037 0.67741627
-0.010300991 0.017168313 0.67818475
-0.010358931 0.016113907 0.67896181
-0.010417525 0.01504755 0.6797477
-0.010476821 0.013969123 0.68054295
-0.010536726 0.012878239 0.68134648
-0.010597355 0.011774868 0.68215966
-0.010658721 0.010658741 0.68298268
-0.010720767 0.0095295906 0.68381488
-0.010783538 0.008387208 0.68465674
-0.01084705 0.0072313845 0.68550861
-0.010913217 0.0060629249 0.68639606
-0.010991544 0.0048851669 0.68744659
-0.011082851 0.0036943257 0.68867123
-0.011179204 0.0024842918 0.68996358
-0.011278467 0.0012531877 0.69129491
-0.011379468 5.9604645e-08 0.69264954
-0.011482124 -0.001275748 0.69402641
-0.01158635 -0.0025747418 0.69542432
-0.01169253 -0.0038974881 0.69684839
-0.011800673 -0.0052447021 0.69829887
-0.011913376 -0.0066185594 0.6998105
-0.01281702 -0.0085446537 0.71193039
-0.012840544 -0.0099870563 0.71224588
-0.012847401 -0.011419922 0.71233791
-0.012971729 -0.012971729 0.71400547
-0.013718903 -0.015243232 0.72402674
-0.014557006 -0.017791867 0.73526764
-0.014655103 -0.019540131 0.73658335
-0.010048644 0.052755386 0.69164705
-0.010095502 0.051739484 0.69235408
-0.01015232 0.05076161 0.69321144
-0.010207907 0.04976356 0.69405019
-0.010264712 0.048757374 0.69490731
-0.010322192 0.047740161 0.69577461
-0.01038028 0.046711266 0.6966511
-0.010439025 0.045670778 0.69753748
-0.01049844 0.044618368 0.698434
-0.010558534 0.043553948 0.69934076
-0.010619321 0.04247731 0.7002579
-0.010680811 0.041388154 0.70118576
-0.0086131534 0.03229931 0.6699872
-0.0085900771 0.031139046 0.66963899
-0.0086123524 0.030143261 0.6699751
-0.0086623523 0.029235452 0.67072952
-0.0087161865 0.028327644 0.67154181
-0.008770694 0.027408391 0.67236429
-0.0088224132 0.026467234 0.6731447
-0.0088590775 0.025469869 0.67369789
-0.0088717723 0.024397373 0.67388952
-0.0088752285 0.023297489 0.67394161
-0.0089271031 0.022317767 0.67472434
-0.0090034949 0.021383315 0.67587698
-0.0090741497 0.020416856 0.67694306
-0.009124727 0.019390047 0.67770624
-0.0091758715 0.018351763 0.678478
-0.0092275925 0.017301738 0.67925841
-0.0092799002 0.016239822 0.68004763
-0.009332804 0.015165806 0.68084592
-0.0093863141 0.014079481 0.68165326
-0.0094404723 0.01298067 0.68247044
-0.0094952285 0.011869043 0.68329668
-0.0095506227 0.010744452 0.68413258
-0.0096066343 0.0096066594 0.68497765
-0.0096633742 0.0084554851 0.68583381
-0.0097207539 0.0072906017 0.68669957
-0.009778819 0.0061117709 0.68757576
-0.0098375818 0.0049188137 0.68846244
-0.0098970914 0.0037114024 0.68936032
-0.0099572884 0.0024893582 0.69026864
-0.010018223 0.0012523234 0.6911881
-0.010082028 2.9802322e-08 0.69215077
-0.010157811 -0.0012696981 0.69329429
-0.010246589 -0.0025616288 0.69463384
-0.010340353 -0.00387761 0.69604862
-0.010435577 -0.005217731 0.69748545
-0.010532251 -0.0065826476 0.69894415
-0.010630407 -0.0079728067 0.70042527
-0.010730411 -0.0093890727 0.7019341
-0.010833706 -0.010833681 0.70349276
-0.010943359 -0.01231125 0.70514733
-0.011115865 -0.013894856 0.7077502
-0.011162825 -0.015348852 0.70845878
-0.012239953 -0.01835987 0.72471142
-0.012441611 -0.020217597 0.72775418
-0.012593003 -0.022037715 0.73003846
-0.012832101 -0.02406019 0.73364621
-0.013151936 -0.026303858 0.73847216
-0.013415993 -0.028508961 0.74245644
-0.0087958379 0.052775025 0.69170356
-0.0088448711 0.051805675 0.69254911
-0.0088942274 0.050824165 0.69340026
-0.0089452555 0.049837828 0.69428015
-0.0089976378 0.048844337 0.69518352
-0.009050671 0.047839284 0.69609797
-0.0091042994 0.046822101 0.6970228
-0.0091586011 0.045792997 0.69795918
-0.0092131011 0.044749349 0.69889903
-0.0092659937 0.043682575 0.6998111
-0.0093194973 0.042603433 0.70073378
-0.0093736229 0.041511774 0.70166707
-0.0075257821 0.032253385 0.66980225
-0.0075082891 0.031105787 0.66950059
-0.007529533 0.030118108 0.66986692
-0.007573681 0.029212773 0.67062819
-0.0076198531 0.028302312 0.67142445
-0.0076665673 0.027380615 0.67223001
-0.0077102883 0.026435286 0.67298388
-0.0077420701 0.025438249 0.67353201
-0.0077513717 0.024361461 0.67369241
-0.0077465824 0.023239762 0.67360979
-0.0077886535 0.022253305 0.67433524
-0.0079401927 0.021551937 0.67694849
-0.0079989452 0.020568728 0.67796165
-0.0080459388 0.019540161 0.67877197
-0.0080913883 0.018494636 0.67955577
-0.0081373798 0.017437249 0.68034881
-0.0081838425 0.016367704 0.68115008
-0.0082308948 0.015285939 0.68196148
-0.008278463 0.014191657 0.68278176
-0.0083265845 0.01308465 0.68361157
-0.0083752982 0.011964738 0.68445158
-0.008424555 0.010831594 0.68530095
-0.0084743947 0.0096850395 0.68616045
-0.0085248286 0.0085248649 0.6870302
-0.0085758651 0.007350713 0.68791026
-0.0086274864 0.0061625242 0.68880039
-0.0086797951 0.0049599111 0.68970245
-0.00873271 0.0037426054 0.69061494
-0.0087862751 0.002510339 0.69153869
-0.0088404994 0.0012629032 0.69247371
-0.0088954307 -0 0.69342101
-0.0089510167 -0.0012786984 0.69437945
-0.0090073012 -0.0025735199 0.69535005
-0.0090642981 -0.0038847029 0.69633305
-0.009122055 -0.005212605 0.69732904
-0.0091829095 -0.0065592229 0.69837838
-0.0092557687 -0.0079334676 0.69963479
-0.009340398 -0.0093403757 0.70109415
-0.0094286362 -0.010775566 0.70261574
-0.0095185554 -0.012238175 0.70416641
-0.0096101705 -0.013728797 0.70574617
-0.0097043011 -0.01524958 0.70736945
-0.0098006101 -0.016801029 0.70903027
-0.010660531 -0.0197981 0.72385901
-0.010790589 -0.021581143 0.72610182
-0.010927149 -0.023415297 0.72845668
-0.011072197 -0.025307834 0.73095798
-0.011509469 -0.027951539 0.73849845
-0.011435928 -0.029406667 0.73723024
-0.01157707 -0.031423479 0.7396642
-0.01179135 -0.033689588 0.74335933
-0.012075203 -0.036225587 0.74825424
-0.0075444463 0.052811146 0.69180727
-0.0075881896 0.051852643 0.69268733
-0.0076311021 0.050874025 0.69355065
-0.0076751807 0.0498887 0.69443744
-0.0077202003 0.048894584 0.69534326
-0.0077657225 0.047888607 0.69625902
-0.0078118141 0.046870887 0.69718635
-0.0078584263 0.045840859 0.69812405
-0.0079056285 0.044798553 0.69907367
-0.00795337 0.043743551 0.7000342
-0.0080017224 0.042675883 0.70100701
-0.0080506364 0.041594982 0.70199108
-0.0064429753 0.03221488 0.6696474
-0.0064320229 0.031088144 0.6694271
-0.0064524272 0.030111343 0.66983759
-0.0064903726 0.029206693 0.67060095
-0.0065292162 0.028293282 0.67138243
-0.0065685278 0.027368903 0.67217332
-0.0066040456 0.026416183 0.67288786
-0.006631501 0.025420755 0.67344022
-0.0066355113 0.024330229 0.67352092
-0.0066200038 0.023170024 0.67320895
-0.006646893 0.022156328 0.67374992
-0.0068161148 0.021584392 0.67715442
-0.0068646823 0.02059409 0.67813146
-0.0069130757 0.01958707 0.6791051
-0.0069618076 0.01856482 0.68008548
-0.0070107123 0.017526805 0.68106937
-0.0070595681 0.01647234 0.68205225
-0.0071073403 0.015399247 0.68301344
-0.0071528177 0.014305651 0.68392837
-0.0071947319 0.013190329 0.6847716
-0.0072371401 0.012061924 0.68562472
-0.0072800512 0.010920107 0.68648809
-0.0073235002 0.0097647011 0.68736219
-0.0073674442 0.0085953772 0.68824625
-0.0074119191 0.007411927 0.68914104
-0.0074536023 0.0062113404 0.68997967
-0.00749732 0.0049982369 0.6908592
-0.0075463033 0.0037731826 0.6918447
-0.0075953496 0.0025318265 0.6928314
-0.0076426277 0.0012737811 0.69378257
-0.0076905261 2.9802322e-08 0.69474614
-0.007739 -0.0012898147 0.69572145
-0.0077880891 -0.0025960207 0.69670904
-0.007837805 -0.003918916 0.6977092
-0.0078881597 -0.0052587688 0.6987223
-0.0079391655 -0.0066159666 0.6997484
-0.0079919072 -0.0079918802 0.70080948
-0.0080455411 -0.0093864202 0.70188856
-0.0080998987 -0.010799855 0.70298207
-0.0081549957 -0.012232453 0.7040906
-0.0082117869 -0.01368627 0.70523316
-0.0082777459 -0.015175849 0.70656013
-0.0083550066 -0.016710013 0.7081145
-0.0090286955 -0.019562155 0.72166806
-0.0092258286 -0.021526933 0.7256341
-0.0092382981 -0.023095697 0.72588497
-0.0093391081 -0.024904281 0.72791308
-0.0094816061 -0.026864529 0.73077995
-0.0095714089 -0.02871421 0.73258662
-0.0096926689 -0.030693412 0.73502618
-0.0098227756 -0.03274256 0.73764372
-0.0099612763 -0.034864455 0.74043012
-0.010111087 -0.03707397 0.74344414
-0.010274681 -0.039386243 0.74673533
-0.010461475 -0.041845888 0.75049335
-0.010698984 -0.044579118 0.75527167
-0.0062862877 0.052804828 0.69178915
-0.0063231001 0.051849425 0.69267786
-0.0063601127 0.050880909 0.69357145
-0.0063986224 0.049909264 0.69450116
-0.0064378153 0.048927397 0.69544739
-0.0064774677 0.047933251 0.6964047
-0.0065166089 0.046919614 0.69734955
-0.0065555335 0.045888752 0.69828928
-0.0065949508 0.0448457 0.69924092
-0.0066348198 0.043789834 0.70020348
-0.0066751731 0.042721123 0.70117772
-0.0067160465 0.041639477 0.70216447
-0.0053651505 0.032190889 0.66955096
-0.0053600525 0.031088322 0.66942781
-0.0053790035 0.030122429 0.6698854
-0.0054104626 0.029216528 0.67064488
-0.0054422747 0.028299838 0.67141289
-0.0054744803 0.02737242 0.67219043
-0.0055019595 0.026409388 0.67285377
-0.0055257585 0.02541852 0.67342836
-0.0055234749 0.024303317 0.67337322
-0.0055050277 0.023121148 0.67292792
-0.005523352 0.022093415 0.67337024
-0.0056784991 0.021578312 0.67711586
-0.0057175374 0.020583153 0.67805833
-0.0057578604 0.019576758 0.67903179
-0.0057992791 0.018557727 0.68003178
-0.0058405711 0.017521709 0.68102866
-0.0058823363 0.016470581 0.68203688
-0.0059300009 0.015418023 0.68318766
-0.0060089231 0.014421433 0.68509299
-0.0060444204 0.013297737 0.68594998
-0.0060803615 0.012160748 0.68681765
-0.0061167111 0.01101011 0.68769521
-0.0061534974 0.0098455846 0.68858331
-0.0061907293 0.008667022 0.68948215
-0.0062185386 0.0074622631 0.69015354
-0.0062249107 0.0062249303 0.69030738
-0.0062598102 0.005007863 0.69114995
-0.0063143214 0.0037885904 0.69246596
-0.0063839038 0.0025535524 0.69414592
-0.0064239851 0.0012847781 0.69511348
-0.0064645726 5.9604645e-08 0.69609332
-0.0065056765 -0.0013011098 0.69708568
-0.0065473313 -0.0026189089 0.69809127
-0.0065894728 -0.0039536953 0.69910872
-0.0066321855 -0.0053057671 0.70013988
-0.0066760452 -0.006676048 0.70119876
-0.0067209573 -0.0080651343 0.70228302
-0.0067664776 -0.0094730258 0.70338202
-0.0068126186 -0.010900199 0.70449591
-0.0068593938 -0.012346894 0.70562518
-0.0069068153 -0.013813615 0.70677
-0.0069548693 -0.015300691 0.70793015
-0.0070077488 -0.016818583 0.70920682
-0.0077146138 -0.020058006 0.72627199
-0.0077219177 -0.021621346 0.7264483
-0.0077201333 -0.023160368 0.7264052
-0.0077193785 -0.024702013 0.72638702
-0.0077834269 -0.026463658 0.72793329
-0.0080309631 -0.028911442 0.73390937
-0.0080670603 -0.030654848 0.73478085
-0.0080576697 -0.032230705 0.73455411
-0.0081568221 -0.034258634 0.73694789
-0.0082601747 -0.036344767 0.73944306
-0.0083694849 -0.038499624 0.742082
-0.0084839631 -0.040722996 0.74484569
-0.0086065168 -0.043032557 0.74780446
-0.0087362202 -0.045428336 0.75093567
-0.0088799559 -0.047951758 0.75440586
-0.0090415636 -0.050632715 0.7583074
-0.0050252122 0.052764744 0.69167399
-0.0050544511 0.051808149 0.69255632
-0.0050839586 0.050839603 0.69344676
-0.005114791 0.04986921 0.6943773
-0.0051460764 0.048887759 0.69532132
-0.0051777465 0.04789415 0.69627708
-0.0052098087 0.046888292 0.69724458
-0.0052422509 0.045869738 0.69822371
-0.0052751196 0.044838518 0.69921553
-0.0053084032 0.043794334 0.70021999
-0.0053421091 0.042736918 0.70123714
-0.0053762458 0.041665912 0.70226735
-0.0042909677 0.032182276 0.66951621
-0.0042898548 0.031101495 0.66948259
-0.0043073776 0.030151635 0.6700114
-0.004332148 0.029242039 0.67075884
-0.0043571913 0.028321743 0.67151463
-0.00438254 0.027390867 0.6722796
-0.0044025434 0.026415259 0.67288327
-0.0044219005 0.025425941 0.6734674
-0.0044131395 0.024272293 0.67320299
-0.0043975841 0.023087353 0.67273366
-0.0044115004 0.022057533 0.67315352
-0.0045441063 0.021584541 0.67715526
-0.0045749485 0.020587295 0.67808598
-0.004606212 0.019576401 0.67902946
-0.0046380763 0.018552333 0.67999107
-0.0046706358 0.017514884 0.68097365
-0.0047041331 0.016464472 0.68198454
-0.0047530695 0.015447497 0.68346131
-0.0048463782 0.014539152 0.68627715
-0.0048752604 0.013406992 0.68714875
-0.0049044718 0.012261182 0.6880303
-0.0049340352 0.011101574 0.68892241
-0.0049639572 0.0099279583 0.68982542
-0.0049918047 0.0087356567 0.69066584
-0.0049967398 0.0074951649 0.69081473
-0.0049797683 0.0062247217 0.69030255
-0.0049863248 0.0049863458 0.69050044
-0.0050322716 0.0037741959 0.69188696
-0.0051514166 0.0025757253 0.69548249
-0.0051840614 0.0012960434 0.69646764
-0.0052171028 -0 0.69746476
-0.0052505685 -0.0013126433 0.69847471
-0.0052739186 -0.0026369691 0.69917935
-0.0052917087 -0.0039687753 0.69971621
-0.0053343796 -0.0053343773 0.70100391
-0.0053896927 -0.006737113 0.7026732
-0.0054264967 -0.0081397295 0.70378381
-0.0054635922 -0.0095612705 0.70490324
-0.0055011981 -0.011002362 0.70603812
-0.0055393255 -0.01246348 0.70718873
-0.0055779628 -0.013944894 0.70835471
-0.0056171655 -0.015447199 0.70953774
-0.0059987889 -0.017996311 0.7210542
-0.0062039779 -0.02016294 0.7272464
-0.006204172 -0.021714568 0.72725224
-0.0062027597 -0.023260325 0.72720957
-0.0062012929 -0.024805129 0.72716534
-0.0061998824 -0.026349485 0.72712278
-0.0062401886 -0.028080821 0.72833908
-0.0064596767 -0.030683458 0.7349627
-0.0064074732 -0.032037377 0.73338741
-0.0064498144 -0.033861518 0.73466516
-0.0065249377 -0.035887182 0.73693216
-0.0066026151 -0.037965059 0.73927629
-0.006683385 -0.040100306 0.74171376
-0.006767408 -0.042296261 0.7442494
-0.0068558697 -0.044563144 0.74691892
-0.0069474382 -0.046895206 0.74968231
-0.0070456974 -0.049319834 0.75264752
-0.0071482467 -0.051824749 0.75574219
-0.0037628412 0.052679777 0.69142979
-0.0037859648 0.05174154 0.69236016
-0.0038092628 0.050790161 0.69329762
-0.0038330043 0.049829066 0.69425297
-0.0038564301 0.048848122 0.69519556
-0.0038801441 0.047855109 0.69614971
-0.0039041515 0.046849877 0.69711566
-0.0039284579 0.045832038 0.69809365
-0.0039530541 0.044801265 0.69908333
-0.0039779749 0.043757737 0.70008612
-0.0040032123 0.042700976 0.70110154
-0.0032396694 0.033476591 0.67037898
-0.0032183647 0.032183677 0.66952175
-0.0032203135 0.031129718 0.66960013
-0.003235416 0.030197203 0.67020786
-0.0032537151 0.029283434 0.67094415
-0.0032724382 0.028361171 0.6716975
-0.0032914921 0.027429104 0.67246413
-0.0033035402 0.026428342 0.67294896
-0.0033186006 0.02544263 0.67355496
-0.0033054361 0.024239898 0.67302525
-0.0032956859 0.023069829 0.67263293
-0.0033068308 0.022045553 0.67308134
-0.0034110125 0.021603107 0.67727333
-0.0034341956 0.020605206 0.67820615
-0.0034577188 0.019593775 0.67915261
-0.0034815664 0.018568337 0.68011218
-0.0035057568 0.017528832 0.68108553
-0.0035302741 0.016474664 0.68207198
-0.0036429514 0.015786141 0.68660581
-0.0036646978 0.014658809 0.68748081
-0.0036867056 0.013517946 0.68836635
-0.0037089793 0.012363255 0.68926257
-0.0037315236 0.011194587 0.69016969
-0.0037543438 0.010011584 0.6910879
-0.0037655598 0.0087863207 0.69153917
-0.0037583234 0.0075166523 0.691248
-0.0037328734 0.0062214732 0.69022393
-0.0037241115 0.0049655139 0.68987143
-0.0037545196 0.0037545264 0.69109499
-0.0038973787 0.0025982559 0.69684315
-0.0039222795 0.0013074577 0.6978451
-0.003947515 -0 0.69886053
-0.003968419 -0.0013228059 0.69970161
-0.0039673164 -0.0026448667 0.69965726
-0.0039569251 -0.0039569139 0.69923913
-0.0039894539 -0.0053192675 0.70054799
-0.0040799077 -0.0067998469 0.70418751
-0.0041078511 -0.0082156658 0.70531189
-0.0041361796 -0.0096510649 0.70645177
-0.0041649183 -0.011106461 0.70760816
-0.0041836062 -0.012550831 0.70836008
-0.0042078909 -0.014026284 0.70933723
-0.0043440731 -0.015928268 0.71481681
-0.0043843612 -0.017537445 0.71643782
-0.0046405555 -0.020109057 0.72674632
-0.0046706633 -0.021796435 0.72795773
-0.0046722121 -0.023361057 0.72802007
-0.0046711233 -0.024912655 0.72797626
-0.004670056 -0.026463658 0.72793329
-0.004660056 -0.0279603 0.7275309
-0.0046971394 -0.029748559 0.72902304
-0.0047466103 -0.031644046 0.73101354
-0.0047975099 -0.033582568 0.73306167
-0.0048501901 -0.035568029 0.73518133
-0.0049043405 -0.037599951 0.73736012
-0.0049602324 -0.039681852 0.73960906
-0.0050182585 -0.041818798 0.74194384
-0.0050781523 -0.044010639 0.74435389
-0.0051399497 -0.046259552 0.74684036
-0.0052050105 -0.04858008 0.74945819
-0.0052718995 -0.050961673 0.75214958
-0.0053425007 -0.053424984 0.7549904
-0.0025024633 0.052551776 0.69106179
-0.0025174392 0.05160749 0.69196564
-0.0025325858 0.050651729 0.6928798
-0.002548486 0.049695462 0.69383955
-0.002564644 0.048728228 0.69481474
-0.0025809985 0.047748446 0.69580179
-0.002597563 0.046756178 0.69680154
-0.0026143412 0.045751005 0.69781423
-0.0026313378 0.044732749 0.69884002
-0.0026485468 0.043701053 0.69987869
-0.0026660028 0.042656064 0.70093226
-0.002155693 0.033413231 0.67013234
-0.0021474727 0.032212079 0.66963625
-0.0021505363 0.031182796 0.66982108
-0.0021614456 0.030260265 0.67047954
-0.0021737029 0.029345006 0.67121935
-0.0021860932 0.028419256 0.67196715
-0.0021986114 0.027482659 0.6727227
-0.0022054492 0.026465416 0.6731354
-0.002214113 0.0254623 0.67365837
-0.0022011462 0.024212599 0.6728757
-0.0021970684 0.023069263 0.67262954
-0.0022059884 0.022059888 0.67316788
-0.002277653 0.021637678 0.67749327
-0.0022928175 0.020635366 0.67840856
-0.0023081778 0.019619524 0.67933565
-0.002323753 0.018590033 0.68027568
-0.0023395398 0.017546564 0.68122846
-0.0023558699 0.016491115 0.68221402
-0.0024486673 0.015916348 0.68781483
-0.0024634057 0.014780432 0.68870449
-0.0024783229 0.013630778 0.68960476
-0.0024934218 0.012467146 0.69051605
-0.0025087057 0.011289209 0.6914385
-0.0025207631 0.010083079 0.69216621
-0.0025198855 0.0088196099 0.69211328
-0.0025076196 0.0075228512 0.69137299
-0.0024853516 0.0062133968 0.69002903
-0.0024765125 0.0049530268 0.6894955
-0.0024959831 0.0037439764 0.69067073
-0.0026211946 0.0026212037 0.69822788
-0.0026380904 0.0013190806 0.69924754
-0.0026545767 2.9802322e-08 0.70024264
-0.0026586389 -0.001329273 0.70048779
-0.0026501932 -0.0026501715 0.69997811
-0.0026308696 -0.0039462745 0.69881177
-0.0026461366 -0.0052922666 0.69973326
-0.0027453941 -0.0068634748 0.70572388
-0.0027643745 -0.0082931221 0.70686948
-0.0027836303 -0.0097426772 0.70803171
-0.0027970299 -0.01118809 0.70884043
-0.0027940611 -0.012573242 0.7086612
-0.0027961184 -0.013980597 0.70878547
-0.0028887775 -0.015888244 0.71437794
-0.0029149137 -0.017489463 0.71595538
-0.0029415521 -0.019120097 0.71756315
-0.0029686817 -0.020780772 0.71920061
-0.0029982429 -0.022486836 0.7209847
-0.003127635 -0.025021046 0.72879422
-0.0031209069 -0.026527703 0.72838813
-0.0030951917 -0.027856708 0.72683609
-0.0031154784 -0.029597014 0.72806048
-0.0031471387 -0.031471372 0.72997141
-0.00317958 -0.033385575 0.73192942
-0.0032128457 -0.035341263 0.73393714
-0.0032471789 -0.037342519 0.73600936
-0.0032826259 -0.039391488 0.73814875
-0.0033188236 -0.04148528 0.7403335
-0.0033559906 -0.043627858 0.74257672
-0.0033947953 -0.045829743 0.74491876
-0.0034346269 -0.048084766 0.7473228
-0.0034755259 -0.050395101 0.74979132
-0.0035185679 -0.052778512 0.75238907
-0.0012471181 0.052378953 0.69056523
-0.0012550687 0.051457822 0.69152492
-0.0012628505 0.050514042 0.69246429
-0.0012707433 0.049559027 0.69341701
-0.0012787778 0.048593581 0.6943869
-0.0012869098 0.047615677 0.69536847
-0.0012951458 0.046625286 0.69636273
-0.0013034929 0.045622259 0.69737029
-0.0013119383 0.044605911 0.69838977
-0.0013204989 0.043576479 0.69942307
-0.0013291719 0.042533517 0.70047003
-0.0010775356 0.033403605 0.67009479
-0.0010751883 0.03225565 0.66981149
-0.0010779267 0.031259894 0.67014199
-0.0010837598 0.030345291 0.6708461
-0.0010898069 0.029424757 0.67157614
-0.0010959252 0.02849409 0.67231464
-0.0011018085 0.027545214 0.67302483
-0.0011055315 0.026532799 0.67347419
-0.0011077801 0.025478959 0.67374563
-0.0011001549 0.02420342 0.67282522
-0.001099497 0.023089468 0.67274582
-0.0011049373 0.02209878 0.67340249
-0.001141479 0.021688133 0.67781341
-0.0011490891 0.020683616 0.6787321
-0.0011568015 0.019665629 0.67966306
-0.0011645477 0.01863277 0.68059814
-0.0011723867 0.017585784 0.68154436
-0.0011803356 0.016524732 0.68250388
-0.0012345167 0.016048759 0.68904412
-0.0012420095 0.014904141 0.68994856
-0.0012495938 0.013745546 0.69086409
-0.0012572713 0.012572736 0.69179082
-0.0012646706 0.011382043 0.69268405
-0.0012665745 0.010132611 0.69291377
-0.0012626485 0.0088385344 0.69243991
-0.0012524719 0.0075148344 0.69121152
-0.0012410602 0.0062052906 0.689834
-0.001236903 0.0049476326 0.68933213
-0.0012466036 0.003739804 0.69050312
-0.0013222728 0.0026445687 0.69963717
-0.0013308724 0.0013309121 0.70067525
-0.0013357275 -0 0.7012614
-0.0013332111 -0.0013331771 0.7009576
-0.0013245409 -0.0026490986 0.699911
-0.0013133814 -0.0039401352 0.69856393
-0.0013190852 -0.0052763522 0.69925249
-0.0013856598 -0.0069282949 0.70728868
-0.0013953362 -0.0083720088 0.7084567
-0.0014041835 -0.0098293126 0.70952469
-0.0014044049 -0.011235207 0.70955145
-0.0013982505 -0.012584269 0.70880854
-0.0013910963 -0.013910949 0.70794493
-0.0014037581 -0.015441328 0.70947331
-0.0014551741 -0.017462105 0.71567976
-0.0014681349 -0.019085735 0.71724433
-0.0014815246 -0.020741314 0.71886057
-0.0014952571 -0.02242884 0.72051823
-0.0015092466 -0.024147928 0.72220695
-0.0015234938 -0.02589941 0.72392672
-0.0015380193 -0.027684331 0.72568011
-0.0015526856 -0.029501021 0.72745049
-0.0015677193 -0.031354368 0.72926521
-0.0015833786 -0.033250928 0.73115546
-0.0015994277 -0.035187364 0.73309273
-0.0016158354 -0.037164181 0.73507333
-0.001632706 -0.039184928 0.73710978
-0.0016500816 -0.041252017 0.73920727
-0.001667927 -0.043366075 0.74136132
-0.0016861624 -0.045526356 0.74356264
-0.0017050104 -0.04774031 0.74583769
-0.0017245583 -0.050012171 0.74819732
-0.001744542 -0.052336276 0.75060964
-0.0017649942 -0.054714859 0.75307846
0 0.052150428 0.68990839
0 0.05122304 0.69083369
0 0.05028379 0.69176936
0 0.049343675 0.69275069
0 0.04839322 0.69375044
0 0.047430187 0.69476336
0 0.046454191 0.69578904
0 0.045464993 0.69682789
0 0.044462562 0.69788074
0 0.043446541 0.69894779
0 0.042411864 0.70001101
0 0.033432215 0.67020619
0 0.032329619 0.67010891
0 0.031365246 0.67058069
0 0.030449212 0.67129403
0 0.029523015 0.67201531
0 0.028586745 0.67274493
0 0.027610362 0.67333937
0 0.026609868 0.67386216
0 0.025483578 0.67376995
0 0.02417919 0.67269206
0 0.0230802 0.67269248
0 0.022108257 0.67345977
0 0.021151274 0.67440283
0 0.020727813 0.67902857
0 0.019709498 0.67997426
0 0.018675983 0.68092394
0 0.017627209 0.68187749
0 0.016563624 0.6828391
0 0.016183347 0.69029391
0 0.015029907 0.69121367
0 0.013862252 0.69214475
0 0.012680113 0.69308734
0 0.011453658 0.69364399
0 0.010165632 0.6934126
0 0.0088370442 0.69241333
0 0.0075050294 0.69101393
0 0.0061914027 0.68949813
0 0.0049501359 0.68940771
0 0.0037405491 0.69053334
0 0.0026682913 0.70107186
0 0.0013412535 0.70192909
0 -0 0.70186853
0 -0.0013341606 0.70107251
0 -0.0026458502 0.69971561
0 -0.0039353669 0.69837356
0 -0.0052698255 0.69905627
0 -0.0069943666 0.70888329
0 -0.008452177 0.71007037
0 -0.0098808408 0.71041369
0 -0.011258394 0.70990086
0 -0.012572527 0.70865172
0 -0.01387313 0.70748836
0 -0.015389651 0.70890641
0 -0.017488986 0.71595025
0 -0.019088 0.71726525
0 -0.020722985 0.71870214
0 -0.022400796 0.72029251
0 -0.024112642 0.72194064
0 -0.025856078 0.72361922
0 -0.027635515 0.72535282
0 -0.029451102 0.72713357
0 -0.031300545 0.72894049
0 -0.033183366 0.73076689
0 -0.035102874 0.73262906
0 -0.037060291 0.73452795
0 -0.03905791 0.73647106
0 -0.041100174 0.73847401
0 -0.043188632 0.74053746
0 -0.045326859 0.74267066
0 -0.047511101 0.74484974
0 -0.049743086 0.74707723
0 -0.052033216 0.74939024
0 -0.054379195 0.75177163
0.0012349642 0.051868528 0.68909812
0.0012430447 0.050964832 0.69007349
0.0012508713 0.050034851 0.69101828
0.0012589248 0.049098074 0.69199044
0.001267101 0.048149854 0.69297743
0.0012754451 0.047191501 0.69398457
0.0012838524 0.046218693 0.69499946
0.0012923712 0.045233011 0.69602776
0.0013010086 0.044234335 0.69707042
0.0013097575 0.04322201 0.69812644
0.0010852661 0.034728497 0.67102802
0.0010803095 0.033489645 0.67042965
0.0010809447 0.032428384 0.6705063
0.0010860973 0.031496823 0.67112827
0.0010919371 0.030574232 0.67183322
0.0010978435 0.029641837 0.67254615
0.0011038106 0.0286991 0.67326647
0.0011069896 0.027674735 0.67365021
0.0011117427 0.02668184 0.67422402
0.0011066652 0.025453299 0.6736111
0.0010962883 0.024118334 0.67235845
0.001094872 0.022992343 0.67218751
0.0011004301 0.022008598 0.67285848
0.0011086249 0.021063864 0.67384768
0.0011169425 0.020104945 0.67485166
0.0011253859 0.019131571 0.67587084
0.0011339578 0.018143326 0.67690557
0.0011426351 0.017139554 0.677953
0.0011513012 0.016118228 0.67899913
0.0011600959 0.015081257 0.68006074
0.0011690614 0.014028728 0.68114299
0.0011786341 0.012964994 0.68229842
0.0012778044 0.012778044 0.69426942
0.0012778748 0.011500895 0.69427788
0.0012720645 0.01017651 0.69357657
0.0012607611 0.0088253319 0.6922121
0.0012489964 0.0074940324 0.69079196
0.0012323407 0.0061617494 0.68878144
0.0012397495 0.004959017 0.68967575
0.0012489739 0.0037469268 0.69078922
0.0013459095 0.0026918352 0.70249045
0.0013478989 0.0013478994 0.7027306
0.0013434066 -0 0.70218831
0.0013326998 -0.0013326406 0.70089585
0.0013213074 -0.0026426017 0.69952065
0.0013096045 -0.0039287806 0.69810796
0.0013178545 -0.005271405 0.69910389
0.0013287197 -0.0066435933 0.70041543
0.0014183698 -0.0085102022 0.71123719
0.0014157001 -0.0099098682 0.71091485
0.0014066905 -0.011253506 0.7098273
0.00139316 -0.012538403 0.70819402
0.0013850356 -0.013850361 0.7072134
0.0013971035 -0.015368134 0.70867014
0.0014721781 -0.017666131 0.71773243
0.0014832068 -0.019281685 0.71906364
0.0014944018 -0.020921648 0.720415
0.0015057671 -0.022586495 0.72178692
0.0015173134 -0.024277002 0.72318071
0.0015290313 -0.025993526 0.72459519
0.0015409316 -0.027736753 0.72603166
0.0015530257 -0.029507428 0.7274915
0.0015653039 -0.031306058 0.72897369
0.0015778424 -0.033134669 0.73048723
0.001592975 -0.035045445 0.73231387
0.0016086167 -0.036998183 0.73420203
0.0016246067 -0.038990557 0.73613214
0.0016409176 -0.041022897 0.73810101
0.0016575595 -0.043096542 0.74010992
0.0016745423 -0.045212626 0.7421599
0.0016918768 -0.04737255 0.74425232
0.001709801 -0.04958421 0.74641597
0.0017281263 -0.051843792 0.74862802
0.0017468487 -0.05415231 0.75088805
0.0024628208 0.051719248 0.68866909
0.002469481 0.050624371 0.68907112
0.0024859649 0.049719304 0.69006598
0.0025252237 0.0492419 0.6924355
0.0025191184 0.047863245 0.69206703
0.0025353762 0.046904504 0.69304824
0.0025525766 0.045946389 0.69408637
0.0025696605 0.044969052 0.69511753
0.0025874563 0.043986768 0.69619155
0.0026055099 0.042990923 0.69728118
0.002171604 0.034745723 0.67109263
0.0021664859 0.033580542 0.67078376
0.0021717532 0.032576293 0.67110169
0.0021829619 0.031652987 0.67177814
0.0021945082 0.030723125 0.6724751
0.0022061775 0.029783428 0.67317939
0.0022173345 0.028825372 0.67385274
0.0022237131 0.027796447 0.67423773
0.0022284766 0.026741713 0.6745252
0.0022099027 0.025413871 0.67340422
0.0021933031 0.024126351 0.67240226
0.002190738 0.023002744 0.67224747
0.0022001567 0.022001565 0.67281598
0.0022132811 0.021026164 0.67360812
0.0022270053 0.020043075 0.67443645
0.002241631 0.019053876 0.67531919
0.0022570803 0.018056631 0.67625159
0.0022733612 0.017050236 0.67723429
0.002290505 0.01603359 0.67826891
0.002308262 0.015003711 0.67934072
0.0023262966 0.013957828 0.68042916
0.0023446151 0.012895375 0.68153477
0.0023632322 0.011816144 0.68265843
0.0023821394 0.010719657 0.68379962
0.0024013515 0.0096054077 0.68495917
0.0024208762 0.0084730983 0.68613756
0.0024404721 0.0073214471 0.68732023
0.0024602488 0.0061506331 0.68851388
0.0024802778 0.004960537 0.68972278
0.0025000956 0.0037501454 0.69091892
0.0025259303 0.0025259256 0.69247818
0.0027034953 0.0013517439 0.70319515
0.0026852356 -0 0.70209306
0.002662122 -0.0013310611 0.70069802
0.0026331525 -0.0026331246 0.69894952
0.0026201273 -0.0039301515 0.69816339
0.0026406266 -0.0052812696 0.69940066
0.0026617958 -0.0066544712 0.70067835
0.0028473514 -0.008542031 0.71187758
0.0028330623 -0.0099156797 0.71101522
0.0028075387 -0.011230141 0.70947474
0.002760268 -0.012421191 0.70662171
0.0027715184 -0.013857573 0.70730066
0.0027950723 -0.015372902 0.70872229
0.0029744888 -0.017846912 0.71955097
0.0029970014 -0.019480497 0.72090983
0.0030198575 -0.021138996 0.72228932
0.0030430648 -0.022822976 0.72368997
0.0030666317 -0.024533033 0.72511238
0.0030905802 -0.026269913 0.72655773
0.0031148919 -0.028033972 0.72802514
0.0031396032 -0.029826224 0.72951657
0.0031646951 -0.031646937 0.731031
0.0031625493 -0.033206731 0.73090148
0.0031861544 -0.03504768 0.73232621
0.0032164592 -0.036989272 0.7341553
0.0032474822 -0.038969755 0.7360276
0.0032792802 -0.040991008 0.73794687
0.003311754 -0.043052763 0.73990679
0.0033448935 -0.045156062 0.74190694
0.0033788178 -0.047303408 0.74395442
0.0034139073 -0.049501628 0.74607229
0.0034497499 -0.051746219 0.74823558
0.003486336 -0.054038167 0.7504437
0.0035310467 -0.056496739 0.7531423
0.0036734538 0.05020389 0.68783313
0.0036980582 0.049307436 0.68882316
0.0037695223 0.047747314 0.69169861
0.0037723186 0.04652527 0.69181114
0.0037978825 0.045574576 0.69283974
0.0038237949 0.044610947 0.69388241
0.0038500633 0.043634057 0.69493937
0.0038767098 0.042643815 0.69601148
0.003264741 0.034823954 0.67138773
0.0032636679 0.033724576 0.67134464
0.003276635 0.032766342 0.67186636
0.0032935617 0.031837761 0.6725474
0.0033106746 0.030899644 0.67323601
0.003327956 0.029951632 0.67393136
0.003339652 0.028943658 0.67440194
0.0033525841 0.027938217 0.67492235
0.0033455684 0.026764572 0.67464006
0.0033125158 0.02539596 0.6733101
0.0033013325 0.024209768 0.67286015
0.0033078592 0.023155034 0.6731227
0.0033274353 0.022182912 0.67391038
0.0033474592 0.021200597 0.67471611
0.003367715 0.020206302 0.67553115
0.0033882177 0.019199908 0.67635614
0.0034089824 0.018181294 0.67719162
0.0034299919 0.017150015 0.67803699
0.0034512621 0.01610589 0.67889285
0.0034728092 0.015048891 0.6797598
0.0034946154 0.013978481 0.68063718
0.0035166969 0.012894601 0.68152571
0.0035390714 0.011796921 0.68242598
0.0035621952 0.010686606 0.6833564
0.0035867949 0.0095647871 0.68434626
0.0036129514 0.0084302425 0.6853987
0.0036406359 0.0072812736 0.68651259
0.003669949 0.006116569 0.68769211
0.0037003553 0.0049338341 0.68891555
0.0037312699 0.0037312508 0.69015944
0.0037627053 0.0025084615 0.69142431
0.003794675 0.0012649 0.6927107
0.0038272063 -0 0.69401968
0.0038602862 -0.0012867451 0.69535065
0.0038938846 -0.0025959015 0.6967026
0.0039274516 -0.0039274395 0.69805318
0.0039616171 -0.0052821338 0.6994279
0.0039956779 -0.0066594779 0.70079845
0.0040321066 -0.0080641806 0.70226419
0.0042420877 -0.0098982155 0.71071315
0.0041755624 -0.011134803 0.70803642
0.0041322117 -0.012396634 0.70629215
0.0041664001 -0.013888001 0.70766777
0.0044738925 -0.016404241 0.72004032
0.0045078467 -0.018031359 0.72140646
0.00454232 -0.019683361 0.72279364
0.0045773452 -0.021360934 0.72420293
0.0046128938 -0.023064464 0.72563326
0.0046489993 -0.024794638 0.72708601
0.0046856953 -0.02655229 0.72856259
0.0047229533 -0.028337717 0.73006177
0.0047608092 -0.030151755 0.73158497
0.0047700899 -0.031800568 0.73195833
0.0047455295 -0.033218712 0.73097014
0.0047863196 -0.035099685 0.73261142
0.0048309043 -0.037036896 0.73440534
0.0048763277 -0.039010614 0.736233
0.0049228226 -0.041023523 0.73810387
0.0049706395 -0.04307884 0.74002779
0.0050195633 -0.045176029 0.74199635
0.0050694593 -0.047314942 0.74400407
0.0051203575 -0.0494968 0.74605203
0.0051726736 -0.051726729 0.74815702
0.0052265935 -0.054008126 0.75032663
0.0052935579 -0.056464612 0.75302106
0.0048445538 0.049656689 0.68622214
0.0048784604 0.048784614 0.68724525
0.0049123587 0.047895491 0.6882683
0.0050167777 0.047659427 0.69141942
0.0049800891 0.046065807 0.69031227
0.0050121825 0.045109689 0.69128072
0.0050474941 0.044165581 0.69234639
0.0050836238 0.043210834 0.69343662
0.0043832725 0.036162019 0.67230171
0.0043699867 0.034959882 0.67190075
0.0043779565 0.033929169 0.67214131
0.0043993802 0.032995373 0.67278779
0.0044216756 0.032057136 0.6734606
0.0044441982 0.031109422 0.67414027
0.0044658892 0.030144751 0.67479491
0.0044758557 0.029093087 0.67509562
0.004487257 0.028045386 0.67543972
0.0044543678 0.026726246 0.67444718
0.0044261813 0.025450557 0.67359662
0.0044244062 0.024334252 0.67354298
0.0044466439 0.023344874 0.67421412
0.0044734641 0.022367358 0.67502344
0.0045005959 0.021377861 0.67584229
0.0045280582 0.020376265 0.67667103
0.0045558731 0.019362479 0.67751038
0.0045840167 0.018336087 0.67835969
0.0046125101 0.01729697 0.67921954
0.0046413601 0.016244769 0.68009019
0.0046705888 0.015179425 0.68097222
0.0047001718 0.014100522 0.68186498
0.0047301319 0.013007879 0.68276912
0.0047604931 0.01190123 0.68368536
0.00479123 0.010780275 0.68461293
0.0048223659 0.0096447468 0.68555248
0.0048539266 0.0084944069 0.6865049
0.0048859031 0.0073288977 0.6874699
0.0049182861 0.0061478913 0.68844718
0.0049511017 0.0049511194 0.68943745
0.0049843579 0.0037382841 0.69044107
0.0050180638 0.0025090575 0.69145823
0.0050522462 0.0012630522 0.69248974
0.0050871777 2.9802322e-08 0.69354391
0.0051242765 -0.0012810826 0.69466352
0.0051639914 -0.0025819838 0.69586205
0.0052062375 -0.0039046705 0.69713688
0.0052512032 -0.0052511692 0.69849384
0.0052979216 -0.0066224039 0.69990373
0.0053454787 -0.0080181658 0.70133883
0.0053938967 -0.0094392896 0.70279998
0.0054432219 -0.010886431 0.70428854
0.005493436 -0.012360245 0.70580387
0.0055445847 -0.013861477 0.70734745
0.0060270387 -0.016574323 0.72190672
0.0060732579 -0.018219769 0.72330153
0.0061201919 -0.019890606 0.72471792
0.006167857 -0.021587491 0.72615629
0.0062162979 -0.023311108 0.72761822
0.0062654777 -0.025061905 0.72910225
0.0063154702 -0.026840746 0.73061097
0.006366238 -0.028648108 0.73214304
0.0063945022 -0.030373871 0.73299593
0.0063575311 -0.031787664 0.73188025
0.0063412301 -0.033291459 0.73138833
0.0063989474 -0.035194218 0.7331301
0.006457726 -0.037131906 0.73490387
0.0065176249 -0.039105743 0.73671144
0.006578614 -0.041116327 0.73855197
0.0066408189 -0.043165296 0.74042922
0.0067051812 -0.045259953 0.74237144
0.006770771 -0.047395378 0.74435085
0.0068376898 -0.049573243 0.74637032
0.0069059106 -0.05179432 0.74842906
0.0069755414 -0.054060429 0.7505303
0.0060456404 0.049574256 0.68597943
0.0060093803 0.04807508 0.68510401
0.0060505671 0.047194451 0.6860984
0.0060925581 0.046303481 0.68711209
0.0061379536 0.045420855 0.6882081
0.0061841626 0.044525981 0.68932366
0.0062311175 0.043617874 0.69045722
0.0055279033 0.037589759 0.67348015
0.0054993993 0.03629607 0.67279202
0.0054955548 0.035171568 0.67269921
0.0055175456 0.034208775 0.67323011
0.0055447519 0.033268541 0.67388695
0.0055722278 0.03231892 0.67455018
0.0055999774 0.031359881 0.67522013
0.0056149447 0.030320704 0.67558151
0.0056343749 0.029298723 0.6760506
0.0056195399 0.028097719 0.67569244
0.0055651772 0.026712865 0.67438
0.0055530639 0.025544077 0.67408758
0.0055709411 0.024512172 0.67451918
0.0056046201 0.023539394 0.67533225
0.0056386902 0.022554785 0.67615473
0.0056731775 0.021558076 0.67698735
0.0057080882 0.020549119 0.67783022
0.005743451 0.019527763 0.678684
0.0057792356 0.018493563 0.67954785
0.0058154687 0.017446429 0.6804226
0.0058521787 0.016386122 0.68130881
0.0058893352 0.015312284 0.68220586
0.0059269662 0.014224738 0.68311435
0.005965102 0.013123274 0.68403506
0.0060037109 0.012007445 0.68496716
0.0060428227 0.010877103 0.68591142
0.0060824477 0.0097319484 0.68686807
0.0061226171 0.0085716844 0.68783784
0.0061632991 0.0073959827 0.68881994
0.006204525 0.0062045753 0.68981522
0.0062463288 0.0049971044 0.69082451
0.006288677 0.0037732124 0.69184685
0.0063316035 0.002532661 0.69288313
0.0063751428 0.0012750328 0.69393432
0.0064192615 2.9802322e-08 0.69499946
0.0064640194 -0.0012927651 0.69607997
0.0065093818 -0.0026037395 0.69717515
0.0065554096 -0.0039331913 0.69828629
0.0066020428 -0.0052815974 0.69941217
0.0066493955 -0.006649375 0.70055532
0.0066974061 -0.0080368519 0.70171446
0.0067461412 -0.0094445646 0.70289105
0.0067955647 -0.0108729 0.70408422
0.0068457443 -0.012322307 0.70529556
0.0068985326 -0.013797075 0.70657003
0.0069556488 -0.01530242 0.70794898
0.0076559037 -0.018374145 0.72485459
0.0077226041 -0.020078778 0.72646493
0.0077883815 -0.021807492 0.72805297
0.007853088 -0.023559242 0.72961503
0.0079171816 -0.025334984 0.73116243
0.0079810107 -0.027135432 0.73270345
0.0080327829 -0.028917998 0.7339533
0.0079975436 -0.03039065 0.73310256
0.007938562 -0.031754255 0.73167861
0.00795973 -0.033430845 0.73218966
0.0080310376 -0.035336524 0.7339111
0.0081038987 -0.037277907 0.73567021
0.0081781326 -0.039255023 0.73746234
0.0082537392 -0.041268706 0.73928767
0.0083307168 -0.043319702 0.74114609
0.0084091844 -0.04540959 0.74304044
0.0084897252 -0.047542483 0.74498487
0.0085725011 -0.049720466 0.74698323
0.0086569497 -0.051941663 0.74902201
0.0087430347 -0.054206789 0.7511003
0.0071372925 0.047581971 0.68361598
0.00710078 0.046155065 0.68288141
0.0071544866 0.045311749 0.68396193
0.007207741 0.04444775 0.68503332
0.0067814607 0.040688783 0.67645717
0.006702452 0.039097667 0.67486763
0.0066562728 0.037718892 0.67393863
0.0066422764 0.036532521 0.67365706
0.0066580372 0.035509557 0.67397416
0.0066884537 0.034557015 0.67458606
0.0067197126 0.033598572 0.67521495
0.0067521399 0.032635361 0.67586732
0.0067780213 0.031630784 0.67638803
0.0067936149 0.030571282 0.67670172
0.0067941239 0.029441208 0.67671198
0.00673419 0.028059155 0.67550623
0.0066761808 0.026704699 0.67433918
0.0066764588 0.025593132 0.67434472
0.0067139566 0.024617851 0.67509913
0.0067594298 0.023658037 0.67601395
0.0068040797 0.022680283 0.67691225
0.0068492335 0.021689266 0.67782074
0.0068949908 0.020684987 0.67874128
0.0069413632 0.019667238 0.67967421
0.0069882469 0.018635333 0.68061745
0.0070345332 0.01758638 0.6815486
0.0070807151 0.016521662 0.68247777
0.0071274838 0.015442878 0.68341863
0.0071747997 0.01434961 0.68437058
0.0072221481 0.013240635 0.68532318
0.007269314 0.012115538 0.68627203
0.0073171258 0.010975718 0.68723392
0.0073655439 0.0098207295 0.68820804
0.0074146078 0.0086503625 0.68919516
0.0074643302 0.0074643493 0.69019544
0.0075147506 0.0062623322 0.69120985
0.007565829 0.0050438941 0.6922375
0.0076176068 0.0038087964 0.69327915
0.007670098 0.0025567412 0.69433522
0.0077233464 0.0012872517 0.6954065
0.0077773104 2.9802322e-08 0.69649214
0.0078320336 -0.0013053119 0.69759309
0.0078875627 -0.0026291907 0.69871026
0.0079438547 -0.0039719045 0.69984275
0.008000955 -0.0053339601 0.70099157
0.008058914 -0.0067157745 0.70215762
0.008117687 -0.0081176758 0.70334005
0.0081773549 -0.0095402598 0.70454049
0.0082379067 -0.010983884 0.70575869
0.0082902545 -0.012435406 0.70681185
0.0083502885 -0.013917148 0.70801961
0.0090164728 -0.016530186 0.7214222
0.0091068633 -0.018213719 0.72324073
0.0091709197 -0.019870311 0.72452945
0.0092589762 -0.02160424 0.72630095
0.0093753524 -0.023438394 0.72864228
0.0094875172 -0.025300026 0.73089892
0.0095876949 -0.027165145 0.73291433
0.0096446453 -0.028933913 0.73406005
0.0095868576 -0.030358344 0.73289746
0.009531239 -0.031770766 0.7317785
0.0096075777 -0.033626527 0.73331434
0.0096917227 -0.035536319 0.73500717
0.0097773541 -0.037479848 0.73672998
0.0098657729 -0.039463103 0.73850876
0.0099559957 -0.041483283 0.74032396
0.010047835 -0.043540597 0.74217159
0.010141433 -0.045636445 0.74405468
0.010236743 -0.047771454 0.7459721
0.010333912 -0.049947202 0.74792701
0.010433622 -0.052168101 0.749933
0.010536179 -0.054436922 0.75199634
0.0082127741 0.045756906 0.68164897
0.008098932 0.043965638 0.67968583
0.0079994192 0.042282641 0.67796981
0.0079125026 0.040692896 0.67647099
0.0078538414 0.039269239 0.67545938
0.0078260442 0.038012207 0.67498004
0.0078353714 0.03693819 0.67514092
0.0078694429 0.035974622 0.67572844
0.0079038115 0.035002619 0.67632109
0.0079384558 0.034021974 0.67691851
0.007969304 0.033015698 0.67745048
0.0079763606 0.031905442 0.67757219
0.0079881223 0.03081134 0.67777503
0.0079559833 0.029550821 0.67722082
0.007857901 0.028063923 0.67552942
0.0077749602 0.026657015 0.67409909
0.007769397 0.025528014 0.67400318
0.0078101619 0.024546236 0.67470616
0.0078669228 0.023600757 0.67568499
0.0079245158 0.02264148 0.67667818
0.0079822764 0.021666199 0.67767417
0.0080393171 0.02067259 0.67865783
0.0080972062 0.019664645 0.67965609
0.0081559066 0.018642068 0.68066835
0.0082154926 0.017604649 0.68169588
0.0082758442 0.016551673 0.68273658
0.0083358018 0.015480787 0.68377054
0.0083961133 0.014393359 0.68481058
0.0084572164 0.013289928 0.68586421
0.0085191848 0.012170285 0.6869328
0.0085820686 0.011034101 0.68801725
0.0086446274 0.0098795593 0.68909597
0.0087078242 0.0087078512 0.69018579
0.0087712873 0.0075182617 0.69128019
0.00883565 0.0063111782 0.69239008
0.0089001833 0.0050858259 0.6935029
0.0089655006 0.0038423538 0.69462931
0.0090301074 0.0025800467 0.69574338
0.0090951417 0.0012993217 0.69686484
0.0091609126 -0 0.69799906
0.009226907 -0.0013181269 0.69913709
0.0092929704 -0.0026551187 0.70027626
0.0093599511 -0.0040114224 0.70143133
0.0094279051 -0.0053873658 0.70260316
0.0094968509 -0.0067834556 0.7037921
0.0095668519 -0.0082001388 0.70499921
0.0096378541 -0.0096378326 0.70622361
0.0096906526 -0.01107502 0.70713407
0.0096584056 -0.012417912 0.70657802
0.0096800849 -0.013828695 0.70695186
0.0097700609 -0.015352935 0.70850343
0.0098680863 -0.016916692 0.71019375
0.010598978 -0.019683808 0.72279763
0.010699594 -0.02139917 0.72453266
0.01080737 -0.02315864 0.7263912
0.010918761 -0.02495715 0.72831202
0.011032472 -0.026793122 0.73027289
0.011148577 -0.028667748 0.73227501
0.011169362 -0.0303168 0.73263347
0.011197127 -0.03199178 0.73311234
0.01129336 -0.033880055 0.73477179
0.011391314 -0.035801262 0.73646092
0.011490927 -0.037755907 0.73817867
0.011592409 -0.03974539 0.73992872
0.011695756 -0.041770518 0.74171084
0.011801591 -0.043834448 0.74353588
0.01191041 -0.045940101 0.74541241
0.012021313 -0.048085213 0.74732488
0.012134361 -0.050270885 0.74927425
0.012249494 -0.052497804 0.75125968
0.0093238195 0.044288158 0.68071032
0.0091999536 0.042549789 0.67884135
0.0091189798 0.041035414 0.67761958
0.0090782689 0.039717436 0.67700523
0.0090916902 0.038639694 0.67720771
0.0091222422 0.037629247 0.67766875
0.0091553815 0.036621541 0.67816877
0.0091887629 0.035606474 0.67867249
0.0092106843 0.034540117 0.67900324
0.0092109898 0.033389837 0.67900789
0.0092147756 0.032251686 0.67906499
0.0091776894 0.030974716 0.67850542
0.0091891875 0.029864877 0.67867887
0.0092410594 0.028878331 0.6794616
0.0088909548 0.02667287 0.6741789
0.0088871177 0.025550485 0.67412102
0.0089303721 0.024558514 0.67477369
0.0089856833 0.023587406 0.67560822
0.0090416828 0.022604227 0.67645323
0.0090983855 0.02160868 0.6773088
0.0091567989 0.020602793 0.67819023
0.0092165479 0.019585162 0.67909169
0.0092793116 0.018558651 0.68003875
0.0093433121 0.017518759 0.68100441
0.0094097629 0.016467124 0.68200707
0.0094779078 0.015401602 0.68303537
0.0095484573 0.014322698 0.68409979
0.009621731 0.013229877 0.68520546
0.0096972538 0.012121558 0.68634498
0.0097744176 0.010996222 0.6875093
0.0098522613 0.0098522902 0.68868387
0.0099313548 0.00868994 0.68987733
0.010011043 0.0075083077 0.69107974
0.010091214 0.0063070059 0.69228941
0.010171079 0.0050855577 0.6934945
0.010252181 0.003844589 0.69471824
0.010334434 0.0025836229 0.69595933
0.010418016 0.0013023019 0.69722044
0.010501335 5.9604645e-08 0.69847763
0.010585433 -0.0013231635 0.69974661
0.010670929 -0.0026677549 0.70103669
0.010757484 -0.0040340424 0.70234269
0.010843679 -0.0054218471 0.7036432
0.010931094 -0.0068319142 0.70496225
0.01101993 -0.0082649291 0.7063027
0.011106893 -0.0097185075 0.70761478
0.011099176 -0.01109916 0.70749843
0.01106027 -0.012442797 0.70691139
0.011036469 -0.013795555 0.70655221
0.011034979 -0.015173107 0.7065298
0.01112178 -0.016682655 0.70783949
0.011232424 -0.018252641 0.70950896
0.012312765 -0.021547318 0.72581005
0.012410449 -0.023269564 0.72728395
0.012509695 -0.025019407 0.72878152
0.012610542 -0.026797354 0.73030305
0.012713026 -0.028604329 0.73184955
0.012816777 -0.030439824 0.73341501
0.012922176 -0.032305419 0.73500538
0.013030727 -0.034205645 0.73664325
0.013141615 -0.036139429 0.73831642
0.013254785 -0.038107485 0.74002403
0.013370499 -0.040111512 0.74177003
0.013488841 -0.042152584 0.74355567
0.013609364 -0.044230431 0.7453742
0.01373206 -0.046345711 0.74722558
0.013856919 -0.048499197 0.74910951
0.013984281 -0.050693005 0.75103128
0.014115724 -0.052933961 0.75301456
0.011529367 0.046117514 0.69466007
0.011521041 0.044804066 0.69454837
0.011152692 0.042132378 0.68960798
0.010699419 0.039231241 0.68352854
0.010606124 0.037710667 0.68227726
0.010535944 0.036290497 0.68133599
0.010546 0.035153329 0.68147087
0.010492147 0.033808023 0.68074852
0.010423289 0.032428026 0.67982501
0.010409065 0.031227201 0.67963421
0.010459896 0.030217469 0.68031597
0.01082677 0.030074358 0.68523657
0.010879692 0.029012531 0.68594646
0.010077783 0.025754362 0.67519099
0.01013967 0.024785876 0.6760211
0.010202324 0.023805439 0.67686135
0.010265756 0.022812843 0.67771214
0.010329982 0.02180776 0.67857355
0.010395017 0.02079007 0.67944586
0.010461366 0.0197604 0.6803357
0.010528531 0.018717378 0.68123657
0.0105966 0.017661005 0.68214953
0.01066552 0.016590863 0.68307388
0.010735341 0.015506655 0.68401033
0.010806045 0.014408052 0.6849587
0.010877724 0.013294995 0.68592006
0.010950322 0.012167037 0.68689376
0.011023936 0.011023968 0.68788111
0.011098506 0.0098653734 0.68888122
0.011174131 0.0086910129 0.68989551
0.011251078 0.0075007379 0.69092751
