# .PCD v0.7 - Point Cloud Data file format
VERSION 0.7
FIELDS x y z
SIZE 4 4 4
TYPE F F F
COUNT 1 1 1
WIDTH 1330
HEIGHT 1
VIEWPOINT 0 0 0 1 0 0 0
POINTS 1330
DATA ascii
-0.010896601 -0 0.70444179
-0.010962434 -0.0013702512 0.70543504
-0.010888021 -0.0027219951 0.70431232
-0.010505502 -0.003939569 0.69854051
-0.010500542 -0.0052502751 0.6984657
-0.010835057 -0.0067719221 0.70351315
-0.011097006 -0.0083227456 0.70746565
-0.011113243 -0.0097241104 0.70771068
-0.011106982 -0.011106968 0.70761615
-0.01109962 -0.012487084 0.70750511
-0.01108855 -0.013860703 0.70733809
-0.011076753 -0.015230566 0.70716006
-0.011041642 -0.016562432 0.70663029
-0.010514204 -0.017085552 0.69867188
-0.01050713 -0.018387467 0.69856513
-0.010910672 -0.020457506 0.7046541
-0.010985873 -0.021971703 0.70578879
-0.010970611 -0.023312569 0.70555854
-0.010950343 -0.024638265 0.70525271
-0.010929504 -0.025957555 0.70493823
-0.010908745 -0.027271837 0.70462501
-0.010886316 -0.028576583 0.70428658
-0.010832692 -0.029789925 0.7034775
-0.010651059 -0.030621797 0.70073682
-0.010469299 -0.031407893 0.69799423
-0.010440084 -0.032625228 0.6975534
-0.010096932 -0.03281498 0.69237566
-0.010074465 -0.034001321 0.69203669
-0.010059444 -0.035208046 0.69181007
-0.010045812 -0.036416054 0.69160432
-0.01003265 -0.037622422 0.69140577
-0.010019487 -0.038825512 0.69120711
-0.010005998 -0.040023983 0.69100368
-0.0099927252 -0.04121998 0.69080335
-0.0099819601 -0.042423278 0.69064087
-0.010295126 -0.045041144 0.69536626
-0.010301688 -0.046357542 0.69546521
-0.010301382 -0.0476439 0.69546062
-0.010300658 -0.050215691 0.69544965
-0.01027659 -0.051382929 0.69508654
-0.010316906 -0.052874118 0.6956948
-0.010629317 0.047072709 0.72332072
-0.010522678 0.045097202 0.7214818
-0.010450745 0.04329595 0.72024137
-0.010391407 0.041565657 0.71921813
-0.010336472 0.039869249 0.71827084
-0.010290902 0.038223386 0.71748501
-0.010251518 0.0366126 0.71680582
-0.010446929 0.03581807 0.72017562
-0.0106877 0.035116732 0.72432756
-0.010704491 0.033642709 0.72461712
-0.010688921 0.032066762 0.72434855
-0.010064118 0.028754622 0.71357429
-0.010032113 0.027230054 0.71302235
-0.010002409 0.025720477 0.71251011
-0.0099741071 0.024222821 0.71202207
-0.0099459654 0.022733629 0.71153677
-0.0099179819 0.021252841 0.71105421
-0.0098901549 0.019780338 0.71057439
-0.0098638441 0.018318564 0.71012068
-0.0098377923 0.016864777 0.70967138
-0.0098133022 0.015420943 0.70924908
-0.0097893281 0.01398477 0.70883566
-0.0097666867 0.012557209 0.70844525
-0.009744579 0.011136651 0.70806396
-0.0092983702 0.0092983842 0.70036936
-0.0092870099 0.0079603195 0.70017344
-0.009397489 0.0067125261 0.7020787
-0.0096383886 0.0055076778 0.70623285
-0.0097794095 0.00419119 0.70866466
-0.0097996229 0.0027998984 0.70901316
-0.0098061813 0.001400888 0.70912629
-0.0098055089 -2.9802322e-08 0.70911467
-0.0098030195 -0.0014004409 0.70907176
-0.0097929155 -0.0027979612 0.70889753
-0.0092778346 -0.0039761961 0.70001531
-0.0092803482 -0.005303055 0.70005858
-0.0094936267 -0.0067811608 0.70373648
-0.0097397799 -0.0083483756 0.70798129
-0.0097447746 -0.0097447336 0.70806736
-0.0097296108 -0.011119545 0.70780587
-0.0097125936 -0.01248762 0.7075125
-0.0096942447 -0.013848931 0.70719606
-0.0096754646 -0.015204281 0.70687222
-0.0096420953 -0.016529292 0.70629674
-0.0092089158 -0.017102271 0.69882685
-0.0091935303 -0.01838702 0.69856149
-0.0091899177 -0.019692689 0.69849926
-0.0095714824 -0.021877617 0.70507908
-0.0095648961 -0.023229003 0.70496553
-0.009546238 -0.024547458 0.70464373
-0.0095269447 -0.02585879 0.70431101
-0.0088967001 -0.025419116 0.69344282
-0.0088795181 -0.026638567 0.69314659
-0.0088666677 -0.027866662 0.69292498
-0.0088547887 -0.029094279 0.69272017
-0.0088431351 -0.030319303 0.69251919
-0.0088315438 -0.031541198 0.69231927
-0.0088199507 -0.032759786 0.69211936
-0.0088082599 -0.033974707 0.69191778
-0.0087964423 -0.035185754 0.69171405
-0.0087849731 -0.036394894 0.69151628
-0.008773692 -0.037601531 0.69132167
-0.008762598 -0.038805783 0.69113034
-0.0087515945 -0.040007263 0.69094062
-0.0087408386 -0.041206777 0.69075513
-0.008730391 -0.042404771 0.690575
-0.0087617766 -0.043808848 0.69111615
-0.0090036998 -0.046304733 0.695288
-0.0090117063 -0.04763332 0.69542605
-0.0090763057 -0.050568014 0.69654006
-0.0089916838 -0.051381022 0.69508082
-0.0090133427 -0.05279243 0.6954543
-0.0092059076 0.056769758 0.72523332
-0.0090998672 0.054599226 0.72309995
-0.009035347 0.052706212 0.72180188
-0.0089819012 0.050897479 0.72072667
-0.00893379 0.049135864 0.71975875
-0.0088933175 0.047431052 0.71894449
-0.0088540753 0.045746058 0.71815503
-0.008818198 0.044090986 0.71743321
-0.0087845726 0.042458802 0.7167567
-0.0087528555 0.040846676 0.71611857
-0.0087227887 0.039252549 0.71551371
-0.0086939074 0.037673622 0.71493268
-0.0086674495 0.036114395 0.71440041
-0.0086428719 0.034571499 0.71390593
-0.0086183986 0.033037215 0.71341348
-0.0085939206 0.031511039 0.71292108
-0.008569546 0.029993415 0.71243072
-0.0085453456 0.028484523 0.71194386
-0.0085212458 0.026983976 0.71145892
-0.0084978696 0.025493652 0.7109887
-0.0084815864 0.024031162 0.71066111
-0.0084718326 0.022591591 0.71046489
-0.0084685637 0.021171421 0.71039915
-0.0084954463 0.019822717 0.71093994
-0.0085469568 0.018518418 0.71197629
-0.0085990606 0.017198116 0.7130245
-0.0086129503 0.015790433 0.71330392
-0.0083404332 0.013900757 0.70782131
-0.0083230529 0.01248461 0.70747167
-0.0083123343 0.011083096 0.70725602
-0.0079951249 0.0093276501 0.70087427
-0.0079959529 0.0079959929 0.7008909
-0.0080998987 0.006749928 0.70298213
-0.0084015047 0.0056010187 0.70904994
-0.0084542781 0.0042271614 0.71011174
-0.008451296 0.0028171241 0.71005166
-0.0084425695 0.0014071465 0.70987612
-0.0084319161 -0 0.70966184
-0.0084199291 -0.0014033318 0.70942068
-0.008405569 -0.0028018355 0.70913172
-0.0079931328 -0.003996551 0.70083416
-0.0079841027 -0.0053227246 0.70065254
-0.0080306958 -0.0066922307 0.70158988
-0.0083170431 -0.0083170235 0.70735073
-0.0083252462 -0.0097127557 0.70751578
-0.0083105452 -0.011080712 0.70722002
-0.0082945088 -0.012441754 0.70689738
-0.0082785347 -0.013797551 0.70657599
-0.0082625234 -0.015147954 0.70625389
-0.0082382653 -0.016476482 0.70576584
-0.007840517 -0.016987771 0.6977638
-0.007680723 -0.017921627 0.6945489
-0.0076669669 -0.019167393 0.69427222
-0.0076562958 -0.020416796 0.69405758
-0.0076461597 -0.021664113 0.69385356
-0.0076360214 -0.022908062 0.69364965
-0.0076259105 -0.024148703 0.69344622
-0.007615854 -0.025386155 0.69324386
-0.0076057962 -0.026620269 0.69304162
-0.0075957924 -0.027851224 0.69284034
-0.0075856219 -0.029078215 0.69263572
-0.0075756162 -0.030302435 0.69243437
-0.0075659389 -0.031524748 0.6922397
-0.0075571355 -0.032747567 0.69206262
-0.0075516333 -0.033982337 0.69195187
-0.0075548077 -0.03525579 0.69201577
-0.0076105716 -0.03678441 0.69313765
-0.0076729492 -0.038364708 0.69439256
-0.0077241762 -0.039908201 0.69542319
-0.0076481793 -0.04079023 0.69389421
-0.0075018792 -0.041260332 0.69095093
-0.0074968613 -0.042482227 0.69085002
-0.0075261714 -0.043902636 0.69143963
-0.0077175712 -0.046305418 0.69529033
-0.0077271536 -0.047650784 0.69548309
-0.0077172001 -0.050161809 0.69528282
-0.0077122613 -0.051415056 0.69518352
-0.0077224025 -0.052769721 0.69538754
-0.0076530706 0.064285815 0.72478622
-0.00759529 0.0622814 0.72339129
-0.0075486926 0.060389578 0.72226632
-0.0075076236 0.058559507 0.72127485
-0.0074727805 0.056793153 0.72043365
-0.0074393102 0.05505091 0.71962559
-0.0074090124 0.053344935 0.71889412
-0.0073802769 0.051661938 0.71820045
-0.0073531331 0.050001323 0.71754509
-0.0073278872 0.048364073 0.71693558
-0.0073031522 0.046740204 0.7163384
-0.0072801388 0.045136839 0.71578288
-0.0072586951 0.04355216 0.71526515
-0.0072380104 0.041980475 0.71476579
-0.0072174137 0.040417522 0.71426851
-0.0071969335 0.03886345 0.71377409
-0.007176599 0.037318319 0.71328318
-0.0071563493 0.035781741 0.7127943
-0.0071369177 0.034257203 0.71232522
-0.0071189031 0.032746941 0.71189034
-0.0071012699 0.031245619 0.71146458
-0.0070840702 0.029753089 0.71104938
-0.007108185 0.028432757 0.71163154
-0.0071798614 0.02728349 0.71336198
-0.0072240159 0.02600649 0.71442795
-0.0072371662 0.024606377 0.7147454
-0.0072366539 0.023157269 0.71473306
-0.007232015 0.021696061 0.71462101
-0.0072244667 0.020228535 0.7144388
-0.0072146864 0.018758208 0.71420264
-0.0072018858 0.017284542 0.71389365
-0.0069325566 0.015251666 0.7073915
-0.0069182841 0.013836563 0.70704693
-0.006914732 0.012446523 0.70696115
-0.0070308615 0.011249393 0.70976478
-0.0067361756 0.0094306767 0.70265043
-0.0067282189 0.0080738664 0.70245832
-0.0067312689 0.0067312717 0.70253193
-0.0069954465 0.0055963993 0.70890975
-0.0070419475 0.0042251945 0.71003234
-0.0070354454 0.0028142333 0.7098754
-0.0070216549 0.001404345 0.70954251
-0.0070078899 2.9802322e-08 0.70921016
-0.0069941794 -0.0013988316 0.70887917
-0.0069791479 -0.0027916133 0.70851624
-0.0066537503 -0.0039922595 0.70066047
-0.0066375318 -0.005309999 0.70026898
-0.0066266204 -0.0066266358 0.70000553
-0.0068949461 -0.0082738996 0.70648348
-0.0064648376 -0.0090507269 0.69609976
-0.0064473241 -0.010315716 0.69567692
-0.0064366944 -0.01158604 0.69542032
-0.0064280257 -0.012856036 0.69521105
-0.0064194277 -0.014122695 0.69500345
-0.0064108763 -0.015386105 0.69479704
-0.0064023244 -0.016645998 0.69459051
-0.0063938182 -0.017902702 0.69438517
-0.0063853115 -0.01915592 0.69417983
-0.0063768276 -0.020405829 0.69397497
-0.0063683894 -0.02165249 0.69377124
-0.0063599497 -0.022895813 0.69356751
-0.0063515562 -0.024135888 0.69336486
-0.0063448069 -0.025379211 0.69320196
-0.0063419347 -0.026636094 0.69313264
-0.0063586696 -0.027978152 0.69353664
-0.0064109475 -0.029490352 0.69479871
-0.0064641158 -0.031027764 0.69608235
-0.0064932276 -0.032466114 0.69678509
-0.0064961896 -0.033780158 0.69685668
-0.0064948299 -0.035072058 0.69682384
-0.0064911898 -0.036350638 0.69673592
-0.0064850836 -0.037613451 0.69658852
-0.0064785546 -0.038871318 0.69643092
-0.0064715561 -0.040123671 0.69626194
-0.0064603658 -0.041346312 0.69599175
-0.0063113854 -0.041655153 0.69239509
-0.0063001248 -0.042840809 0.69212317
-0.0063962666 -0.044773877 0.6944443
-0.0064374097 -0.046349347 0.69543755
-0.0064458409 -0.047699183 0.6956411
-0.0064434502 -0.048970193 0.6955834
-0.0064397007 -0.050229639 0.69549286
-0.0064359554 -0.051487625 0.6954025
-0.0064408225 -0.052814722 0.69551998
-0.0060284762 0.066313267 0.72195017
-0.0060010166 0.064510942 0.72112143
-0.0059764506 0.062752783 0.72038007
-0.0059530288 0.061018556 0.71967328
-0.0059306244 0.059306264 0.71899718
-0.0059102224 0.057624698 0.71838146
-0.0058899601 0.055954635 0.71777004
-0.0058710263 0.054307044 0.71719867
-0.0058530769 0.052677721 0.71665692
-0.0058359224 0.051064372 0.71613926
-0.0058191852 0.049463093 0.71563423
-0.0058025438 0.047870994 0.715132
-0.005785997 0.046287984 0.71463263
-0.0057701673 0.044718862 0.71415496
-0.0057545668 0.043159306 0.7136842
-0.0057400223 0.041615188 0.71324521
-0.0057256925 0.040079862 0.71281284
-0.0057116221 0.038553476 0.71238816
-0.005697994 0.037036985 0.71197695
-0.0056847106 0.035529464 0.7115761
-0.0056716735 0.03403005 0.71118265
-0.0056589269 0.032538861 0.71079797
-0.0056464435 0.03105545 0.71042126
-0.005640211 0.02961114 0.71023315
-0.0057399273 0.028699666 0.71324235
-0.0058108647 0.027601629 0.71538317
-0.0058095045 0.026142806 0.71534204
-0.005796663 0.024635851 0.71495456
-0.0057826028 0.023130447 0.71453023
-0.0057685389 0.021632016 0.71410584
-0.005754543 0.020140916 0.71368349
-0.0057406388 0.018657058 0.71326387
-0.0055349357 0.016604811 0.70705622
-0.0055249468 0.015193611 0.7067548
-0.0055265725 0.013816446 0.7068038
-0.0056333072 0.012674958 0.71002483
-0.0056672567 0.011334538 0.71104932
-0.0056624771 0.0099093616 0.71090508
-0.0053903824 0.0080856085 0.70269394
-0.0053832629 0.0067290664 0.70247912
-0.005565878 0.0055658817 0.70799005
-0.0056100688 0.0042075813 0.70932353
-0.0056071719 0.0028036237 0.70923615
-0.0055960417 0.00139907 0.70890027
-0.0055845743 2.9802322e-08 0.70855415
-0.00520893 -0.0013022125 0.69721812
-0.0051961164 -0.0025980473 0.69683146
-0.0051882025 -0.0038911104 0.69659263
-0.0051812013 -0.0051811934 0.69638133
-0.0051742187 -0.0064677596 0.69617063
-0.0051672552 -0.0077508688 0.69596052
-0.0051603103 -0.0090305507 0.69575095
-0.0051533841 -0.010306776 0.69554186
-0.0051464955 -0.011579603 0.69533402
-0.0051396061 -0.012849003 0.69512606
-0.0051327352 -0.014115006 0.69491875
-0.005125883 -0.015377641 0.69471198
-0.0051191053 -0.016637057 0.69450742
-0.0051126275 -0.017894149 0.69431192
-0.0051062414 -0.019148409 0.69411922
-0.005101874 -0.020407468 0.69398743
-0.0051842355 -0.022032976 0.69647288
-0.0052284664 -0.023528069 0.69780767
-0.0052726781 -0.025045186 0.69914186
-0.0053176237 -0.026588112 0.70049822
-0.0053633419 -0.028157532 0.70187783
-0.0053792628 -0.029585928 0.70235837
-0.0053575947 -0.030806154 0.7017045
-0.0052675423 -0.031605244 0.69898689
-0.0052158497 -0.032599062 0.69742692
-0.0052100625 -0.033865362 0.69725233
-0.0052044438 -0.035129994 0.69708276
-0.0051987986 -0.036391556 0.69691235
-0.0051931459 -0.037650317 0.69674182
-0.005187796 -0.038908452 0.69658035
-0.0051825535 -0.040164798 0.69642216
-0.0051766085 -0.04141286 0.69624275
-0.005125429 -0.042284757 0.69469821
-0.0051182569 -0.043505162 0.69448179
-0.0051276227 -0.044866681 0.69476444
-0.0051578209 -0.046420336 0.69567579
-0.0051645096 -0.047771722 0.69587767
-0.0051624379 -0.049043149 0.69581509
-0.0051601953 -0.050311863 0.69574744
-0.0051579741 -0.051579744 0.69568038
-0.0051607704 -0.052897871 0.69576478
-0.0044715703 0.067073584 0.71994686
-0.0044537266 0.065321356 0.71922886
-0.0044390089 0.063625813 0.71863669
-0.0044253464 0.061954856 0.71808696
-0.0044117491 0.060293883 0.71753985
-0.0043988661 0.058651567 0.71702147
-0.0043862429 0.057021201 0.71651351
-0.0043741139 0.055405468 0.71602547
-0.0043620332 0.053798407 0.71553946
-0.0043502552 0.052203059 0.71506548
-0.0043392633 0.050624758 0.71462321
-0.0043283263 0.049054384 0.71418315
-0.0043175165 0.047492683 0.71374822
-0.0043071336 0.045942813 0.71333039
-0.0042970842 0.044403225 0.71292609
-0.0042871875 0.042871863 0.71252787
-0.0042774063 0.041348279 0.7121343
-0.004267897 0.039833695 0.7117517
-0.0042586559 0.038327903 0.71137983
-0.0042496626 0.036830425 0.71101797
-0.0042407243 0.035339355 0.71065831
-0.0042318236 0.033854574 0.71030021
-0.0042232173 0.032378048 0.7099539
-0.0042147986 0.030908525 0.70961517
-0.0042066686 0.029446721 0.709288
-0.0042044288 0.028029531 0.70919794
-0.0043321219 0.027436793 0.71433592
-0.0043299086 0.025979459 0.71424681
-0.0043205586 0.024483144 0.71387058
-0.0043095555 0.022984266 0.7134279
-0.0042993175 0.021496594 0.71301597
-0.0042907521 0.020023525 0.71267128
-0.0041456874 0.017964631 0.70683438
-0.0041383142 0.016553283 0.7065376
-0.0041445997 0.01519686 0.70679057
-0.0042285621 0.014095217 0.71016896
-0.0042450936 0.012735277 0.71083415
-0.0042392411 0.011304647 0.71059871
-0.0042311712 0.0098727345 0.71027392
-0.0040223515 0.0080446899 0.70187169
-0.0039374204 0.006562382 0.69845426
-0.0039268006 0.0052357614 0.69802696
-0.0039205533 0.0039205849 0.69777566
-0.003915105 0.0026101172 0.69755644
-0.0039098039 0.0013032556 0.69734317
-0.0039045904 2.9802322e-08 0.6971333
-0.0038993906 -0.0012997985 0.69692415
-0.0038941901 -0.0025961101 0.69671482
-0.0038889309 -0.003888905 0.69650322
-0.0038836859 -0.0051782131 0.69629222
-0.0038784551 -0.0064640641 0.6960817
-0.0038732383 -0.0077464581 0.69587183
-0.0038685524 -0.0090266168 0.6956833
-0.0038658264 -0.010308832 0.69557357
-0.0038683512 -0.011605054 0.69567519
-0.0038990988 -0.012996972 0.69691241
-0.003931866 -0.014416784 0.6982308
-0.0039584879 -0.015833944 0.69930208
-0.0038448093 -0.016660839 0.69472796
-0.0038397107 -0.017918617 0.69452274
-0.0038373079 -0.019186556 0.69442612
-0.0039625508 -0.021133602 0.69946551
-0.0040693162 -0.023059458 0.70376134
-0.0040717009 -0.024430186 0.70385736
-0.0040703015 -0.025778532 0.70380104
-0.0040679192 -0.027119428 0.70370519
-0.0040647471 -0.028453201 0.70357752
-0.004060741 -0.029778749 0.70341641
-0.0040402333 -0.030975103 0.70259118
-0.003967966 -0.031743705 0.69968337
-0.003916679 -0.032638967 0.69761974
-0.0039122547 -0.033906192 0.6974417
-0.0039083674 -0.035175294 0.69728535
-0.0039045464 -0.036442459 0.69713157
-0.0039008497 -0.037708223 0.69698286
-0.0038971601 -0.038971603 0.69683439
-0.0038934774 -0.040232569 0.69668621
-0.0038897435 -0.041490614 0.69653594
-0.0038569581 -0.042426527 0.69521677
-0.0038443697 -0.043569475 0.69471025
-0.0038465685 -0.044876635 0.69479871
-0.0038763925 -0.046516687 0.69599879
-0.0038816901 -0.047874182 0.69621193
-0.0038809532 -0.049158692 0.69618219
-0.0038797399 -0.050436616 0.69613343
-0.0038785129 -0.051713496 0.69608402
-0.0038795809 -0.053020924 0.696127
-0.0029687579 0.068281442 0.71920514
-0.0029477407 0.066324174 0.71793664
-0.0029395239 0.064669549 0.71744072
-0.0029313404 0.063023835 0.71694678
-0.0029234607 0.061392695 0.7164712
-0.0029160266 0.059778571 0.71602255
-0.0029086305 0.058172643 0.71557611
-0.0029012598 0.056574583 0.71513122
-0.0028942274 0.054990351 0.71470684
-0.0028874811 0.053418428 0.71429968
-0.0028807782 0.051854014 0.71389508
-0.0028741062 0.050296843 0.71349239
-0.0028676426 0.048749924 0.71310234
-0.0028614553 0.047214031 0.71272886
-0.0028553768 0.045686066 0.71236199
-0.0028493125 0.044164389 0.71199596
-0.002843274 0.04264912 0.71163148
-0.0028374579 0.041143149 0.71128052
-0.0028317808 0.039644957 0.7109378
-0.0028262069 0.038153827 0.71060145
-0.0028206892 0.036668956 0.71026838
-0.0028225565 0.035281956 0.71038115
-0.0028663888 0.034396678 0.71302664
-0.002887733 0.033208966 0.71431488
-0.0028028395 0.030831248 0.70919108
-0.0027950837 0.029348373 0.70872301
-0.0027898434 0.027898461 0.70840669
-0.0027849353 0.026456892 0.70811051
-0.0027937128 0.025143445 0.70864022
-0.0028625396 0.024331599 0.7127943
-0.0028601952 0.022881567 0.7126528
-0.002855283 0.021414667 0.71235633
-0.0027618697 0.019333094 0.70671833
-0.0027573656 0.017922878 0.70644653
-0.0027529092 0.01651749 0.70617753
-0.0027900338 0.015345216 0.70841813
-0.0028268967 0.014134526 0.71064305
-0.0028229693 0.012703389 0.71040601
-0.0028165621 0.011266261 0.71001935
-0.0026266535 0.0091933012 0.69855732
-0.0026226291 0.0078679025 0.69831443
-0.0026190905 0.0065477192 0.69810086
-0.0026155713 0.0052311718 0.69788849
-0.0026120713 0.0039181113 0.6976772
-0.002608571 0.0026085973 0.69746596
-0.0026050997 0.0013025701 0.69725645
-0.0026016568 2.9802322e-08 0.69704866
-0.0025988645 -0.0012994111 0.6968801
-0.0025957096 -0.0025956929 0.69668967
-0.0025918083 -0.0038876832 0.69645423
-0.0025887766 -0.0051775277 0.69627124
-0.00258606 -0.006465137 0.69610727
-0.0026216791 -0.0078650415 0.69825709
-0.002692153 -0.0094225109 0.7025106
-0.0027200026 -0.010879993 0.70419145
-0.0027340208 -0.012303084 0.70503753
-0.0027368742 -0.013684362 0.70520973
-0.0027372192 -0.015054703 0.70523059
-0.0027369279 -0.016421556 0.70521301
-0.0027260203 -0.01771912 0.70455462
-0.0025783554 -0.018048435 0.69564229
-0.002582178 -0.019366324 0.69587302
-0.0027081836 -0.021665454 0.70347816
-0.0027253467 -0.023165435 0.70451397
-0.0027236589 -0.024512917 0.7044121
-0.0027213446 -0.02585274 0.70427245
-0.0027187469 -0.027187467 0.70411569
-0.0027161222 -0.028519243 0.70395726
-0.0027132167 -0.029845357 0.70378184
-0.0027018976 -0.031071812 0.70309871
-0.0026576018 -0.031891197 0.70042515
-0.002616625 -0.03270781 0.69795203
-0.0026129652 -0.033968538 0.6977312
-0.0026106387 -0.03524363 0.69759077
-0.0026083165 -0.036516398 0.69745058
-0.0026059984 -0.037786931 0.69731063
-0.0026034797 -0.039052159 0.69715869
-0.002600732 -0.040311337 0.69699281
-0.0025955255 -0.041528374 0.69667858
-0.0025631306 -0.042291641 0.69472337
-0.0025513209 -0.043372452 0.69401062
-0.0025497763 -0.04462108 0.69391739
-0.0025912093 -0.046641767 0.69641805
-0.0025951476 -0.04801023 0.69665575
-0.0025953026 -0.049310774 0.69666517
-0.0025948083 -0.05059877 0.69663537
-0.0025943241 -0.051886469 0.69660604
-0.0025949441 -0.053196341 0.69664347
-0.0014674405 0.06750229 0.71716052
-0.0014622901 0.065803081 0.71653879
-0.0014587173 0.064183593 0.71610749
-0.0014552959 0.062577724 0.71569449
-0.0014518907 0.060979426 0.71528339
-0.0014485013 0.059388548 0.71487427
-0.0014451938 0.057807773 0.71447504
-0.0014420868 0.056241393 0.71410006
-0.0014389933 0.054681778 0.71372664
-0.001435907 0.05312857 0.71335411
-0.0014328398 0.051582247 0.71298385
-0.0014298857 0.050046027 0.71262723
-0.0014270376 0.048519284 0.71228349
-0.0014242067 0.046998799 0.71194172
-0.0014213928 0.045484602 0.71160203
-0.0014186595 0.043978453 0.71127212
-0.0014159597 0.04247883 0.7109462
-0.0014133506 0.040987164 0.71063125
-0.0014107454 0.039500892 0.71031684
-0.0014081841 0.038020998 0.71000761
-0.0014057059 0.036548376 0.70970845
-0.0014225682 0.035564184 0.71174395
-0.0014443467 0.034664303 0.71437287
-0.001444707 0.033228278 0.71441627
-0.0014418594 0.031720936 0.71407259
-0.0014373742 0.030184865 0.7135312
-0.0013915085 0.027830154 0.7079947
-0.001389322 0.026397139 0.70773071
-0.0013871478 0.024968654 0.70746833
-0.0013849693 0.02354449 0.70720536
-0.0013836127 0.022137791 0.70704156
-0.0013806439 0.020709664 0.70668322
-0.0013785898 0.019300282 0.70643532
-0.0013765473 0.017895103 0.70618868
-0.0013745433 0.016494542 0.7059468
-0.0013725886 0.015098512 0.70571083
-0.0013706394 0.013706386 0.70547557
-0.0013687336 0.012318611 0.70524549
-0.0013668275 0.010934621 0.70501542
-0.0013133566 0.0091935098 0.69856089
-0.0013107506 0.0078645349 0.69824636
-0.0013090618 0.0065453351 0.69804251
-0.0013080811 0.0052323341 0.69792414
-0.0013176947 0.0039530993 0.69908452
-0.0013289229 0.0026578903 0.70043993
-0.0013403493 0.0013403594 0.70181924
-0.0013519686 -0 0.7032218
-0.0013637965 -0.0013637543 0.70464957
-0.0013756534 -0.0027512908 0.70608085
-0.0013018227 -0.0039054453 0.69716865
-0.0012986892 -0.0051947236 0.6967904
-0.0012984369 -0.0064921677 0.69675994
-0.0013466451 -0.0080798566 0.70257926
-0.0013772838 -0.0096409619 0.70627761
-0.0013781196 -0.011024952 0.70637846
-0.0013769018 -0.012392074 0.70623153
-0.0013756317 -0.013756335 0.70607817
-0.001374315 -0.015117437 0.70591927
-0.0013728978 -0.016474724 0.7057482
-0.0013692999 -0.017800868 0.70531392
-0.0013108494 -0.018351912 0.69825828
-0.0013100537 -0.019650817 0.69816226
-0.0013515163 -0.021624237 0.7031672
-0.0013652057 -0.023208499 0.70481968
-0.0013651039 -0.024571836 0.70480734
-0.0013637483 -0.025911212 0.70464373
-0.0013621765 -0.027243495 0.704454
-0.0013604378 -0.028569192 0.70424414
-0.001358523 -0.029887468 0.70401299
-0.0013552326 -0.031170338 0.70361578
-0.0013360099 -0.032064199 0.70129544
-0.0013116511 -0.032791287 0.69835508
-0.0013079727 -0.034007281 0.69791102
-0.0013057461 -0.035255134 0.69764227
-0.0013030969 -0.036486715 0.69732249
-0.0012998601 -0.037695974 0.69693178
-0.0012649745 -0.037949234 0.69272077
-0.0012615941 -0.039109409 0.69231266
-0.001259445 -0.040302247 0.69205326
-0.0012579495 -0.041512311 0.69187272
-0.0012568801 -0.042733908 0.69174355
-0.0012561667 -0.043965816 0.69165748
-0.0012998844 -0.046795815 0.69693464
-0.0013020519 -0.048175901 0.69719636
-0.0013027256 -0.049503535 0.69727767
-0.0013026622 -0.050803781 0.69726998
-0.0013026035 -0.052104115 0.69726288
-0.0013030628 -0.05342558 0.69731832
0 0.067043602 0.71595681
0 0.0654127 0.71549171
0 0.063820779 0.71511221
0 0.062235504 0.71473372
0 0.060657293 0.71435761
0 0.059091002 0.71399826
0 0.057534516 0.71365041
0 0.055984199 0.71330392
0 0.054440081 0.71295887
0 0.052903384 0.71261942
0 0.051375926 0.7122919
0 0.049856007 0.711972
0 0.048342615 0.71165609
0 0.046834528 0.71134067
0 0.04533419 0.71103472
0 0.043839782 0.71073192
0 0.04235214 0.71043646
0 0.040870309 0.71014476
0 0.039394379 0.70985758
0 0.037923992 0.70957404
0 0.036459744 0.70929694
0 0.035487771 0.71137494
0 0.03459084 0.71400326
0 0.033118278 0.71383888
0 0.031620562 0.71352184
0 0.030121803 0.71316874
0 0.027784675 0.70772004
0 0.02635625 0.70747095
0 0.024932832 0.70722795
0 0.02351442 0.70699167
0 0.022099704 0.70675409
0 0.02068913 0.70651782
0 0.019282997 0.70628619
0 0.017881662 0.70606375
0 0.016483694 0.70583797
0 0.015090048 0.70561796
0 0.013700634 0.70540583
0 0.012319535 0.70525789
0 0.010951608 0.7052716
0 0.009652108 0.70646894
0 0.0078723729 0.69840407
0 0.0065552294 0.69828159
0 0.0053448379 0.70131898
0 0.0041341186 0.70636797
0 0.0027836263 0.70802832
0 0.0013921261 0.7080667
0 2.9802322e-08 0.70798528
0 -0.0013906658 0.7078945
0 -0.0027788877 0.70774549
0 -0.0041632056 0.70753986
0 -0.0052838326 0.69947881
0 -0.0066086352 0.69957167
0 -0.0080735981 0.70245337
0 -0.0096594691 0.70659649
0 -0.01105085 0.70676935
0 -0.012421817 0.70662963
0 -0.01378867 0.70646894
0 -0.015152872 0.70630795
0 -0.016513318 0.70613605
0 -0.017853796 0.70580524
0 -0.018390805 0.69859391
0 -0.019671023 0.69832516
0 -0.020971179 0.69824034
0 -0.023198813 0.70475107
0 -0.02455911 0.70472199
0 -0.025873721 0.70440573
0 -0.027178615 0.7040624
0 -0.028470635 0.70367771
0 -0.029744208 0.70322686
0 -0.030992538 0.70268261
0 -0.030548096 0.69366992
0 -0.031759858 0.69337499
0 -0.032984436 0.69316226
0 -0.034221202 0.69301981
0 -0.035460562 0.69289875
0 -0.036697894 0.6927774
0 -0.037933201 0.69265622
0 -0.039167732 0.69253969
0 -0.040401071 0.69242609
0 -0.041632593 0.6923126
0 -0.042862266 0.69219935
0 -0.04409492 0.69210279
0 -0.045677572 0.69318509
0 -0.048388988 0.69789141
0 -0.049744159 0.69804186
0 -0.051059157 0.69806033
0 -0.052374274 0.69807822
0 -0.053715855 0.69817293
0.001467769 0.068985134 0.71720016
0.0014501758 0.066708088 0.71507645
0.0014469511 0.065112799 0.71468723
0.0014440466 0.063538074 0.71433657
0.0014411657 0.061970115 0.71398884
0.0014384452 0.060414732 0.71366042
0.0014357765 0.058866858 0.71333832
0.0014331175 0.057324737 0.71301734
0.0014304626 0.05578807 0.71269685
0.0014278586 0.054258645 0.71238256
0.0014253283 0.052737147 0.71207714
0.0014228653 0.051223159 0.71177983
0.0014204283 0.049714983 0.71148562
0.0014179994 0.048211962 0.71119249
0.0014156078 0.046715081 0.71090376
0.0014132758 0.045224845 0.71062225
0.0014109918 0.043740749 0.71034652
0.0014087493 0.042262524 0.7100758
0.0014065253 0.040789247 0.7098074
0.0014043311 0.039321274 0.70954251
0.0014021719 0.037858665 0.70928192
0.0014000533 0.036401391 0.7090261
0.0013979748 0.034949362 0.70877528
0.0013959529 0.033502907 0.7085312
0.001393948 0.032060802 0.70828915
0.0013919545 0.030622989 0.70804858
0.0013899611 0.029189199 0.7078079
0.0013880511 0.027761042 0.70757735
0.0013861794 0.026337415 0.70735139
0.0013843073 0.024917543 0.70712543
0.0013824347 0.023501426 0.7068994
0.0013806166 0.022089869 0.70667994
0.0013788415 0.020682663 0.7064656
0.0013770818 0.019279152 0.70625323
0.001375354 0.017879605 0.70604467
0.0013736684 0.016484022 0.70584118
0.0013774312 0.015151739 0.70629537
0.0014056206 0.014056236 0.70969814
0.0014089035 0.012680113 0.71009451
0.0014074824 0.011259884 0.70992291
0.0014059107 0.0098413825 0.70973313
0.001320238 0.0079214573 0.6993916
0.0013213275 0.0066066384 0.69952309
0.0013442799 0.0053771734 0.70229375
0.0013914974 0.0041745007 0.70799339
0.0013977442 0.0027955174 0.70874739
0.001396817 0.0013968349 0.70863545
0.0013956109 2.9802322e-08 0.70848984
0.0013942557 -0.0013942719 0.70832634
0.001392797 -0.0027855933 0.70815027
0.00139123 -0.0041736364 0.70796108
0.0013296653 -0.0053186417 0.70052952
0.0013280492 -0.0066402256 0.70033449
0.0013296144 -0.0079776645 0.70052338
0.0013816541 -0.0096715689 0.70680517
0.001383971 -0.011071742 0.70708477
0.0013819728 -0.012437761 0.70684367
0.0013797065 -0.013797075 0.70657003
0.0013773112 -0.015150368 0.70628089
0.0013748425 -0.016498089 0.70598298
0.0013707638 -0.017819911 0.70549059
0.0013083224 -0.018316478 0.69795322
0.0013039038 -0.019558519 0.69741982
0.0012990145 -0.020784199 0.69682968
0.0012845595 -0.021837503 0.69508481
0.001281603 -0.023068845 0.6947279
0.0012796208 -0.024312794 0.69448864
0.0012782086 -0.025564134 0.69431818
0.0012771843 -0.026820838 0.69419456
0.0012761618 -0.028075546 0.69407111
0.001275169 -0.029328883 0.69395125
0.0012742056 -0.030580938 0.69383502
0.0012732485 -0.031831175 0.69371939
0.0012722927 -0.033079565 0.69360411
0.0012713384 -0.034326136 0.6934889
0.0012703809 -0.035570681 0.69337332
0.0012694295 -0.036813438 0.69325846
0.0012685165 -0.038055509 0.69314826
0.0012676372 -0.039296746 0.69304216
0.0012670086 -0.040544242 0.69296622
0.0012660623 -0.041780025 0.69285202
0.0012652508 -0.04301849 0.69275403
0.0012649053 -0.044271678 0.69271237
0.0012741869 -0.045870721 0.6938327
0.0013151063 -0.048658937 0.69877213
0.0013169155 -0.050042748 0.69899046
0.00131731 -0.051375061 0.69903815
0.0013178096 -0.052712381 0.69909841
0.0013191103 -0.054083496 0.69925547
0.0029105067 0.068396926 0.71568942
0.0028894502 0.066457391 0.71441853
0.0028837547 0.064884514 0.71407473
0.0028783916 0.06332466 0.71375108
0.0028733576 0.061777234 0.71344721
0.0028683883 0.060236156 0.71314728
0.002863436 0.058700442 0.71284842
0.0028585009 0.057170063 0.71255058
0.0028536064 0.055645347 0.71225512
0.0028488804 0.054128736 0.71196991
0.002844298 0.052619576 0.71169335
0.0028397653 0.051115811 0.7114197
0.0028352584 0.049617022 0.71114773
0.0028307657 0.048123032 0.71087658
0.0028263908 0.046635479 0.71061254
0.0028221095 0.045153797 0.71035409
0.0028179442 0.043678164 0.71010274
0.0028138023 0.042207032 0.70985276
0.0028097408 0.040741235 0.7096076
0.0028056798 0.039279521 0.70936251
0.0028016418 0.037822187 0.70911878
0.0027978295 0.036371797 0.70888871
0.0027940162 0.034925222 0.70865852
0.0027902243 0.033482671 0.70842969
0.0027864317 0.032043993 0.70820081
0.0027835076 0.030618578 0.70802432
0.0027826717 0.029218048 0.7079739
0.0027756253 0.027756244 0.70754856
0.0027721487 0.026335388 0.70733881
0.0027687468 0.024918735 0.70713341
0.0027654965 0.023506731 0.70693725
0.0027831621 0.022265345 0.7080034
0.0028339517 0.021254659 0.71106887
0.002756261 0.019293875 0.70637983
0.0027529853 0.017894417 0.70618212
0.0027497066 0.016498238 0.70598423
0.0027465117 0.015105844 0.70579141
0.0027773003 0.013886511 0.70764965
0.0028168475 0.012675852 0.71003658
0.0028192818 0.011277139 0.7101835
0.0028166878 0.0098584294 0.71002692
0.0026900582 0.0080702305 0.70238411
0.0026862316 0.0067155957 0.70215315
0.0026863045 0.0053726733 0.70215756
0.0027824265 0.0041736364 0.70795906
0.0028009417 0.0028009713 0.70907658
0.0028005354 0.0014002919 0.70905203
0.0027975366 -0 0.70887101
0.0027942632 -0.0013971329 0.70867354
0.0027903588 -0.0027903318 0.7084378
0.0027860408 -0.0041790307 0.70817721
0.0026581406 -0.0053162575 0.70045769
0.0026518519 -0.006629616 0.70007819
0.0026472756 -0.0079418123 0.69980198
0.0027489453 -0.0096212924 0.70593828
0.0027572233 -0.011028856 0.70643795
0.0027496631 -0.012373477 0.70598167
0.0025939948 -0.012970001 0.69658625
0.0025863103 -0.014224708 0.69612247
0.0025816504 -0.015489876 0.69584113
0.0025784704 -0.016760051 0.69564921
0.0025762049 -0.018033415 0.69551247
0.0025741532 -0.019306153 0.69538867
0.0025722 -0.02057761 0.69527078
0.0025702403 -0.02184701 0.69515246
0.0025682931 -0.023114622 0.69503498
0.0025663488 -0.024380296 0.69491768
0.0025643979 -0.025643945 0.69479984
0.0025624596 -0.026905805 0.69468284
0.002560524 -0.028165728 0.69456601
0.0025585913 -0.029423803 0.69444942
0.0025567086 -0.030680507 0.69433576
0.0025551578 -0.031939447 0.69424218
0.0025566993 -0.03323707 0.69433528
0.0025932398 -0.035008729 0.69654059
0.0026329132 -0.036860764 0.69893509
0.0026467815 -0.038378358 0.69977218
0.0026474472 -0.039711714 0.69981235
0.0026470639 -0.041029423 0.69978917
0.0026464388 -0.04234302 0.6997515
0.0026382005 -0.043530285 0.69925427
0.002549187 -0.043336183 0.69388187
0.0025512553 -0.044646978 0.69400668
0.0026401449 -0.047522604 0.69937158
0.0026486579 -0.049000144 0.69988537
0.0026533504 -0.050413609 0.70016861
0.0026553576 -0.051779449 0.70028973
0.0026574291 -0.053148568 0.70041478
0.0026610822 -0.054552197 0.70063525
0.0043502916 0.068154573 0.71506703
0.0043224036 0.066276878 0.71394479
0.004314532 0.064718008 0.71362811
0.0043074363 0.063175738 0.71334255
0.0043005059 0.06164059 0.71306378
0.0042935978 0.06011036 0.71278578
0.0042867116 0.058585078 0.71250868
0.004279865 0.057064891 0.71223319
0.0042731632 0.055551142 0.71196353
0.0042667612 0.054045647 0.71170598
0.0042604487 0.052545577 0.71145195
0.0042541372 0.05104965 0.71119797
0.0042478787 0.04955858 0.7109462
0.0042417082 0.048072696 0.71069795
0.0042356583 0.046592236 0.71045452
0.0042298492 0.045118421 0.71022069
0.0042240387 0.043648392 0.70998693
0.004218278 0.042182803 0.70975518
0.0042125504 0.040721357 0.70952469
0.0042069908 0.039265245 0.70930099
0.0042015309 0.037813783 0.70908129
0.0041961693 0.036366791 0.70886558
0.0042002443 0.035002053 0.70902956
0.0042821681 0.034257382 0.71232587
0.004304288 0.032999575 0.71321595
0.0043019434 0.031547606 0.71312153
0.0042978283 0.030084819 0.71295601
0.0041669663 0.027779818 0.70769048
0.0041609947 0.026353002 0.70745027
0.0041564987 0.02493903 0.70726937
0.0041810893 0.023692846 0.70825881
0.0042634457 0.022738367 0.71157259
0.004270222 0.021351129 0.71184528
0.0042655217 0.019905776 0.71165609
0.0042593866 0.018457383 0.71140927
0.0041302145 0.016520858 0.70621175
0.0041259802 0.015128583 0.7060414
0.0041217548 0.013739228 0.70587134
0.0041195233 0.012358606 0.70578158
0.0041598491 0.011092961 0.70740414
0.0042249975 0.00985834 0.71002555
0.0042312741 0.0084625781 0.71027803
0.0040350407 0.0067250729 0.70238221
0.0040292856 0.0053724051 0.7021507
0.004154461 0.0041544437 0.70718735
0.0041990094 0.0027993321 0.70897985
0.0041977917 0.0013992786 0.70893091
0.0041885483 -0 0.70855892
0.004178843 -0.0013929307 0.70816845
0.0041671493 -0.0027780533 0.70769787
0.0041540307 -0.0041540265 0.70717001
0.0039151935 -0.0052202344 0.69755995
0.0039070928 -0.0065118074 0.69723403
0.0039013755 -0.0078027546 0.69700402
0.0038976409 -0.0090944767 0.6968537
0.0038946411 -0.010385692 0.696733
0.0038916459 -0.011674911 0.69661248
0.0038886697 -0.012962222 0.69649279
0.0038856983 -0.014247537 0.69637316
0.0038827311 -0.015530914 0.69625384
0.0038797543 -0.016812235 0.69613397
0.0038767962 -0.018091708 0.696015
0.0038738428 -0.019369185 0.69589615
0.0038708795 -0.020644695 0.69577694
0.0038679349 -0.021918267 0.69565845
0.003865124 -0.023190707 0.69554538
0.003865167 -0.024479389 0.69554704
0.0039086752 -0.02605781 0.69729769
0.0039687362 -0.027781129 0.69971436
0.0040307036 -0.02955848 0.70220774
0.0040946035 -0.031391978 0.70477891
0.0041219993 -0.032976002 0.70588124
0.00403956 -0.033663005 0.70256406
0.0040022591 -0.034686238 0.70106322
0.0040014144 -0.036012679 0.70102924
0.0040005236 -0.037338167 0.70099342
0.0039997254 -0.038664013 0.70096129
0.0039997869 -0.039997846 0.70096374
0.003999833 -0.041331589 0.70096558
0.003999894 -0.042665541 0.70096809
0.0039928923 -0.043921798 0.7006864
0.0039255288 -0.044489294 0.69797581
0.0039295983 -0.0458453 0.69813955
0.0039929687 -0.047915608 0.70068944
0.0040088161 -0.049442053 0.70132709
0.0040191566 -0.050909311 0.70174313
0.0040236088 -0.05230689 0.7019223
0.0040293168 -0.0537242 0.70215189
0.004040061 -0.055214167 0.70258427
0.0057904082 0.068037331 0.71476579
0.0057529709 0.066159189 0.71363604
0.0057431529 0.064610511 0.71333975
0.005734575 0.063080341 0.71308088
0.0057260226 0.06155476 0.71282279
0.0057174726 0.06003347 0.71256477
0.0057089711 0.058516979 0.71230817
0.0057005417 0.057005435 0.71205378
0.0056925104 0.055502027 0.71181142
0.0056846407 0.054004133 0.71157396
0.0056768628 0.052511007 0.71133924
0.0056691058 0.051021963 0.71110511
0.0056613469 0.049536824 0.71087098
0.0056537935 0.048057228 0.71064305
0.0056464663 0.046583354 0.71042192
0.0056392956 0.045114398 0.71020555
0.0056322115 0.043649614 0.70999181
0.005625145 0.042188615 0.70977855
0.0056182323 0.040732205 0.70956993
0.0056114504 0.039280176 0.70936525
0.0056047975 0.037832379 0.7091645
0.0055982731 0.036388814 0.70896757
0.0056019509 0.035012186 0.70907861
0.005726188 0.034357131 0.71282774
0.00575259 0.033077419 0.71362454
0.0057470715 0.03160888 0.713458
0.0057405676 0.030137986 0.71326172
0.0055622254 0.02781114 0.70787972
0.0055562882 0.0263924 0.70770055
0.0055832509 0.025124639 0.70851427
0.0057003312 0.024226427 0.71204746
0.0057125143 0.022850096 0.7124151
0.0057074707 0.021403044 0.71226293
0.0057024127 0.019958436 0.71211028
0.0056984383 0.018519968 0.71199036
0.005694143 0.017082423 0.71186066
0.0056881537 0.015642434 0.71168
0.0055092881 0.013773203 0.7062822
0.005504292 0.012384683 0.70613146
0.005500284 0.011000574 0.70601052
0.0054964339 0.0096187592 0.70589429
0.0054973252 0.0082460046 0.70592129
0.0053553446 0.0066941977 0.70163655
0.0053381491 0.005338192 0.70111763
0.005329818 0.0039974153 0.70086622
0.0052592307 0.0026296377 0.69873607
0.005249002 0.0013122559 0.69842744
0.0052423496 -0 0.69822663
0.0052377465 -0.0013093948 0.69808769
0.0052337032 -0.0026168525 0.69796574
0.0052297842 -0.0039223135 0.69784749
0.0052258321 -0.0052258074 0.69772816
0.0052217874 -0.0065272152 0.69760615
0.0052177492 -0.0078265965 0.69748425
0.005213737 -0.0091240108 0.6973632
0.0052097109 -0.010419399 0.69724172
0.0052057109 -0.011712849 0.69712102
0.0052016973 -0.013004243 0.69699991
0.0051977099 -0.014293671 0.69687951
0.0051960773 -0.015588194 0.69683027
0.0052279355 -0.016990781 0.69779164
0.0051876795 -0.018156856 0.69657683
0.0051850863 -0.019444048 0.69649851
0.0051832492 -0.020732969 0.69644314
0.0051901983 -0.022058338 0.69665289
0.0056425924 -0.025391668 0.71030509
0.0056842458 -0.027000159 0.71156204
0.0056896443 -0.028448224 0.711725
0.0056916247 -0.029881001 0.71178466
0.0056913216 -0.031302273 0.71177554
0.0056895278 -0.032714784 0.71172142
0.0056582354 -0.033949405 0.7107771
0.0054552718 -0.034095436 0.70465213
0.0053777019 -0.034955055 0.70231128
0.0053774519 -0.036297798 0.70230371
0.0053775352 -0.037642747 0.70230621
0.005378555 -0.038994521 0.70233703
0.0053797835 -0.040348381 0.70237416
0.0053817621 -0.041708648 0.70243382
0.0053839302 -0.043071449 0.70249927
0.0053757881 -0.044350266 0.70225358
0.005286315 -0.044933677 0.69955349
0.0052884268 -0.046273708 0.69961715
0.0053833672 -0.048450261 0.70248222
0.005412634 -0.050066859 0.70336545
0.0054318411 -0.051602453 0.70394504
0.0054438831 -0.053077877 0.70430845
0.0054598576 -0.05459857 0.70479053
0.0072358102 0.068016648 0.71471268
0.0071845823 0.066098183 0.71347594
0.007172836 0.064555556 0.71319234
0.007162929 0.063033819 0.71295315
0.0071530496 0.061516255 0.71271461
0.0071431678 0.060002625 0.71247602
0.0071333423 0.058493406 0.71223891
0.0071237488 0.056989998 0.71200728
0.007114647 0.055494279 0.71178758
0.0071056266 0.054002792 0.71156979
0.0070966287 0.05251509 0.71135253
0.0070876828 0.051031351 0.71113658
0.007078846 0.049551934 0.71092325
0.0070702899 0.048077971 0.71071666
0.0070619555 0.046608925 0.7105155
0.0070537552 0.045144051 0.71031749
0.0070456597 0.043683112 0.71012211
0.0070376401 0.042225838 0.70992845
0.0070297807 0.040772736 0.70973867
0.0070221373 0.039323986 0.7095542
0.0070145675 0.037878692 0.70937145
0.0070072399 0.03643769 0.70919448
0.0070003788 0.035001904 0.70902884
0.0070962519 0.034061998 0.71134341
0.0071916603 0.033081681 0.71364677
0.0071944003 0.031655371 0.71371293
0.0069735451 0.029288918 0.708381
0.0069665262 0.027866125 0.7082116
0.006989677 0.026560783 0.70877051
0.0071401731 0.025704652 0.71240377
0.0071734875 0.024389893 0.71320808
0.0071693431 0.022941917 0.713108
0.0071647312 0.02149424 0.71299672
0.0071596527 0.020047069 0.71287405
0.0071546105 0.018601984 0.71275234
0.0071495464 0.017158896 0.71263009
0.00714446 0.015717834 0.71250731
0.0071389703 0.014277935 0.71237475
0.0069032474 0.0124259 0.70668387
0.0068985051 0.011037648 0.70656943
0.006894262 0.0096519887 0.70646697
0.0066181892 0.0079418719 0.69980198
0.006599084 0.0065990984 0.6993407
0.0065936991 0.0052749515 0.69921076
0.006588398 0.0039530396 0.69908273
0.0065834299 0.0026334226 0.69896281
0.0065784445 0.0013157129 0.69884247
0.0065734913 -0 0.69872284
0.0065685455 -0.0013136864 0.69860345
0.0065636071 -0.0026254356 0.69848424
0.0065586269 -0.0039351583 0.69836402
0.0065535549 -0.0052428246 0.69824159
0.0065488368 -0.0065488219 0.69812763
0.006544421 -0.0078532696 0.69802105
0.0065409471 -0.0091573298 0.69793725
0.0067529851 -0.010804743 0.70305622
0.006894235 -0.012409627 0.70646632
0.0070064771 -0.014012963 0.70917606
0.0071224053 -0.015669286 0.71197486
0.0071630473 -0.017191291 0.71295607
0.0071713855 -0.018645585 0.7131573
0.0071608331 -0.020050317 0.71290255
0.0065423511 -0.019627035 0.69797111
0.0065535796 -0.020971447 0.69824219
0.0068774777 -0.023383409 0.70606178
0.0071554063 -0.025759459 0.71277153
0.0071597113 -0.027206868 0.71287549
0.0071533737 -0.028613508 0.71272248
0.0071468996 -0.030016959 0.71256614
0.0071389116 -0.031411201 0.71237338
0.0071306783 -0.032801121 0.71217453
0.00711727 -0.034162879 0.71185088
0.006925344 -0.034626722 0.7072174
0.0067891381 -0.035303503 0.70392907
0.0067912345 -0.036672652 0.70397967
0.0067948471 -0.038051128 0.70406687
0.0067984895 -0.039431214 0.70415479
0.0068044807 -0.040826887 0.70429945
0.0068108025 -0.04222697 0.70445204
0.006817163 -0.043629825 0.70460558
0.0068052537 -0.044914633 0.70431817
0.0066786371 -0.045414746 0.70126134
0.0066875578 -0.046812862 0.70147669
0.0068454477 -0.04928723 0.70528853
0.0069188904 -0.051199794 0.70706159
0.0069758971 -0.053016812 0.7084378
0.0087183751 0.068293959 0.7154249
0.0086210715 0.066094905 0.7134673
0.0086066574 0.064549923 0.71317732
0.008595692 0.063035101 0.71295679
0.0085847201 0.061523855 0.71273601
0.0085738106 0.060016692 0.71251649
0.0085629644 0.058513612 0.71229833
0.0085526723 0.057017833 0.71209121
0.0085427193 0.055527687 0.71189106
0.008532824 0.054041237 0.71169186
0.0085229175 0.052558005 0.71149254
0.0085131032 0.051078647 0.71129513
0.0085035544 0.049604058 0.71110308
0.0084942691 0.048134208 0.71091622
0.0084853154 0.046669245 0.7107361
0.0084764138 0.04520756 0.7105571
0.0084675662 0.043749124 0.710379
0.0084589086 0.042294562 0.71020484
0.0084504057 0.040843666 0.71003377
0.0084422268 0.039397091 0.70986927
0.0084341671 0.037953794 0.70970708
0.0084263263 0.036514103 0.70954937
0.0084185349 0.035077244 0.70939261
0.0084109269 0.033643693 0.7092396
0.008405095 0.032219559 0.70912218
0.0083963946 0.030786812 0.70894718
0.0083894683 0.029363155 0.70880783
0.0083825532 0.027941853 0.70866871
0.0084986323 0.026912332 0.71100402
0.008635927 0.025907815 0.71376622
0.0086479634 0.024502575 0.71400827
0.0086393626 0.023038328 0.7138353
0.0086287428 0.021571904 0.71362162
0.0086151576 0.020102054 0.71334833
0.0085990252 0.01863125 0.71302378
0.0085795969 0.017159194 0.71263295
0.0085545322 0.015683293 0.71212864
0.008349319 0.013915539 0.70800006
0.0083196322 0.012479454 0.70740283
0.0083150854 0.011086822 0.70731139
0.0083112735 0.0096964836 0.70723474
0.0083077634 0.0083077848 0.70716405
0.0079444898 0.0066204369 0.69985557
0.0079386514 0.0052924454 0.69973809
0.0079329126 0.0039664507 0.69962263
0.0079279346 0.0026426613 0.6995225
0.0079344818 0.0013224483 0.69965422
0.0080561731 -0 0.70210248
0.0081838388 -0.0013639331 0.70467091
0.0083156163 -0.0027718246 0.707322
0.0084517077 -0.0042258501 0.71006
0.0085923271 -0.0057282448 0.71288908
0.0079045193 -0.0065870881 0.69905144
0.0079065273 -0.0079064965 0.69909185
0.0080433683 -0.0093839169 0.70184481
0.008604384 -0.011472523 0.71313161
0.0086772982 -0.013015896 0.71459848
0.0086773708 -0.014462233 0.71459997
0.0086722812 -0.015899152 0.71449757
0.0086661885 -0.017332375 0.71437496
0.0086583784 -0.018759787 0.7142179
0.0086390404 -0.020157754 0.7138288
0.0080653671 -0.020163417 0.70228744
0.0080632465 -0.021501988 0.70224476
0.0080795577 -0.022892058 0.70257288
0.0085876547 -0.025762945 0.71279502
0.0085984571 -0.027228445 0.71301234
0.0085877609 -0.028625876 0.71279716
0.0085768439 -0.030018955 0.71257758
0.0085659549 -0.031408519 0.71235847
0.0085550938 -0.032794535 0.71213996
0.0085442597 -0.034177035 0.71192199
0.0085006766 -0.035419464 0.71104521
0.0082614431 -0.035799623 0.70623219
0.0082688155 -0.03720966 0.70638049
0.0082822507 -0.038650483 0.70665079
0.0082957298 -0.040096015 0.70692199
0.0083141569 -0.041570783 0.70729274
0.0083364984 -0.043071896 0.70774209
0.0083640236 -0.044608146 0.70829594
0.0083287051 -0.045807868 0.70758533
0.0081489393 -0.046177298 0.70396876
0.0081805317 -0.047719747 0.70460433
0.0100657 0.066146016 0.71360159
0.010047696 0.064592332 0.71329105
0.010035963 0.063083231 0.71308875
0.010024216 0.06157735 0.71288621
0.010012538 0.060075253 0.71268475
0.010001216 0.058578581 0.71248955
0.0099906176 0.057089239 0.71230674
0.0099800825 0.055603325 0.71212512
0.0099695697 0.054120541 0.71194381
0.0099590784 0.052640885 0.71176291
0.0099487724 0.051165134 0.71158516
0.0099388529 0.04969424 0.71141416
0.009929359 0.048228353 0.71125042
0.0099200448 0.046765953 0.71108985
0.0099107483 0.045306295 0.71092945
0.0099014686 0.043849379 0.71076947
0.0098925289 0.042396545 0.71061534
0.0098839263 0.040947706 0.71046698
0.0098758591 0.039503425 0.71032786
0.0098677259 0.038061261 0.71018761
0.0098595656 0.036621243 0.71004689
0.0098515786 0.035184234 0.70990914
0.0098440032 0.033750892 0.70977849
0.0098367184 0.032320678 0.70965284
0.0098296022 0.030893058 0.70953017
0.0098227346 0.029468209 0.70941174
0.0098160356 0.028045803 0.70929623
0.0098320264 0.026686937 0.70957202
0.0099671185 0.025629759 0.71190155
0.0098346891 0.023884267 0.70961797
0.009809345 0.02242136 0.70918083
0.0097927973 0.02098456 0.7088955
0.0097818486 0.019563705 0.70870674
0.0097765401 0.018156439 0.70861518
0.009772337 0.016752601 0.7085427
0.0097681386 0.015349925 0.70847034
0.0097639421 0.0139485 0.70839792
0.0097601032 0.012548715 0.7083317
0.0097562661 0.011150032 0.70826554
0.0097532151 0.0097532272 0.70821297
0.0097509082 0.0083579123 0.70817316
0.0093097594 0.0066498518 0.70056581
0.009305058 0.0053172112 0.70048469
0.0093228556 0.0039955378 0.70079166
0.0096981488 0.0027709305 0.70726341
0.010079925 0.0014400184 0.7138468
0.010217584 -0 0.71622074
0.010221491 -0.0014601946 0.71628803
0.010219172 -0.0029197633 0.71624804
0.010214237 -0.0043774843 0.71616292
0.010207464 -0.0058328211 0.71604621
0.0094783837 -0.006770283 0.70347369
0.0094698966 -0.0081170499 0.70332724
0.0094885156 -0.0094884932 0.70364833
0.010075374 -0.011514693 0.71376836
0.010144118 -0.01304242 0.71495378
0.01014543 -0.014493465 0.71497637
0.010132371 -0.015922308 0.71475124
0.010119302 -0.017347366 0.71452588
0.010106309 -0.018768847 0.71430182
0.01008356 -0.020167083 0.71390951
0.0095342267 -0.020430475 0.7044366
0.0094948867 -0.021702617 0.70375824
0.0095007829 -0.023073316 0.70385987
0.010006853 -0.025731891 0.7125867
0.010027481 -0.027217418 0.71294248
0.01001629 -0.028617978 0.71274948
0.010003561 -0.030010641 0.71252996
0.0099908644 -0.031399846 0.71231103
0.0099781994 -0.032785505 0.7120927
0.0099655669 -0.034167647 0.71187478
0.0099500343 -0.035535783 0.71160692
0.0098945005 -0.036751002 0.71064931
0.0099033639 -0.03819868 0.7108022
0.0099023152 -0.039609253 0.71078408
0.0098966341 -0.041000307 0.71068609
0.0098884264 -0.042378932 0.71054459
0.0098775839 -0.043743551 0.71035761
0.009858327 -0.045066625 0.71002555
0.0098141739 -0.046266824 0.70926416
0.0097959125 -0.047580123 0.70894921
0.0098225363 -0.049112648 0.70940834
0.011529517 0.06629473 0.71399176
0.011499421 0.064684242 0.71353763
0.011487208 0.063179642 0.71335334
0.011475021 0.06167829 0.71316946
0.011463002 0.060180813 0.71298808
0.011451951 0.058691233 0.71282136
0.011441111 0.057205588 0.71265781
0.01143029 0.055722654 0.71249449
0.01141949 0.054242611 0.71233153
0.01140871 0.05276531 0.71216893
0.011398465 0.051293105 0.71201432
0.011388985 0.04982686 0.71187127
