# .PCD v0.7 - Point Cloud Data file format
VERSION 0.7
FIELDS x y z
SIZE 4 4 4
TYPE F F F
COUNT 1 1 1
WIDTH 1318
HEIGHT 1
VIEWPOINT 0 0 0 1 0 0 0
POINTS 1318
DATA ascii
-0.029159168 -0.034990996 0.71601593
-0.029169815 -0.036462247 0.71608019
-0.029154029 -0.037900239 0.71598494
-0.029103847 -0.03929016 0.71568203
-0.028848322 -0.04038766 0.71413982
-0.028763665 -0.041707307 0.71362883
-0.028864138 -0.043296188 0.71423531
-0.029222928 -0.045295537 0.71640074
-0.029268466 -0.046829522 0.71667558
-0.029305121 -0.048353434 0.71689677
-0.029347321 -0.049890429 0.71715152
-0.027899634 -0.0058735609 0.71727651
-0.027902581 -0.0073427856 0.71729529
-0.027976362 -0.0088346004 0.71776402
-0.028001873 -0.010316461 0.71792608
-0.027851025 -0.011726737 0.71696776
-0.026934734 -0.012758523 0.7111463
-0.026852787 -0.014133066 0.71062571
-0.026774267 -0.015500873 0.71012688
-0.026733287 -0.016884148 0.70986652
-0.026847325 -0.018369198 0.71059102
-0.026985597 -0.019884109 0.71146953
-0.027058706 -0.021362126 0.71193397
-0.027132213 -0.022848159 0.71240097
-0.027206119 -0.024342299 0.71287048
-0.027280429 -0.025844604 0.71334267
-0.027355146 -0.027355134 0.7138173
-0.027430274 -0.02887395 0.71429461
-0.027505586 -0.030400872 0.71477306
-0.027561393 -0.031913191 0.71512759
-0.027561853 -0.033364356 0.71513057
-0.027548052 -0.034797519 0.71504283
-0.027541962 -0.036239386 0.71500415
-0.027541962 -0.037689 0.71500421
-0.027542077 -0.039138734 0.71500492
-0.027490811 -0.04051277 0.71467918
-0.027251376 -0.041594237 0.71315801
-0.027262291 -0.0430457 0.71322739
-0.027602185 -0.045035124 0.71538681
-0.027699698 -0.046652079 0.71600628
-0.027744398 -0.048187643 0.71629024
-0.027793454 -0.049735636 0.71660197
-0.027849849 -0.051302344 0.71696019
-0.026263967 -0.0029181838 0.71615481
-0.02631502 -0.004385829 0.71649724
-0.02638429 -0.0058631301 0.71696174
-0.026453925 -0.0073483288 0.71742874
-0.026523929 -0.0088412762 0.71789813
-0.025362525 -0.0098631978 0.71010959
-0.025284806 -0.011237681 0.70958841
-0.025248468 -0.012624204 0.70934474
-0.025261419 -0.014034122 0.70943159
-0.02518736 -0.015392214 0.7089349
-0.025203193 -0.016802073 0.70904112
-0.025237771 -0.018227279 0.70927298
-0.025583602 -0.019898355 0.7115922
-0.025654331 -0.021378607 0.71206653
-0.025724076 -0.022865832 0.71253431
-0.025794201 -0.024361163 0.71300453
-0.025864709 -0.025864691 0.71347737
-0.025935497 -0.027376354 0.71395206
-0.026006889 -0.02889654 0.71443081
-0.025983443 -0.030314028 0.71427363
-0.025958749 -0.031727344 0.71410799
-0.025953362 -0.033162564 0.71407181
-0.02595347 -0.034604639 0.71407259
-0.025954654 -0.036048114 0.71408057
-0.025966184 -0.03750667 0.71415788
-0.025981609 -0.038972408 0.71426129
-0.025996404 -0.040438831 0.71436048
-0.025910569 -0.041744769 0.71378493
-0.025759675 -0.042932779 0.71277297
-0.025819331 -0.044466615 0.71317303
-0.026108177 -0.046414495 0.71511006
-0.026213663 -0.048058361 0.71581745
-0.02626816 -0.049617618 0.71618295
-0.026326317 -0.051190048 0.71657294
-0.026460752 -0.052921474 0.71747446
-0.024963463 0.0014684498 0.71728104
-0.02456104 -0 0.7144236
-0.024514459 -0.0014420152 0.71409279
-0.024766171 -0.002913624 0.7158801
-0.024871701 -0.0043891072 0.71662939
-0.023881832 -0.0056192279 0.70960075
-0.02380858 -0.0070025027 0.7090807
-0.023735585 -0.008377254 0.70856237
-0.023733106 -0.0097724199 0.70854473
-0.023796111 -0.011198163 0.70899206
-0.023859549 -0.012631506 0.7094425
-0.02390793 -0.014063448 0.70978606
-0.023846257 -0.015429914 0.70934814
-0.023763658 -0.016774327 0.70876169
-0.023822503 -0.018217176 0.70917952
-0.024161205 -0.019897431 0.71158445
-0.024247788 -0.021395087 0.71219933
-0.024313761 -0.022883505 0.71266776
-0.024380093 -0.024380118 0.7131387
-0.024446787 -0.025884837 0.71361232
-0.024513848 -0.027397811 0.71408844
-0.024581175 -0.028919011 0.71456653
-0.024527488 -0.03029862 0.7141853
-0.024386333 -0.031558782 0.71318305
-0.024386534 -0.032993495 0.71318448
-0.024396304 -0.034441829 0.71325386
-0.02440951 -0.035896301 0.71334761
-0.024426064 -0.037357479 0.71346521
-0.02444871 -0.03883031 0.71362597
-0.024475859 -0.040313154 0.71381873
-0.024485802 -0.041769862 0.7138893
-0.024333892 -0.042942137 0.7128107
-0.024334995 -0.044375598 0.7128185
-0.024588849 -0.046284854 0.71462107
-0.024704749 -0.047956258 0.71544397
-0.024767417 -0.049534827 0.71588898
-0.024829883 -0.051120311 0.71633255
-0.024901584 -0.052732736 0.71684164
-0.023178145 0.0043459237 0.71489036
-0.023122331 0.0028902888 0.71446925
-0.023129256 0.0014455616 0.71452153
-0.022980399 -0 0.71339852
-0.022989426 -0.0014367998 0.71346658
-0.02234108 -0.0027926266 0.70857519
-0.022272788 -0.0041761398 0.70805997
-0.022205446 -0.0055513382 0.70755196
-0.022225864 -0.0069455504 0.70770591
-0.022294493 -0.0083604455 0.7082237
-0.022353746 -0.0097797513 0.70867074
-0.022413315 -0.011206657 0.70912015
-0.022473112 -0.012641102 0.70957124
-0.022531949 -0.014082432 0.71001512
-0.02252054 -0.015482843 0.70992911
-0.022384798 -0.016788572 0.70890504
-0.022420004 -0.018216223 0.70917058
-0.022684103 -0.019848585 0.7111631
-0.022839073 -0.021411598 0.71233225
-0.022901261 -0.022901237 0.71280146
-0.022963788 -0.024399012 0.71327317
-0.023026656 -0.025904983 0.71374744
-0.023089871 -0.02741918 0.71422434
-0.023153339 -0.028941631 0.7147032
-0.023137245 -0.030367583 0.71458179
-0.022927612 -0.031525433 0.71300018
-0.022855598 -0.032854915 0.71245694
-0.022873277 -0.034309894 0.71259034
-0.02289268 -0.03576979 0.71273673
-0.022917876 -0.037241548 0.71292681
-0.022943981 -0.038717955 0.71312374
-0.022974797 -0.040205896 0.71335626
-0.023009598 -0.041704893 0.71361876
-0.022982774 -0.043092668 0.71341646
-0.022889663 -0.044348747 0.71271396
-0.022959709 -0.045919418 0.71324247
-0.02317689 -0.047802329 0.71488088
-0.023287173 -0.049485236 0.7157129
-0.023353202 -0.051085114 0.71621102
-0.023424935 -0.052706063 0.71675229
-0.021550715 0.0071835816 0.71345156
-0.021581056 0.0057549775 0.71369565
-0.021636959 0.0043274164 0.71414554
-0.021693064 0.0028924644 0.71459699
-0.021732863 0.0014488697 0.71491736
-0.020817606 2.9802322e-08 0.70755196
-0.020755347 -0.0013836622 0.70705092
-0.020696502 -0.0027595162 0.7065773
-0.020666549 -0.0041332841 0.70633626
-0.02066024 -0.0055094063 0.70628554
-0.020814197 -0.0069380403 0.70752448
-0.020916857 -0.0083667338 0.70835066
-0.02097249 -0.0097871423 0.70879829
-0.02102842 -0.01121515 0.70924842
-0.021084566 -0.012650758 0.70970029
-0.021141097 -0.014094025 0.71015513
-0.021168228 -0.015523374 0.71037352
-0.021076379 -0.016861081 0.70963442
-0.020978061 -0.018180996 0.70884311
-0.020992003 -0.019592494 0.70895535
-0.021424131 -0.021424115 0.71243286
-0.021486571 -0.022918999 0.71293539
-0.021545282 -0.024417967 0.71340781
-0.021604313 -0.025925159 0.7138828
-0.02166358 -0.027440518 0.71435976
-0.021723263 -0.028964341 0.71484005
-0.021735039 -0.030429065 0.71493489
-0.02155339 -0.031611621 0.71347308
-0.021384487 -0.032789528 0.7121138
-0.02137747 -0.034203947 0.71205735
-0.02140205 -0.035670072 0.71225512
-0.021431355 -0.037147641 0.71249098
-0.021463657 -0.038634568 0.71275097
-0.021496408 -0.040126622 0.71301448
-0.021536646 -0.04163751 0.71333826
-0.021569801 -0.043139577 0.71360511
-0.021479666 -0.044391304 0.71287978
-0.021509361 -0.045886636 0.71311873
-0.021707971 -0.047757506 0.71471697
-0.021824503 -0.049468875 0.71565473
-0.021893626 -0.051085114 0.71621102
-0.021968281 -0.052723855 0.71681178
-0.022067618 -0.054433465 0.71761119
-0.019924929 0.0099624693 0.71182132
-0.020046614 0.0085913837 0.71287054
-0.020105191 0.0071804225 0.71337557
-0.020157177 0.0057592094 0.7138238
-0.020209344 0.0043306053 0.71427357
-0.019311981 0.0027588904 0.70653629
-0.019254651 0.0013753474 0.70604199
-0.019233182 2.9802322e-08 0.70585692
-0.019280979 -0.0013771951 0.70626909
-0.019278765 -0.0027540922 0.70624995
-0.019198343 -0.0041139126 0.70555651
-0.019222392 -0.0054920912 0.70576388
-0.019262351 -0.0068794191 0.70610845
-0.019535491 -0.0083723664 0.70846355
-0.019589143 -0.0097945631 0.70892608
-0.019641424 -0.011223674 0.70937693
-0.019693905 -0.012660325 0.70982939
-0.019746747 -0.014104813 0.71028501
-0.019793108 -0.015551716 0.71068472
-0.019756772 -0.016934365 0.71037138
-0.019533217 -0.018137962 0.70844388
-0.019496657 -0.01949665 0.70812869
-0.019502284 -0.020895302 0.70817721
-0.02006969 -0.022936791 0.71306944
-0.020124571 -0.024436951 0.7135427
-0.020179752 -0.025945395 0.7140184
-0.020235153 -0.027461976 0.71449614
-0.020290943 -0.02898702 0.71497715
-0.020323496 -0.030485213 0.71525782
-0.020178748 -0.031709433 0.71400976
-0.020000871 -0.032858521 0.71247607
-0.019904628 -0.034122199 0.71164626
-0.019933175 -0.03559494 0.71189243
-0.019964507 -0.03707695 0.71216255
-0.020001363 -0.03857404 0.71248031
-0.020038852 -0.040077686 0.71280354
-0.020080129 -0.041594535 0.71315944
-0.020122739 -0.043120146 0.71352684
-0.020057855 -0.044413805 0.7129674
-0.019999554 -0.045713276 0.71246475
-0.019980825 -0.047097653 0.71230328
-0.020353429 -0.049429744 0.71551591
-0.020448396 -0.051120967 0.71633476
-0.020525703 -0.05278036 0.71700126
-0.020609183 -0.054467112 0.71772105
-0.018530561 0.012828857 0.71208912
-0.018359965 0.011298478 0.71050507
-0.018363623 0.0098880827 0.71053898
-0.018598618 0.0085840225 0.71272105
-0.017880946 0.0068772733 0.70605719
-0.017824499 0.0054844618 0.70553303
-0.017773513 0.0041015744 0.70505965
-0.017777639 0.0027350485 0.70509791
-0.017824007 0.0013710856 0.7055285
-0.017870618 -0 0.70596129
-0.017917473 -0.001378268 0.70639634
-0.017945377 -0.0027607977 0.70665544
-0.017879672 -0.0041260421 0.70604527
-0.017839141 -0.0054889619 0.70566899
-0.017883141 -0.0068781078 0.70607752
-0.018136822 -0.0083708465 0.70843303
-0.0182037 -0.0098019838 0.70905411
-0.018252321 -0.011232167 0.70950544
-0.018301127 -0.012669981 0.70995867
-0.01835027 -0.014115572 0.71041501
-0.018399676 -0.015568912 0.71087378
-0.018403126 -0.016987473 0.71090579
-0.018281424 -0.01828143 0.70977581
-0.01803069 -0.019417644 0.70744759
-0.01803962 -0.020814896 0.7075305
-0.018650606 -0.022954583 0.71320385
-0.018701646 -0.024455994 0.7136777
-0.018752966 -0.025965601 0.71415418
-0.018804492 -0.027483463 0.71463263
-0.018856378 -0.029009789 0.71511447
-0.018901272 -0.030532837 0.71553135
-0.018800188 -0.031815678 0.7145927
-0.018636908 -0.032972962 0.71307659
-0.018487711 -0.034131169 0.71169126
-0.018481508 -0.035541326 0.71163362
-0.018515674 -0.037031353 0.7119509
-0.018554842 -0.038536936 0.71231455
-0.018595632 -0.040052116 0.71269333
-0.018634219 -0.041568637 0.71305168
-0.018638985 -0.043013036 0.7130959
-0.01850187 -0.044119835 0.71182275
-0.018315746 -0.045084924 0.71009445
-0.018207882 -0.046220005 0.70909286
-0.018251508 -0.047734708 0.70949793
-0.019015452 -0.051195443 0.71659154
-0.019094951 -0.05287832 0.71732974
-0.019179352 -0.054587364 0.71811342
-0.01796063 0.014967203 0.72069478
-0.017803267 0.013352484 0.7191118
-0.016902935 0.011268616 0.71005517
-0.016417235 0.0095767379 0.70516938
-0.016355351 0.0081776977 0.70454687
-0.016311843 0.0067965984 0.70410931
-0.016289348 0.0054297745 0.70388293
-0.016379638 0.0040948987 0.70479119
-0.016422344 0.0027370751 0.70522082
-0.016465144 0.0013720989 0.70565134
-0.016508233 -2.9802322e-08 0.70608479
-0.016551549 -0.0013792813 0.7065205
-0.016592186 -0.0027653277 0.70692927
-0.016572798 -0.0041431785 0.7067343
-0.016468721 -0.0054895282 0.70568728
-0.016496804 -0.0068736374 0.70596975
-0.016701313 -0.0083506405 0.70802706
-0.016816156 -0.0098094046 0.70918226
-0.016861103 -0.011240751 0.70963436
-0.016906224 -0.012679636 0.71008825
-0.016951656 -0.01412636 0.7105453
-0.016997334 -0.015580863 0.71100467
-0.017026555 -0.017026544 0.7112987
-0.016971529 -0.018385798 0.71074516
-0.016710348 -0.019495428 0.7081179
-0.016601436 -0.020751774 0.70702231
-0.016620891 -0.022161186 0.70721799
-0.017276505 -0.024475038 0.71381295
-0.017323952 -0.025985897 0.71429026
-0.017371587 -0.02750501 0.71476942
-0.017419558 -0.029032588 0.71525198
-0.017467575 -0.030568212 0.71573502
-0.017414102 -0.031925827 0.71519709
-0.017265631 -0.033092439 0.71370363
-0.017122131 -0.034244239 0.71226013
-0.017046323 -0.035513163 0.71149755
-0.017081378 -0.037009627 0.71185017
-0.017116016 -0.038510978 0.71219862
-0.017117703 -0.039941311 0.71221554
-0.016987776 -0.041053772 0.71090859
-0.016805176 -0.04201293 0.70907176
-0.016722746 -0.043200374 0.7082426
-0.016765106 -0.044706941 0.70866871
-0.016814798 -0.046240717 0.70916867
-0.016866628 -0.047788769 0.70968997
-0.017592791 -0.051312268 0.71699458
-0.017674074 -0.053022206 0.71781224
-0.017762162 -0.054766685 0.71869832
-0.016733559 0.015212327 0.72365379
-0.016257538 0.013301611 0.7184301
-0.015648186 0.011380494 0.71174324
-0.015498818 0.0098628998 0.71010411
-0.014851084 0.0081005991 0.70299613
-0.014844336 0.0067474246 0.70292199
-0.014851141 0.005400449 0.70299673
-0.01501809 0.0040958524 0.70482874
-0.015064971 0.0027390718 0.70534319
-0.015104262 0.0013731122 0.70577443
-0.01514382 -0 0.70620847
-0.015183585 -0.0013802946 0.70664489
-0.015223498 -0.0027678907 0.70708281
-0.01523606 -0.0041552782 0.70722067
-0.015150843 -0.0055094063 0.70628554
-0.01507977 -0.0068544149 0.70550561
-0.015083222 -0.0082271695 0.70554352
-0.01542165 -0.0098137558 0.7092573
-0.01546777 -0.011249274 0.70976341
-0.015509195 -0.012689322 0.71021795
-0.015550904 -0.014137179 0.71067572
-0.015592839 -0.015592813 0.71113586
-0.015632186 -0.017053276 0.71156764
-0.015616922 -0.01845634 0.71140015
-0.015454699 -0.019669563 0.70962
-0.015199283 -0.020726234 0.70681709
-0.015205935 -0.022117704 0.70689005
-0.015238247 -0.023550004 0.70724469
-0.015892638 -0.026006103 0.71442568
-0.015936438 -0.027526557 0.71490645
-0.01597774 -0.02905041 0.71535969
-0.016006446 -0.030557752 0.71567464
-0.015997937 -0.031995833 0.7155813
-0.015886758 -0.033217728 0.71436119
-0.015752794 -0.034369737 0.71289116
-0.015635705 -0.035535663 0.71160626
-0.015607611 -0.036890715 0.71129799
-0.015478043 -0.037991583 0.70987618
-0.015312603 -0.038977534 0.70806062
-0.015252477 -0.040211052 0.7074008
-0.01529312 -0.041708499 0.70784682
-0.015338597 -0.043226898 0.70834589
-0.015386202 -0.04475987 0.70886827
-0.01544889 -0.046346635 0.70955622
-0.015684338 -0.048478872 0.71213996
-0.016176961 -0.051472127 0.71754587
-0.016261341 -0.053218931 0.71847183
-0.016353806 -0.055008233 0.71948653
-0.014939006 0.013445139 0.72035456
-0.014436746 0.011549413 0.71429169
-0.014000532 0.0098004043 0.7090261
-0.013554176 0.0081325471 0.70363814
-0.013452531 0.0067262948 0.70241117
-0.013474075 0.0053896606 0.70267123
-0.01363668 0.0040910244 0.70463407
-0.013705583 0.002741158 0.70546579
-0.013741356 0.0013741553 0.70589757
-0.013777371 2.9802322e-08 0.70633233
-0.013813576 -0.0013813376 0.70676935
-0.013849915 -0.0027699471 0.70720804
-0.013879402 -0.0041638017 0.70756394
-0.013845555 -0.0055382252 0.70715541
-0.013658121 -0.0068290532 0.70489287
-0.013646696 -0.0081880093 0.70475495
-0.01365313 -0.0095571876 0.70483267
-0.014072316 -0.011257827 0.70989263
-0.014110088 -0.012699068 0.71034861
-0.014148007 -0.014147967 0.71080631
-0.014186188 -0.015604794 0.71126717
-0.014224576 -0.017069459 0.71173054
-0.014237223 -0.018508345 0.71188319
-0.014163867 -0.019829392 0.71099782
-0.013910796 -0.020866156 0.7079429
-0.013806001 -0.022089601 0.70667791
-0.013834255 -0.023518234 0.70701897
-0.014455666 -0.026020169 0.71452004
-0.014480304 -0.027512521 0.71481746
-0.014490509 -0.02898103 0.71494067
-0.014482357 -0.030412912 0.7148422
-0.014438066 -0.031763732 0.71430761
-0.014293446 -0.032874942 0.71256196
-0.014138163 -0.033931583 0.71068746
-0.013986444 -0.034966081 0.70885611
-0.013837781 -0.035978228 0.70706153
-0.013797833 -0.037254155 0.70657933
-0.013835466 -0.038739294 0.70703363
-0.013876908 -0.04024303 0.70753384
-0.013919657 -0.041758955 0.70804989
-0.013981491 -0.04334262 0.70879626
-0.014190707 -0.045410246 0.71132171
-0.014246387 -0.047013074 0.71199393
-0.014291801 -0.04859212 0.71254206
-0.014766263 -0.051681876 0.71826929
-0.014858515 -0.053490669 0.71938294
-0.014952958 -0.055325925 0.72052288
-0.013664831 0.013664842 0.72330159
-0.012909079 0.011474758 0.71316516
-0.012780092 0.0099400878 0.7114352
-0.012379411 0.0082529783 0.70606112
-0.012102732 0.0067237616 0.7023502
-0.012128361 0.0053904355 0.70269394
-0.012167906 0.0040559769 0.7032243
-0.012341938 0.0027426779 0.70555848
-0.012376422 0.0013751686 0.70602107
-0.012408884 2.9802322e-08 0.70645642
-0.012441516 -0.0013823509 0.7068941
-0.012474271 -0.002772063 0.70733345
-0.012506949 -0.0041689575 0.70777166
-0.012504448 -0.0055575073 0.70773816
-0.012390546 -0.0068836212 0.70621043
-0.012234457 -0.0081562996 0.70411694
-0.012244516 -0.0095235109 0.70425189
-0.012673965 -0.011265695 0.71001172
-0.012708782 -0.012708783 0.71047878
-0.012742961 -0.014158815 0.71093714
-0.012777376 -0.015616775 0.71139872
-0.012811978 -0.017082632 0.71186286
-0.012839595 -0.018546104 0.71223325
-0.012808095 -0.019923717 0.71181077
-0.012631475 -0.02105245 0.7094419
-0.012428265 -0.022094667 0.7067163
-0.01244736 -0.023511648 0.70697248
-0.012975658 -0.025951266 0.7140581
-0.012965437 -0.027371466 0.71392107
-0.012918678 -0.02870813 0.71329391
-0.012785526 -0.02983287 0.71150804
-0.012647567 -0.030916274 0.70965767
-0.012512603 -0.03197664 0.70784754
-0.01238044 -0.033014506 0.70607495
-0.012357691 -0.034326911 0.70576978
-0.012392067 -0.035799295 0.70623088
-0.012429451 -0.037288368 0.70673221
-0.01246701 -0.038786232 0.70723605
-0.012610795 -0.040634751 0.7091645
-0.01271121 -0.042370707 0.71051133
-0.012759183 -0.043948293 0.7111547
-0.012799603 -0.045509696 0.71169686
-0.012840332 -0.047081202 0.71224314
-0.01288127 -0.048662573 0.71279222
-0.012930591 -0.050285608 0.71345371
-0.013462238 -0.053848922 0.72058433
-0.013565896 -0.055770874 0.72197455
-0.011421883 0.014277369 0.71236771
-0.011445398 0.012876093 0.71272248
-0.011474784 0.011474788 0.71316588
-0.011467684 0.010034263 0.71305871
-0.011090231 0.0083176792 0.70736343
-0.010824761 0.0067654848 0.70335782
-0.010773829 0.0053869188 0.70258927
-0.010789176 0.0040459633 0.70282084
-0.010966024 0.0027415156 0.70548928
-0.011009456 0.0013761818 0.70614469
-0.011038354 2.9802322e-08 0.70658064
-0.011067403 -0.0013834238 0.70701897
-0.011096562 -0.0027741194 0.70745891
-0.011125919 -0.0041722357 0.70790195
-0.011142599 -0.0055713058 0.70815361
-0.011098246 -0.0069363713 0.70748436
-0.010879967 -0.0081599355 0.70419073
-0.01085401 -0.0094972551 0.70379913
-0.010867675 -0.010867685 0.7040053
-0.011305333 -0.012718469 0.71060902
-0.011335761 -0.014169663 0.71106821
-0.0113664 -0.015628755 0.71153051
-0.011397203 -0.017095774 0.71199524
-0.011427565 -0.018569767 0.71245337
-0.011419161 -0.01998353 0.71232659
-0.011313155 -0.021212131 0.7107271
-0.011108846 -0.022217661 0.70764428
-0.011062911 -0.023508668 0.70695114
-0.011079932 -0.024929821 0.70720798
-0.01113577 -0.026447415 0.70805055
-0.011163676 -0.027909219 0.70847166
-0.011056267 -0.029022694 0.70685095
-0.010940172 -0.030085444 0.70509923
-0.010931439 -0.03142786 0.70496744
-0.010962521 -0.032887548 0.70543647
-0.010995781 -0.03436178 0.70593834
-0.011028369 -0.03584218 0.70643002
-0.011166771 -0.037687808 0.70851827
-0.01124542 -0.039358944 0.709705
-0.011286422 -0.040913284 0.71032369
-0.011322002 -0.042457491 0.71086061
-0.011357808 -0.044011474 0.71140081
-0.011393886 -0.045575529 0.7119453
-0.011430149 -0.04714933 0.71249235
-0.01146669 -0.048733413 0.71304375
-0.011503465 -0.050327659 0.71359861
-0.012075914 -0.054341584 0.72223628
-0.012195008 -0.056401908 0.72403324
-0.010007882 0.018586099 0.71260452
-0.0098834839 0.016943127 0.71045935
-0.0098121148 0.015419036 0.70922863
-0.0097629232 0.01394704 0.70838034
-0.0097257597 0.012504548 0.70773947
-0.0096973749 0.011082739 0.70724994
-0.0096736941 0.0096737444 0.70684165
-0.0096536139 0.0082745552 0.7064954
-0.0095814364 0.0068438947 0.70525074
-0.0094037382 0.0053735971 0.70218641
-0.0094069755 0.0040315986 0.70224226
-0.0094120717 0.0026891828 0.70233011
-0.0096402224 0.0013771951 0.7062645
-0.0096657751 2.9802322e-08 0.70670509
-0.0096912319 -0.0013844669 0.70714408
-0.0097168228 -0.0027762353 0.70758539
-0.0097425105 -0.0041753352 0.70802832
-0.009766099 -0.0055806339 0.70843518
-0.009753841 -0.0069670081 0.7082237
-0.0096246963 -0.0082497001 0.70599669
-0.009478569 -0.009478569 0.70347679
-0.0094926627 -0.010848731 0.70371985
-0.0098997355 -0.012728214 0.71073955
-0.0099264011 -0.014180571 0.7111994
-0.0099530881 -0.015640527 0.71165961
-0.0099748028 -0.017099679 0.71203411
-0.0099877873 -0.018548727 0.71225798
-0.0099799186 -0.019959837 0.71212226
-0.0098791886 -0.021169692 0.71038526
-0.0097227264 -0.022223383 0.7076872
-0.0096559133 -0.023450017 0.70653498
-0.0096441219 -0.024799138 0.70633167
-0.0096085761 -0.02608043 0.70571876
-0.0095187044 -0.027196288 0.70416898
-0.0095192259 -0.028557688 0.70417798
-0.0095465751 -0.030003488 0.70464957
-0.0095752887 -0.031461656 0.70514476
-0.0096035302 -0.032926351 0.70563167
-0.0097277435 -0.034741938 0.70777369
-0.009792679 -0.036372781 0.70889342
-0.009827855 -0.037907422 0.70950007
-0.0098587265 -0.03943488 0.7100324
-0.0098897535 -0.040971816 0.71056741
-0.0099209752 -0.042518467 0.71110582
-0.0099524362 -0.044075072 0.71164834
-0.0099840565 -0.045641363 0.71219361
-0.010015919 -0.047217876 0.7127431
-0.01004836 -0.04880628 0.71330249
-0.010589611 -0.052948028 0.72263604
-0.010712129 -0.055090934 0.72474879
-0.0084983204 0.021245837 0.71099776
-0.0084157819 0.019636869 0.70933723
-0.0083637554 0.018121481 0.70829052
-0.0083369985 0.016674012 0.70775223
-0.008315417 0.015244931 0.70731807
-0.0082954327 0.013825774 0.70691597
-0.0082463138 0.012369454 0.70592785
-0.0082314666 0.010975301 0.70562911
-0.0082204314 0.0095904768 0.70540708
-0.0082114311 0.0082114637 0.70522594
-0.0081971604 0.0068309903 0.70493889
-0.0081047164 0.0054031909 0.7030791
-0.0080247615 0.0040124357 0.70147049
-0.0080284076 0.0026761591 0.70154381
-0.0082639651 0.0013773441 0.70628291
-0.0082911439 -0 0.70682973
-0.0083129974 -0.0013854802 0.70726937
-0.0083349319 -0.0027783215 0.70771062
-0.0083570164 -0.0041784942 0.70815492
-0.0083792182 -0.0055861473 0.70860159
-0.0083855875 -0.0069879591 0.70872974
-0.0083350986 -0.0083350837 0.70771396
-0.0081495764 -0.0095078349 0.70398158
-0.0081277508 -0.010836989 0.70354247
-0.0081447689 -0.012217134 0.7038849
-0.008509038 -0.014181703 0.71121341
-0.0085192258 -0.015618563 0.71141839
-0.0085207922 -0.017041564 0.71144986
-0.0085103232 -0.018439025 0.71123922
-0.0084610712 -0.019742489 0.71024835
-0.0083614066 -0.020903498 0.70824325
-0.0082671437 -0.022045702 0.70634687
-0.0081948722 -0.023218781 0.70489287
-0.008115001 -0.024344951 0.70328593
-0.0081206271 -0.025715321 0.70339918
-0.0081443237 -0.02714774 0.7038759
-0.0081683192 -0.0285891 0.70435864
-0.0081922961 -0.030038416 0.70484108
-0.0083009489 -0.031820297 0.70702696
-0.0083537679 -0.033415049 0.70808965
-0.0083833626 -0.034930676 0.70868498
-0.0084095364 -0.036441296 0.70921153
-0.0084359078 -0.037961572 0.70974207
-0.0084624104 -0.039491236 0.71027535
-0.0084891161 -0.041030675 0.71081257
-0.0085159549 -0.0425798 0.71135259
-0.0085429642 -0.04413864 0.71189588
-0.0085706031 -0.045709878 0.71245193
-0.008854527 -0.048699886 0.71816409
-0.0087902015 -0.049811155 0.71686995
-0.009238584 -0.053891718 0.72589076
-0.0070238123 0.023880988 0.70959461
-0.0070201228 0.022464424 0.7095055
-0.0070143975 0.021043181 0.70936728
-0.0069977287 0.019593686 0.70896488
-0.006981167 0.018151075 0.70856506
-0.0069646551 0.016715199 0.70816642
-0.0069482489 0.015286148 0.70777035
-0.0069318926 0.013863802 0.70737541
-0.0068146498 0.012266397 0.70454496
-0.0068074935 0.010892004 0.70437217
-0.0068023494 0.0095233023 0.70424801
-0.0067989151 0.0081587136 0.7041651
-0.0067962557 0.0067962408 0.70410091
-0.006793173 0.0054345727 0.70402646
-0.0066686911 0.00400123 0.70102119
-0.0066665416 0.0026666224 0.70096934
-0.0066719437 0.0013343692 0.70109975
-0.0069144568 2.9802322e-08 0.70695448
-0.0069326949 -0.001386553 0.70739484
-0.0069510015 -0.0027803779 0.70783681
-0.0069694328 -0.0041816533 0.70828176
-0.0069879619 -0.0055903494 0.70872909
-0.0070025795 -0.0070025623 0.70908201
-0.006984619 -0.0083815157 0.70864832
-0.0068659266 -0.0096122921 0.70578289
-0.0067703011 -0.010832489 0.70347428
-0.0067864861 -0.012215644 0.70386499
-0.0070654019 -0.014130801 0.71059865
-0.007054443 -0.015519768 0.71033406
-0.0070083989 -0.016820133 0.70922244
-0.0069338013 -0.018027872 0.70742154
-0.0068607749 -0.01921016 0.70565856
-0.0067892177 -0.020367652 0.70393097
-0.0067279064 -0.021529287 0.70245081
-0.0067352615 -0.022899926 0.70262837
-0.0067549804 -0.02431792 0.70310444
-0.0067746569 -0.025743693 0.70357943
-0.006794475 -0.02717787 0.70405787
-0.0068868017 -0.028924555 0.70628685
-0.0069284923 -0.030485332 0.70729333
-0.0069526983 -0.031982422 0.70787776
-0.0069743008 -0.033476651 0.7083993
-0.0069960384 -0.034980178 0.708924
-0.0070179394 -0.036493272 0.70945275
-0.0070399498 -0.038015723 0.70998418
-0.0070621278 -0.03954789 0.71051955
-0.0070844172 -0.041089594 0.71105772
-0.0071072835 -0.042643696 0.71160978
-0.0074578961 -0.046238929 0.7200743
-0.0075015943 -0.04801017 0.72112924
-0.0074295751 -0.049035221 0.71939063
-0.0074137547 -0.050413519 0.71900862
-0.0056820149 0.028410107 0.71149468
-0.005576754 0.026489615 0.70831823
-0.0055345171 0.024905324 0.70704359
-0.0055641625 0.023647726 0.70793819
-0.0056113373 0.022445351 0.70936185
-0.0056271944 0.021102011 0.70984042
-0.0056137848 0.019648254 0.7094357
-0.0056004613 0.01820153 0.70903361
-0.0055872011 0.016761601 0.70863342
-0.0054237861 0.014915437 0.70370197
-0.005418669 0.013546705 0.7035476
-0.0054145739 0.012182832 0.70342398
-0.0054118331 0.010823667 0.70334125
-0.0054119807 0.0094709992 0.70334572
-0.0054247174 0.0081370473 0.70373011
-0.0054384298 0.0067980587 0.70414394
-0.0054491973 0.0054492354 0.70446885
-0.0053939596 0.0040454865 0.70280194
-0.0053182542 0.0026591718 0.70051718
-0.005324305 0.0013311207 0.70069987
-0.0055341646 -0 0.70703298
-0.0055503193 -0.0013875663 0.70752048
-0.0055649867 -0.002782464 0.70796305
-0.0055797542 -0.0041848123 0.70840877
-0.0055946 -0.0055945814 0.70885676
-0.0056084613 -0.0070105791 0.70927513
-0.0056035547 -0.0084053278 0.70912695
-0.0055379351 -0.0096913278 0.7071467
-0.0054270267 -0.010854006 0.70379978
-0.0054275561 -0.012211978 0.70381576
-0.0054331576 -0.013582885 0.7039848
-0.005455914 -0.015003741 0.7046715
-0.0054529603 -0.016358912 0.70458239
-0.0053999112 -0.017549694 0.70298153
-0.0053549935 -0.018742472 0.70162594
-0.0053629489 -0.020111054 0.70186603
-0.005378576 -0.021514297 0.70233768
-0.0053941691 -0.022925228 0.70280826
-0.0054098531 -0.024344325 0.70328152
-0.0054851323 -0.026054382 0.70555329
-0.0055166576 -0.027583301 0.70650464
-0.0055356412 -0.029062092 0.7070775
-0.0055527808 -0.030540258 0.70759475
-0.0055700047 -0.032027513 0.7081145
-0.005587358 -0.033524126 0.70863819
-0.0056047975 -0.035029978 0.70916444
-0.005622346 -0.036545247 0.70969403
-0.0056400276 -0.038070202 0.71022767
-0.0056581665 -0.039607137 0.71077502
-0.0059376932 -0.043048263 0.71921051
-0.0059893536 -0.044920146 0.72076946
-0.006050284 -0.046889693 0.72260827
-0.0060488619 -0.048390895 0.72256529
-0.0060052169 -0.049542993 0.72124815
-0.0042067193 0.030849278 0.70929003
-0.00417948 0.029256374 0.70819402
-0.0041244947 0.027496636 0.70598161
-0.0041052788 0.026000112 0.70520842
-0.0041303779 0.02478227 0.70621836
-0.0041650347 0.02360186 0.70761287
-0.0042002783 0.022401482 0.70903093
-0.0042282362 0.021141231 0.71015584
-0.0040531303 0.01891464 0.7031101
-0.0040472136 0.017537922 0.70287204
-0.0040437439 0.016175002 0.70273244
-0.0040406403 0.014815688 0.70260757
-0.0040386054 0.013462037 0.70252568
-0.004041079 0.012123257 0.70262527
-0.0040512243 0.010803282 0.70303345
-0.0040614214 0.0094766617 0.70344377
-0.0040716529 0.0081433356 0.70385545
-0.0040819529 0.0068032146 0.70426989
-0.004092305 0.005456388 0.7046864
-0.0040863855 0.004086405 0.70444822
-0.0039871042 0.0026580691 0.70045346
-0.0039859912 0.0013286471 0.7004087
-0.0039927396 -0 0.70068014
-0.0041658669 -0.0013885796 0.70764631
-0.004176884 -0.0027845502 0.70808953
-0.0041872361 -0.0041871965 0.70850611
-0.0041948184 -0.0055930614 0.70881122
-0.0041986033 -0.0069976747 0.70896357
-0.0041926592 -0.0083853006 0.70872432
-0.004140961 -0.0096622407 0.70664418
-0.0040720822 -0.010858893 0.70387268
-0.0040556695 -0.012167007 0.70321232
-0.0040490059 -0.013496667 0.7029441
-0.0040265932 -0.01476416 0.70204234
-0.0039965049 -0.015986025 0.70083171
-0.004003535 -0.017348647 0.70111459
-0.0040150541 -0.018736869 0.70157802
-0.0040266397 -0.020133197 0.70204425
-0.0040382924 -0.021537542 0.7025131
-0.0040957779 -0.023209393 0.70482618
-0.0041180747 -0.02470842 0.70572335
-0.0041320478 -0.026169658 0.70628548
-0.0041447645 -0.02763176 0.70679724
-0.0041575762 -0.029103041 0.7073127
-0.0041704504 -0.030583292 0.70783073
-0.0041834214 -0.032072872 0.70835263
-0.0041964566 -0.033571661 0.70887721
-0.0042095734 -0.035079777 0.70940495
-0.0042230971 -0.036600143 0.70994914
-0.0044323271 -0.039890915 0.71836782
-0.0044717048 -0.041735917 0.71995229
-0.0045157163 -0.043651909 0.72172314
-0.0045390963 -0.045390964 0.72266388
-0.0045535709 -0.047053546 0.72324634
-0.004565937 -0.048703313 0.72374392
-0.0045827786 -0.050410539 0.7244215
-0.0027786996 0.033344418 0.70773405
-0.0027740076 0.031901091 0.70745093
-0.0027808456 0.030589312 0.70786363
-0.0027204177 0.028564394 0.70421654
-0.0027098944 0.027098984 0.70358133
-0.0027256566 0.025893778 0.70453268
-0.0027482931 0.024734646 0.70589888
-0.0027713084 0.023556143 0.70728803
-0.0026871769 0.021497428 0.70221019
-0.002684748 0.020135611 0.70206362
-0.0026824577 0.018777221 0.7019254
-0.0026803678 0.017422408 0.70179927
-0.0026790246 0.016074181 0.70171821
-0.0026826751 0.014754742 0.70193851
-0.0026893711 0.013446897 0.70234269
-0.0026961113 0.012132525 0.70274949
-0.0027028751 0.010811538 0.70315772
-0.002709683 0.0094839036 0.70356858
-0.0027165257 0.0081495941 0.70398158
-0.0027233921 0.0068084896 0.70439601
-0.0027303041 0.0054606199 0.70481318
-0.0027341822 0.0041012764 0.70504725
-0.0026923928 0.0026924014 0.70252502
-0.0026542016 0.0013270974 0.70021999
-0.0026594223 -0 0.70053512
-0.0027784884 -0.0013892353 0.70772135
-0.0027836079 -0.0027835965 0.70803034
-0.0027859514 -0.0041788816 0.70817178
-0.0027851474 -0.0055702627 0.70812327
-0.0027785439 -0.0069463253 0.70772469
-0.0027554743 -0.0082664192 0.70633233
-0.0027229334 -0.0095302463 0.70436835
-0.0026943344 -0.010777324 0.7026422
-0.0026697617 -0.012013942 0.70115912
-0.0026513964 -0.013256937 0.70005071
-0.0026566265 -0.014611423 0.70036632
-0.0026642347 -0.015985399 0.70082551
-0.0026718865 -0.017367244 0.70128739
-0.0026795822 -0.018757045 0.70175183
-0.0027185874 -0.020389408 0.70410603
-0.0027325696 -0.02186054 0.70494992
-0.0027417007 -0.023304433 0.70550102
-0.0027500985 -0.024750888 0.7060079
-0.0027585477 -0.026206195 0.70651782
-0.0027670602 -0.027670592 0.70703161
-0.0027756141 -0.029143929 0.7075479
-0.0027842324 -0.030626535 0.70806807
-0.0027928932 -0.032118261 0.70859081
-0.0028018451 -0.033622086 0.709131
-0.0029829792 -0.037287205 0.72006345
-0.0029863634 -0.038822711 0.72026777
-0.0029957741 -0.040442944 0.72083575
-0.0030112863 -0.042158008 0.72177196
-0.0030208419 -0.043802202 0.72234869
-0.0030304452 -0.045456648 0.72292829
-0.0030401095 -0.047121704 0.7235117
-0.0030498491 -0.048797578 0.72409946
-0.003059638 -0.050483972 0.7246902
-0.0013779557 0.035826862 0.70635873
-0.0013752234 0.034380615 0.70602888
-0.0013845003 0.03322804 0.70714873
-0.0013879457 0.031922758 0.70756459
-0.001347512 0.029645294 0.70268387
-0.0013438431 0.028220683 0.70224094
-0.001340939 0.026818782 0.70189041
-0.0013385989 0.025433391 0.70160794
-0.0013368684 0.024063647 0.70139909
-0.0013357429 0.022707641 0.70126319
-0.0013346091 0.021353781 0.70112634
-0.001333559 0.020003378 0.70099956
-0.0013330474 0.018662691 0.70093781
-0.0013356915 0.017364025 0.70125699
-0.0013390167 0.01606819 0.70165837
-0.0013423532 0.014765918 0.70206106
-0.0013457115 0.013457119 0.70246655
-0.0013490815 0.012141764 0.70287329
-0.0013524737 0.010819823 0.70328277
-0.0013558831 0.0094912052 0.70369434
-0.0013593043 0.0081558824 0.70410728
-0.0013627482 0.0068137348 0.70452303
-0.0013662041 0.0054648221 0.7049402
-0.0013695428 0.0041086376 0.70534325
-0.001363759 0.0027275383 0.70464504
-0.0013281457 0.0013281405 0.70034617
-0.0013293398 -2.9802322e-08 0.7004903
-0.0013325668 -0.0013325512 0.70087975
-0.0013858698 -0.0027717054 0.70731401
-0.0013824347 -0.0041472912 0.7068994
-0.0013704773 -0.0054818988 0.70545602
-0.0013560418 -0.0067801774 0.70371348
-0.0013419178 -0.008051455 0.70200855
-0.0013280746 -0.0092965066 0.70033753
-0.0013194359 -0.010555476 0.69929469
-0.001322137 -0.011899233 0.69962078
-0.0013259411 -0.013259381 0.70007998
-0.0013297315 -0.014627039 0.70053756
-0.0013336 -0.016003191 0.70100456
-0.0013533746 -0.017593861 0.70339155
-0.001359932 -0.019039035 0.7041831
-0.001364407 -0.020466089 0.70472324
-0.0013685718 -0.021897137 0.705226
-0.0013727567 -0.023336858 0.70573115
-0.0013769673 -0.024785399 0.70623946
-0.0013812092 -0.026242971 0.70675153
-0.0013854719 -0.027709454 0.70726603
-0.0013897666 -0.029185086 0.70778441
-0.001394211 -0.03067264 0.70832092
-0.0014843155 -0.034139246 0.71919751
-0.0014889523 -0.035734862 0.7197572
-0.0014936181 -0.037340403 0.7203204
-0.0014983198 -0.038956255 0.7208879
-0.0015030511 -0.040582359 0.72145909
-0.0015078123 -0.042218775 0.72203386
-0.0015125973 -0.043865293 0.72261143
-0.0015174194 -0.045522571 0.72319353
-0.0015222656 -0.047190249 0.72377849
-0.0015271497 -0.048868775 0.7243681
-0.0015320583 -0.050557911 0.72496057
0 0.040438771 0.70834863
0 0.038297266 0.70512778
0 0.036640733 0.70383686
0 0.035095483 0.70296311
0 0.033609092 0.70230371
0 0.032163918 0.70179677
0 0.030743867 0.70137733
0 0.029346526 0.70104468
0 0.027966678 0.70078057
0 0.026603609 0.70059162
0 0.025254399 0.70047063
0 0.023904979 0.70033514
0 0.022558928 0.70020711
0 0.02123183 0.70020652
0 0.019951463 0.70058179
0 0.018667489 0.70097911
0 0.017377168 0.70137918
0 0.01608035 0.70178056
0 0.014777154 0.7021845
0 0.013467371 0.70258987
0 0.012151062 0.70299798
0 0.010828078 0.70340741
0 0.009498477 0.70381963
0 0.0081621408 0.70423388
0 0.0068190098 0.70464957
0 0.0054690838 0.70506799
0 0.0041122139 0.70548803
0 0.0027430058 0.70558012
0 0.0013439357 0.70224917
0 -0 0.70050925
0 -0.0013318658 0.7007978
0 -0.0026705861 0.7012074
0 -0.0040328801 0.7022956
0 -0.0053401291 0.70117712
0 -0.0066066384 0.69952309
0 -0.0078793764 0.69854534
0 -0.0092120171 0.69888037
0 -0.010558546 0.6993413
0 -0.011912197 0.69979465
0 -0.013274759 0.70026529
0 -0.014820486 0.70266056
0 -0.016243637 0.70342338
0 -0.017654389 0.70395339
0 -0.019070089 0.70445073
0 -0.020494491 0.70495188
0 -0.021927506 0.7054553
0 -0.023369431 0.7059626
0 -0.024820119 0.70647228
0 -0.026279718 0.70698506
0 -0.027751237 0.70751846
0 -0.029686272 0.71066535
0 -0.032599509 0.71889335
0 -0.034187704 0.71945196
0 -0.035785884 0.72001398
0 -0.037393957 0.72057885
0 -0.039012313 0.72114801
0 -0.040640712 0.72171998
0 -0.042279631 0.72229636
0 -0.043928802 0.72287571
0 -0.045588642 0.72345942
0 -0.047258973 0.72404617
0 -0.048984349 0.7248041
0.0013758169 0.042650342 0.70610058
0.0013581248 0.040743738 0.70396495
0.0013486522 0.039110929 0.70282149
0.0013419592 0.037574857 0.70201355
0.0013368633 0.036095291 0.70139843
0.0013328941 0.034655303 0.70091927
0.0013296653 0.033241659 0.70052958
0.0013270349 0.031848848 0.70021206
0.0013249601 0.030474097 0.6999616
0.0013235521 0.02911818 0.69979161
0.0013225748 0.027774066 0.69967365
0.0013215636 0.026431292 0.69955158
0.0013204989 0.025089502 0.69942307
0.0013212974 0.023783356 0.69951946
0.0013245461 0.022517264 0.69991159
0.0013278158 0.021245062 0.7003063
0.0013310967 0.019966483 0.70070237
0.001334399 0.018681616 0.70110095
0.0013377125 0.017390281 0.70150095
0.0013410477 0.016092569 0.70190358
0.0013443943 0.014788359 0.70230746
0.0013477629 0.013477683 0.70271409
0.0013511432 0.012160301 0.70312214
0.0013545458 0.010836393 0.70353293
0.0013579603 0.0095057487 0.7039451
0.0013613973 0.0081683993 0.70435989
0.0013648518 0.0068242848 0.70477694
0.0013683186 0.0054732859 0.70519537
0.0013718082 0.0041154325 0.70561671
0.0013741574 0.0027483404 0.70590019
0.001357801 0.0013578236 0.70392585
0.0013280849 2.9802322e-08 0.70033884
0.001326508 -0.0013265014 0.7001484
0.0013238698 -0.0026477277 0.69983
0.0013146534 -0.0039439499 0.69871747
0.0013071363 -0.0052285194 0.69781005
0.00130995 -0.0065497458 0.69814974
0.0013137091 -0.0078822374 0.69860345
0.0013174798 -0.0092223585 0.69905865
0.0013214129 -0.010571271 0.69953346
0.001341265 -0.012071371 0.70192981
0.0013474022 -0.013474017 0.70267057
0.0013517109 -0.014868796 0.70319068
0.0013557931 -0.016269505 0.7036835
0.0013599001 -0.017678708 0.70417923
0.0013640374 -0.019096494 0.70467865
0.0013681946 -0.020522892 0.70518041
0.0013723772 -0.021958023 0.70568538
0.0013765909 -0.023402005 0.70619392
0.0013809787 -0.02485761 0.70672363
0.0014117943 -0.026824057 0.71044344
0.0014160058 -0.028320134 0.71095181
0.0014262936 -0.029952168 0.71219367
0.0014838972 -0.032645732 0.71914697
0.0014885314 -0.034236193 0.71970636
0.0014932074 -0.035836965 0.72027087
0.0014979 -0.037447453 0.7208373
0.0015026287 -0.039068341 0.72140807
0.0015073806 -0.040699303 0.72198176
0.0015121629 -0.042340577 0.72255898
0.0015169822 -0.04399249 0.72314072
0.0015228194 -0.045684546 0.72384536
0.0027265549 0.044988155 0.70458692
0.002697964 0.043167442 0.70286131
0.0026809985 0.041555524 0.7018373
0.0026685826 0.040028751 0.70108795
0.0026590154 0.038555741 0.7005105
0.0026514672 0.03712061 0.70005494
0.0026454616 0.035713762 0.69969249
0.002640476 0.034326166 0.6993916
0.0026365391 0.032956749 0.69915402
0.0026339809 0.031607747 0.69899958
0.0026320554 0.030268639 0.69888335
0.0026301229 0.028931379 0.69876671
0.0026281236 0.027595311 0.69864607
0.0026316368 0.026316375 0.69885802
0.0026380804 0.025061756 0.699247
0.0026445657 0.023801118 0.69963837
0.0026510828 0.022534251 0.70003176
0.0026576221 0.021261007 0.70042646
0.002664204 0.019981533 0.70082366
0.0026708082 0.018695682 0.7012223
0.0026774555 0.017403513 0.70162344
0.0026841257 0.016104758 0.70202601
0.0026908393 0.014799595 0.70243126
0.0026975765 0.013487875 0.70283794
0.002704358 0.0121696 0.70324725
0.0027111631 0.010844648 0.70365793
0.0027180132 0.0095130801 0.7040714
0.0027248978 0.0081747174 0.70448685
0.0027318068 0.0068295598 0.70490384
0.0027368742 0.0054737628 0.70520973
0.0027346879 0.0041020513 0.70507777
0.002709419 0.0027094185 0.70355272
0.0026903916 0.0013451874 0.70240426
0.0026796339 -2.9802322e-08 0.70175493
0.0026200484 -0.0013099909 0.69815862
0.0026022024 -0.00260216 0.69708157
0.0026079249 -0.0039118528 0.69742692
0.0026152071 -0.0052304268 0.69786644
0.0026228665 -0.0065571666 0.69832873
0.0026308298 -0.0078924894 0.69880939
0.0026705312 -0.0093468428 0.70120561
0.0026824474 -0.01072979 0.70192474
0.0026908915 -0.012108982 0.70243442
0.002698991 -0.013494939 0.7029233
0.0027071286 -0.01488921 0.70341444
0.0027153157 -0.016291857 0.70390856
0.002723563 -0.017703146 0.70440632
0.0027318497 -0.019122928 0.70490646
0.0027401871 -0.020551383 0.70540971
0.0027489127 -0.021991283 0.70593631
0.0029242726 -0.024856299 0.71652025
0.0029165284 -0.026248723 0.71605283
0.0028718971 -0.027282983 0.71335912
0.0028657741 -0.028657734 0.71298957
0.0029625818 -0.031107098 0.71883237
0.0029720082 -0.032692075 0.71940136
0.0029813156 -0.034285128 0.71996307
0.0029906817 -0.035888165 0.7205283
0.0030000808 -0.037500978 0.72109562
0.0030095652 -0.03912434 0.72166806
0.0030191096 -0.040757984 0.72224414
0.0030299695 -0.042419553 0.72289956
0.0040564584 0.047325343 0.70324403
0.0040210322 0.045571685 0.70181859
0.0039976854 0.043974549 0.70087922
0.0039804662 0.042458296 0.70018637
0.0039670751 0.040993154 0.69964749
0.0039561144 0.039561152 0.69920653
0.0039476198 0.038160354 0.69886464
0.0039406358 0.036779314 0.69858372
0.0039349534 0.035414606 0.69835508
0.0039314954 0.034072965 0.6982159
0.0039286208 0.032738537 0.69810027
0.0039257654 0.031406134 0.69798535
0.0039231796 0.030077726 0.69788134
0.0039305319 0.028823942 0.6981771
0.0039407401 0.027585208 0.69858789
0.0039503872 0.026335955 0.6989761
0.0039600823 0.025080532 0.69936615
0.0039698095 0.02381888 0.69975758
0.0039796 0.02255106 0.70015144
0.003989439 0.02127701 0.70054734
0.003999311 0.019996524 0.7009446
0.0040092478 0.018709838 0.70134437
0.0040192185 0.017416626 0.70174563
0.0040292544 0.016116977 0.70214951
0.0040393253 0.01481089 0.70255464
0.0040494618 0.013498247 0.70296252
0.0040596337 0.012178898 0.70337182
0.0040698727 0.010853022 0.70378375
0.0040801475 0.0095203519 0.70419717
0.0040867697 0.0081735551 0.70446366
0.0040808981 0.0068015158 0.70422739
0.0040407656 0.0053876936 0.70261264
0.0040170965 0.0040171146 0.70166028
0.0040254733 0.0026836991 0.70199728
0.0040363534 0.0013454556 0.70243508
0.0040395441 -0 0.70256341
0.003960955 -0.0013203025 0.69940132
0.003904795 -0.0026032031 0.69714159
0.0039161495 -0.0039161146 0.69759846
0.0039287689 -0.0052383244 0.69810617
0.0039879582 -0.0066466033 0.70048785
0.0040053041 -0.0080106258 0.7011857
0.0040177312 -0.0093747079 0.70168579
0.0040297532 -0.010746032 0.70216954
0.0040418622 -0.012125582 0.70265675
0.004054029 -0.013513416 0.70314634
0.0040662689 -0.014909625 0.70363879
0.0040785987 -0.016314387 0.70413494
0.0040909881 -0.017727613 0.70463341
0.0041039698 -0.019151837 0.70515573
0.0043688156 -0.021844029 0.71581233
0.0043822047 -0.023371696 0.71635103
0.0043951566 -0.02490586 0.71687216
0.0043935082 -0.026361048 0.71680588
0.0043593883 -0.027609468 0.71543294
0.0044294456 -0.029529631 0.71825194
0.0044504558 -0.031153172 0.71909726
0.0044643506 -0.032738596 0.71965641
0.0044783326 -0.034333885 0.72021896
0.0044924216 -0.035939366 0.72078586
0.0045065996 -0.037554979 0.72135633
0.0045222403 -0.039192736 0.72198564
0.0054820389 0.05207938 0.70545989
0.0053696618 0.049669415 0.70206863
0.0053275093 0.047947556 0.7007966
0.0052989316 0.046365678 0.69993418
0.0052777436 0.04486081 0.69929481
0.0052611618 0.043404639 0.69879436
0.0052472381 0.041977912 0.69837421
0.0052363849 0.040582001 0.69804668
0.0052277781 0.039208353 0.69778693
0.0052207285 0.03785032 0.69757414
0.0052162609 0.036513835 0.69743937
0.0052124658 0.035184145 0.69732481
0.0052086958 0.033856541 0.69721103
0.0052059256 0.032537043 0.69712746
0.0052050287 0.031230211 0.6971004
0.0052050287 0.029928952 0.6971004
0.0052328561 0.028780699 0.69794017
0.0052582361 0.027605742 0.69870603
0.0052711181 0.026355594 0.69909483
0.005284044 0.025099248 0.69948488
0.0052970531 0.023836732 0.6998775
0.005310127 0.022568047 0.70027202
0.0053232447 0.021292984 0.70066792
0.0053364481 0.020011693 0.70106637
0.0053496966 0.018723935 0.70146614
0.0053630318 0.017429888 0.70186853
0.0053764121 0.016129255 0.70227242
0.0053898809 0.014822185 0.7026788
0.0054033962 0.013508499 0.70308667
0.0054167262 0.01218769 0.70348889
0.0054230457 0.010846108 0.70367968
0.0054121912 0.0094713569 0.70335209
0.0053569339 0.0080354214 0.70168459
0.0053312695 0.0066640973 0.70091003
0.0053431769 0.005343169 0.70126939
0.0053577186 0.0040183067 0.7017082
0.0053728786 0.0026864409 0.70216578
0.0053953626 0.0013488829 0.70284426
0.0055184537 -0 0.70655882
0.0053574499 -0.0013393462 0.70170015
0.0052242409 -0.002612114 0.69768023
0.0052937041 -0.0039702654 0.69977641
0.0053161592 -0.0053161383 0.70045406
0.0053323945 -0.0066654682 0.70094401
0.0053482763 -0.0080223978 0.70142323
0.0053642527 -0.0093874335 0.70190543
0.0053803455 -0.010760665 0.70239109
0.0053965147 -0.012142152 0.70287901
0.0054127816 -0.013531953 0.70336992
0.0054291678 -0.014930189 0.7038644
0.0054463577 -0.016339034 0.70438313
0.0055487463 -0.018033415 0.70747298
0.0058154115 -0.020353913 0.71552038
0.0058332039 -0.021874487 0.7160573
0.00585113 -0.023404509 0.71659821
0.0058691176 -0.024943709 0.71714103
0.0058860192 -0.026487052 0.71765107
0.0059046983 -0.028047293 0.71821475
0.0059238756 -0.029619336 0.71879351
0.0059423391 -0.03119725 0.7193507
0.0059609436 -0.032785207 0.71991211
0.005979639 -0.03438291 0.72047639
0.0059996694 -0.035998017 0.72108078
0.0067521189 0.054016948 0.70303535
0.0066652629 0.051989079 0.70093846
0.0066183149 0.050299197 0.69980502
0.0065855263 0.048732877 0.69901347
0.0065606823 0.047236919 0.69841361
0.0065414887 0.045790464 0.69795024
0.006525273 0.044371843 0.69755882
0.0065120654 0.042979628 0.69723994
0.006502049 0.041613132 0.69699812
0.0064939074 0.040262222 0.69680154
0.0064884746 0.038930863 0.69667035
0.0064838012 0.037606061 0.69655758
0.0064791101 0.036283016 0.69644427
0.0064765499 0.034973383 0.69638252
0.0064756325 0.033673286 0.69636035
0.0064758742 0.032379389 0.69636619
0.0064772745 0.031090915 0.69640005
0.0064796419 0.029806346 0.69645715
0.0064834622 0.02852726 0.69654942
0.0065774233 0.027625203 0.69881779
0.0065937992 0.026375204 0.69921315
0.0066100056 0.025118053 0.69960439
0.0066262665 0.023854613 0.69999695
0.0066426327 0.022584975 0.70039207
0.0066590803 0.021309078 0.70078921
0.0066755833 0.020026743 0.70118761
0.0066921948 0.018738151 0.70158863
0.0067088627 0.017443091 0.70199108
0.0067256405 0.016141564 0.70239604
0.0067410371 0.014830261 0.70276785
0.0067494698 0.013498932 0.7029714
0.0066825934 0.012028694 0.70135677
0.0066581359 0.010653019 0.70076638
0.0066332999 0.0092866123 0.70016676
0.00664909 0.0079789162 0.70054799
0.006667309 0.006667316 0.70098782
0.0066860393 0.0053488612 0.7014401
0.0068878937 0.0041327775 0.70631325
0.0069074742 0.0027630031 0.70678592
0.0069271387 0.0013854504 0.70726067
0.0069335247 2.9802322e-08 0.70741487
0.0067947935 -0.0013589561 0.70406562
0.0066209636 -0.0026483834 0.69986898
0.0066350223 -0.003981024 0.70020837
0.0066547189 -0.0053237677 0.70068383
0.0066745062 -0.0066744983 0.70116162
0.0066944123 -0.0080332756 0.70164222
0.0067144632 -0.0094002187 0.7021262
0.0067346087 -0.010775328 0.70261258
0.0067548756 -0.012158751 0.70310187
0.0067762425 -0.013552457 0.70361769
0.0069034393 -0.015187562 0.70668852
0.006947638 -0.01667428 0.70775557
0.0069961511 -0.018189967 0.7089268
0.0072793458 -0.020382136 0.71576369
0.0073016481 -0.021904945 0.71630216
0.0073241186 -0.023437142 0.71684462
0.0073467274 -0.024978846 0.71739042
0.007369414 -0.026529878 0.71793818
0.0073923045 -0.028090745 0.71849084
0.007415337 -0.029661328 0.71904683
0.0074384818 -0.031241626 0.71960562
0.0074625732 -0.032835305 0.72018719
0.0080296751 0.056207716 0.70156932
0.0079447925 0.05428943 0.69986165
0.0078950897 0.052633971 0.69886172
0.0078585148 0.051080346 0.6981259
0.0078300042 0.049590051 0.69755232
0.0078082155 0.048150688 0.69711387
0.0077902717 0.046741664 0.69675291
0.0077750771 0.045354635 0.69644725
0.0077636694 0.043994159 0.69621772
0.0077546886 0.042650789 0.69603705
0.0077483193 0.041324377 0.6959089
0.0077427654 0.040004313 0.6957972
0.007737794 0.038688987 0.69569719
0.0077352962 0.037387282 0.69564688
0.0077344063 0.03609392 0.695629
0.0077350088 0.034807533 0.69564116
0.0077367024 0.033525705 0.69567519
0.0077398331 0.032249331 0.6957382
0.0077437432 0.030974984 0.69581687
0.007748636 0.02970311 0.69591528
0.0077549769 0.028434962 0.69604284
0.0078864591 0.027602613 0.69868809
0.0079184491 0.026394844 0.69933164
0.0079379259 0.025136769 0.69972348
0.0079574985 0.023872495 0.70011723
0.0079771681 0.022601992 0.70051295
0.0079969037 0.021325111 0.70090997
0.0080167688 0.020041943 0.70130968
0.0080367019 0.018752307 0.7017107
0.0080557065 0.017454028 0.70209306
0.0080625918 0.016125172 0.70223159
0.0079733543 0.014617831 0.70043623
0.0079446416 0.013241082 0.69985855
0.0079238368 0.011885792 0.69944006
