# .PCD v0.7 - Point Cloud Data file format
VERSION 0.7
FIELDS x y z
SIZE 4 4 4
TYPE F F F
COUNT 1 1 1
WIDTH 1338
HEIGHT 1
VIEWPOINT 0 0 0 1 0 0 0
POINTS 1338
DATA ascii
-0.0067617898 0.056799024 0.70326883
-0.006827665 0.055986851 0.7048592
-0.0068493877 0.054795116 0.70538366
-0.0067515681 0.052662253 0.70302206
-0.0065196413 0.049549282 0.69742274
-0.0065107965 0.048179895 0.69720936
-0.0065107234 0.046877235 0.69720751
-0.0065138233 0.045596778 0.69728231
-0.0065144342 0.044298172 0.6972971
-0.0065144342 0.042995274 0.6972971
-0.0065144342 0.041692376 0.6972971
-0.0065144342 0.040389508 0.6972971
-0.0065144342 0.03908661 0.6972971
-0.0065144342 0.037783742 0.6972971
-0.0065144342 0.036480844 0.6972971
-0.0065144342 0.035177946 0.6972971
-0.0065144342 0.033875078 0.6972971
-0.0065144342 0.03257218 0.6972971
-0.0065144342 0.031269282 0.6972971
-0.0065144342 0.029966444 0.6972971
-0.0065144342 0.028663516 0.6972971
-0.0065139458 0.027358621 0.69728535
-0.0065107234 0.026042938 0.69720751
-0.0065107234 0.024740726 0.69720751
-0.0065107234 0.023438603 0.69720751
-0.0065107234 0.02213648 0.69720751
-0.0065136524 0.020843744 0.69727826
-0.0065144342 0.01954335 0.6972971
-0.0065144342 0.018240422 0.6972971
-0.0065144342 0.016937524 0.6972971
-0.0065144342 0.015634626 0.6972971
-0.0065144342 0.014331758 0.69729716
-0.0065107234 0.013021469 0.69720751
-0.0065107234 0.011719316 0.69720757
-0.0065107234 0.010417163 0.69720751
-0.0065107234 0.0091150701 0.69720751
-0.006512261 0.0078147352 0.69724464
-0.0065144342 0.0065144598 0.69729716
-0.0065144342 0.0052115619 0.69729704
-0.0065144342 0.0039086938 0.6972971
-0.0065144342 0.0026057959 0.6972971
-0.0065144342 0.0013029277 0.6972971
-0.0065112356 2.9802322e-08 0.69721991
-0.0065107234 -0.0013021529 0.69720757
-0.0065107723 -0.0026043057 0.6972087
-0.0065155826 -0.0039093494 0.69732487
-0.0069981799 -0.0055985451 0.70897579
-0.0069984617 -0.0069984198 0.70898253
-0.0069952775 -0.0083943307 0.7089057
-0.0069694887 -0.0097572803 0.70828313
-0.0068491716 -0.010958672 0.70537841
-0.0067807385 -0.012205303 0.70372629
-0.0067813471 -0.013562679 0.70374095
-0.0067821941 -0.014920831 0.70376146
-0.0067932261 -0.016303718 0.70402777
-0.0070057423 -0.018214911 0.70915836
-0.0070014508 -0.019604057 0.70905477
-0.0067808707 -0.020342588 0.70372945
-0.0067807385 -0.021698326 0.70372623
-0.0067806588 -0.023054183 0.70372432
-0.006825868 -0.024573117 0.7048158
-0.0069935601 -0.026575506 0.70886421
-0.0070079747 -0.028031886 0.7092123
-0.0070083989 -0.029435247 0.70922256
-0.0070037935 -0.030816674 0.70911133
-0.006866252 -0.03158474 0.70579076
-0.0067806588 -0.032547146 0.70372438
-0.0067806588 -0.033903271 0.70372438
-0.0067806588 -0.035259426 0.70372438
-0.0067806328 -0.036615431 0.70372367
-0.0067806328 -0.037971526 0.70372367
-0.0067806328 -0.039327681 0.70372373
-0.0067806328 -0.040683776 0.70372367
-0.0067806328 -0.042039931 0.70372373
-0.0067806328 -0.043396026 0.70372367
-0.0067806328 -0.044752181 0.70372373
-0.0067806328 -0.046108305 0.70372367
-0.0067806328 -0.047464401 0.70372367
-0.0067806328 -0.048820555 0.70372373
-0.0067806328 -0.05017665 0.70372367
-0.0067806328 -0.051532805 0.70372373
-0.0067806328 -0.0528889 0.70372367
-0.0067806328 -0.054245055 0.70372373
-0.0067806328 -0.05560115 0.70372367
-0.0067806588 -0.056957543 0.70372432
-0.0067806588 -0.058313638 0.70372432
-0.0067806854 -0.059670031 0.70372498
-0.0067807119 -0.061026394 0.7037257
-0.0067807385 -0.062382787 0.70372629
-0.0067923763 -0.063848317 0.70400727
-0.0054113064 0.05817157 0.70332539
-0.0053960327 0.056658387 0.70286447
-0.0054644085 0.056010216 0.70492786
-0.0053877081 0.05253014 0.70261323
-0.0052055353 0.049452603 0.69711566
-0.0051998682 0.048098803 0.69694465
-0.0051998682 0.046798855 0.69694459
-0.0051998878 0.045499057 0.69694519
-0.0051999264 0.044199407 0.69694638
-0.005199946 0.042899549 0.69694704
-0.0051999851 0.04159987 0.69694817
-0.0052000042 0.040300041 0.69694877
-0.0052000433 0.039000332 0.69694996
-0.0052000824 0.037700593 0.69695115
-0.0052001015 0.036400735 0.69695169
-0.0052001406 0.035100967 0.69695282
-0.0052001793 0.033801168 0.69695407
-0.0052001989 0.032501251 0.69695467
-0.005200238 0.031201452 0.6969558
-0.0052002766 0.029901594 0.69695699
-0.0052002962 0.028601646 0.69695753
-0.0052003353 0.027301759 0.69695878
-0.0052003544 0.026001781 0.69695938
-0.0052003935 0.024701893 0.69696051
-0.0052004326 0.023401946 0.6969617
-0.0052004517 0.022101939 0.69696224
-0.0052004908 0.020801991 0.69696343
-0.0052005299 0.019501984 0.69696468
-0.005200549 0.018201947 0.69696522
-0.005200549 0.016901791 0.69696528
-0.005200549 0.015601665 0.69696522
-0.005200549 0.014301538 0.69696522
-0.005200549 0.013001382 0.69696522
-0.005200549 0.011701256 0.69696522
-0.005200549 0.0104011 0.69696522
-0.005200549 0.0091009736 0.69696522
-0.0052005104 0.0078007877 0.69696409
-0.0052004326 0.0065006018 0.69696164
-0.0052003544 0.0052003562 0.69695932
-0.0052002575 0.0039002001 0.6969564
-0.0052001793 0.0026001334 0.69695401
-0.0052001015 0.0013000071 0.69695169
-0.0052000238 -0 0.6969493
-0.0051999264 -0.0012999773 0.69694644
-0.0051998487 -0.0025999248 0.69694412
-0.0052041127 -0.0039030313 0.69707274
-0.0054168738 -0.0054168403 0.70349336
-0.0054168738 -0.0067710876 0.70349336
-0.0054168738 -0.0081252456 0.70349342
-0.0054168738 -0.0094794929 0.70349342
-0.0054128659 -0.010825723 0.70337248
-0.0054109059 -0.012174517 0.70331329
-0.0054109483 -0.013527334 0.7033146
-0.0054109483 -0.014880091 0.7033146
-0.0054109483 -0.016232818 0.7033146
-0.0054109483 -0.017585576 0.7033146
-0.0054109483 -0.018938303 0.70331454
-0.0054109693 -0.02029112 0.7033152
-0.0054109693 -0.021643877 0.70331514
-0.0054109483 -0.022996515 0.70331454
-0.0054109059 -0.024349034 0.70331329
-0.0054168738 -0.025730103 0.70349336
-0.0054168738 -0.027084351 0.70349342
-0.0054168738 -0.028438568 0.70349342
-0.0054168738 -0.029792786 0.70349336
-0.0054128026 -0.031123579 0.70337057
-0.0054109059 -0.032465428 0.70331335
-0.0054109059 -0.033818126 0.70331329
-0.0054109059 -0.035170853 0.70331329
-0.0054109059 -0.03652361 0.70331329
-0.0054109059 -0.037876338 0.70331329
-0.0054109059 -0.039229065 0.70331329
-0.0054109059 -0.040581793 0.70331329
-0.0054109059 -0.04193452 0.70331329
-0.0054109059 -0.043287218 0.70331329
-0.0054109059 -0.044639945 0.70331329
-0.0054109059 -0.045992672 0.70331335
-0.0054109059 -0.04734543 0.70331329
-0.0054109059 -0.048698127 0.70331335
-0.0054109059 -0.050050884 0.70331329
-0.0054109059 -0.051403582 0.70331335
-0.0054109059 -0.052756339 0.70331329
-0.0054109059 -0.054109037 0.70331335
-0.0054109059 -0.055461794 0.70331329
-0.0054109269 -0.05681473 0.70331395
-0.0054109269 -0.058167428 0.70331389
-0.0054109483 -0.059520423 0.7033146
-0.0054109693 -0.060873419 0.70331526
-0.0054109693 -0.062226146 0.7033152
-0.0054175071 -0.063655674 0.70351249
-0.0040491158 0.058037341 0.70294857
-0.0040401705 0.056562424 0.70258868
-0.0040983064 0.056010216 0.70492786
-0.0040333392 0.052433401 0.70231378
-0.003903406 0.049443185 0.69708568
-0.0038977284 0.04807201 0.69685721
-0.0038977284 0.046772748 0.69685727
-0.0038977284 0.045473546 0.69685721
-0.0038977284 0.044174284 0.69685721
-0.0038977284 0.042875022 0.69685721
-0.0038977284 0.04157576 0.69685727
-0.0038977284 0.040276557 0.69685721
-0.0038977284 0.038977295 0.69685721
-0.0038977284 0.037678063 0.69685727
-0.0038977284 0.036378801 0.69685721
-0.0038977284 0.035079598 0.69685721
-0.0038977284 0.033780307 0.69685721
-0.0038977284 0.032481074 0.69685727
-0.0038977284 0.031181842 0.69685721
-0.0038977284 0.02988261 0.69685721
-0.0038977284 0.028583348 0.69685727
-0.0038977284 0.027284116 0.69685721
-0.0038977284 0.025984854 0.69685721
-0.0038977284 0.024685621 0.69685721
-0.0038977284 0.023386389 0.69685727
-0.0038977284 0.022087127 0.69685721
-0.0038977284 0.020787895 0.69685721
-0.0038977284 0.019488662 0.69685721
-0.0038977284 0.01818943 0.69685721
-0.0038977284 0.016890168 0.69685721
-0.0038977284 0.015590936 0.69685721
-0.0038977284 0.014291674 0.69685727
-0.0038977284 0.012992471 0.69685721
-0.0038977284 0.01169318 0.69685721
-0.0038977284 0.010393947 0.69685721
-0.0038978742 0.0090950727 0.69686311
-0.0038981074 0.0077962279 0.69687247
-0.0038983405 0.0064972639 0.69688183
-0.0038985738 0.0051981211 0.69689125
-0.0038988071 0.0038988292 0.69690061
-0.0038990404 0.0025993586 0.69691002
-0.0038992739 0.0012997687 0.69691944
-0.0038995072 -0 0.6969288
-0.0038997261 -0.0012998581 0.69693762
-0.0039000763 -0.002600044 0.69695169
-0.0039058339 -0.0039058328 0.69718337
-0.0040511615 -0.0054015219 0.70303094
-0.0040511931 -0.0067519546 0.7030322
-0.004051209 -0.0081023872 0.70303279
-0.0040512243 -0.0094528496 0.70303345
-0.0040512243 -0.010803252 0.70303339
-0.0040512243 -0.012153655 0.70303345
-0.0040512243 -0.013504028 0.70303345
-0.0040512243 -0.014854491 0.70303345
-0.0040512243 -0.016204864 0.70303345
-0.0040512243 -0.017555296 0.70303345
-0.0040512243 -0.018905669 0.70303345
-0.0040512243 -0.020256132 0.70303345
-0.0040512243 -0.021606535 0.70303345
-0.0040512243 -0.022956938 0.70303345
-0.0040512243 -0.024307311 0.70303339
-0.0040512243 -0.025657773 0.70303345
-0.0040512243 -0.027008146 0.70303345
-0.0040512243 -0.028358549 0.70303345
-0.0040512243 -0.029708952 0.70303345
-0.0040512243 -0.031059384 0.70303345
-0.0040512243 -0.032409787 0.70303345
-0.0040512243 -0.03376022 0.70303345
-0.0040512243 -0.035110623 0.70303345
-0.0040512243 -0.036461025 0.70303345
-0.004051209 -0.037811249 0.70303279
-0.004051209 -0.039161682 0.70303285
-0.004051209 -0.040512085 0.70303279
-0.004051209 -0.041862458 0.70303279
-0.004051209 -0.043212861 0.70303279
-0.004051209 -0.044563293 0.70303273
-0.004051209 -0.045913696 0.70303273
-0.004051209 -0.047264099 0.70303285
-0.004051209 -0.048614502 0.70303285
-0.004051209 -0.049964905 0.70303279
-0.004051209 -0.051315308 0.70303285
-0.004051209 -0.05266571 0.70303279
-0.004051209 -0.054016113 0.70303279
-0.004051209 -0.055366516 0.70303279
-0.004051209 -0.056716889 0.70303279
-0.0040512243 -0.05806753 0.70303345
-0.0040512402 -0.059418172 0.70303404
-0.0040512402 -0.060768604 0.70303404
-0.004051256 -0.062119246 0.7030347
-0.0040544076 -0.063519031 0.70316148
-0.0040890784 -0.065425217 0.70455652
-0.0026959754 0.05796349 0.70274127
-0.0026906936 0.056504577 0.7024225
-0.0026883516 0.053767055 0.70228112
-0.0026858891 0.05237487 0.70213252
-0.002679324 0.050907165 0.70173621
-0.0026501729 0.049028218 0.6999768
-0.0026498192 0.047696739 0.69995552
-0.002660196 0.046553433 0.70058179
-0.0026733666 0.04544723 0.70137668
-0.0026734078 0.044111222 0.70137918
-0.0026734078 0.042774528 0.70137918
-0.0026734078 0.041437835 0.70137918
-0.0026734078 0.040101111 0.70137918
-0.0026734078 0.038764417 0.70137918
-0.0026740248 0.037436366 0.70141643
-0.0026812055 0.036196321 0.70184982
-0.0026823438 0.034870476 0.70191854
-0.0026823336 0.033529192 0.70191789
-0.0026823336 0.032187998 0.70191789
-0.0026823336 0.030846864 0.70191795
-0.0026823336 0.0295057 0.70191789
-0.0026823336 0.028164536 0.70191789
-0.0026664631 0.026664644 0.70096004
-0.0026494858 0.025170147 0.69993538
-0.002649284 0.023843586 0.69992322
-0.0026508502 0.022532254 0.70001769
-0.0026689619 0.021351695 0.70111084
-0.0026823231 0.020117462 0.70191729
-0.0026823231 0.018776268 0.70191729
-0.0026823231 0.017435104 0.70191729
-0.0026823231 0.01609394 0.70191729
-0.0026823231 0.014752805 0.70191729
-0.0026661973 0.013330996 0.70094407
-0.0026496174 0.011923313 0.6999433
-0.002649284 0.010597169 0.69992316
-0.0026505976 0.0092771053 0.70000249
-0.0026708185 0.0080124736 0.7012229
-0.0026844991 0.0067112744 0.7020486
-0.0026853911 0.0053707957 0.70210248
-0.0026862733 0.004029423 0.70215571
-0.0026871664 0.0026871562 0.70220959
-0.0026880605 0.0013440549 0.70226353
-0.002670757 2.9802322e-08 0.70121914
-0.0026513459 -0.0013256371 0.70004761
-0.0026512649 -0.0026512444 0.70004272
-0.0026551853 -0.0039828122 0.70027936
-0.0027095352 -0.0054190457 0.70355964
-0.0027095247 -0.0067737997 0.70355904
-0.0027095247 -0.0081285536 0.70355904
-0.0027095247 -0.0094833374 0.7035591
-0.002702465 -0.010809839 0.70313293
-0.0026980164 -0.012141079 0.70286447
-0.0026980164 -0.013490081 0.70286453
-0.0026980059 -0.014839053 0.70286381
-0.0026980059 -0.016188025 0.70286381
-0.0026980687 -0.017537445 0.70286769
-0.0026980059 -0.018886 0.70286381
-0.0026980059 -0.020235032 0.70286381
-0.0026980164 -0.021584153 0.70286453
-0.0026980164 -0.022933125 0.70286447
-0.0026981735 -0.024283528 0.70287395
-0.0027095352 -0.025740564 0.70355964
-0.0027095352 -0.027095348 0.7035597
-0.0027095352 -0.028450131 0.7035597
-0.0027095352 -0.029804885 0.7035597
-0.0027027067 -0.03108111 0.70314753
-0.0026980059 -0.032376051 0.70286387
-0.0026980059 -0.033725053 0.70286381
-0.0026980059 -0.035074055 0.70286387
-0.0026980059 -0.036423057 0.70286381
-0.0026980164 -0.037772238 0.70286453
-0.0026980164 -0.039121211 0.70286447
-0.0026980164 -0.040470243 0.70286447
-0.0026980164 -0.041819274 0.70286453
-0.0026980164 -0.043168247 0.70286447
-0.0026980268 -0.044517398 0.70286506
-0.0026980268 -0.04586646 0.70286506
-0.0026980268 -0.047215492 0.70286512
-0.0026980268 -0.048564494 0.70286512
-0.0026980373 -0.049913675 0.70286572
-0.0026980478 -0.051262915 0.70286632
-0.0026980583 -0.052612126 0.70286697
-0.0026980687 -0.053961366 0.70286763
-0.0026980792 -0.055310637 0.70286822
-0.0026980792 -0.056659669 0.70286822
-0.0026980897 -0.058008939 0.70286888
-0.0026981002 -0.05935818 0.70286947
-0.0026981106 -0.06070748 0.70287013
-0.0026981106 -0.062056541 0.70287013
-0.0026999766 -0.063449442 0.70298278
-0.0027193639 -0.065264732 0.70415294
-0.0013474232 0.057939202 0.70267314
-0.0013449198 0.056486636 0.70237088
-0.001343708 0.053748339 0.70222467
-0.0013424569 0.052355856 0.70207363
-0.0013391973 0.050889522 0.70168018
-0.0013287044 0.04916209 0.70041353
-0.001328618 0.047830254 0.70040315
-0.0013386401 0.04685241 0.70161289
-0.0013403597 0.045572221 0.70182049
-0.0013403597 0.044231862 0.70182043
-0.0013403597 0.042891502 0.70182049
-0.0013403597 0.041551173 0.70182049
-0.0013403597 0.040210813 0.70182043
-0.0013403648 0.038870603 0.70182109
-0.0013405975 0.03753674 0.70184922
-0.0013527845 0.03652522 0.70332032
-0.0013706719 0.035637468 0.7054795
-0.0013802875 0.034507185 0.70664024
-0.0013805233 0.033132553 0.70666873
-0.0013806056 0.031753957 0.70667857
-0.0013806878 0.030375183 0.70668852
-0.0013807701 0.02899617 0.70669848
-0.0013808085 0.027616203 0.70670307
-0.0013288873 0.025248885 0.70043564
-0.001328552 0.02391395 0.70039511
-0.0013303882 0.022616625 0.70061684
-0.0013714996 0.021944016 0.70557946
-0.0013809677 0.020714551 0.70672232
-0.0013812971 0.019338191 0.70676202
-0.0013813794 0.017957956 0.70677197
-0.0013814619 0.016577572 0.70678186
-0.0013815443 0.015196979 0.70679188
-0.0013805617 0.013805658 0.70667326
-0.0013290093 0.011961102 0.70045036
-0.001328552 0.010628432 0.70039517
-0.0013301845 0.0093113184 0.70059228
-0.0013776388 0.0082658529 0.70632046
-0.0013822312 0.0069111884 0.70687485
-0.0013824017 0.0055296123 0.70689541
-0.0013825612 0.0041477084 0.70691472
-0.0013827317 0.0027654767 0.70693523
-0.0013828969 0.0013829172 0.70695513
-0.001379356 -0 0.70652771
-0.0013292279 -0.0013292134 0.70047677
-0.0013287044 -0.0026574135 0.70041358
-0.001330531 -0.003991574 0.70063406
-0.0013873638 -0.0055494606 0.70749438
-0.0013874579 -0.0069372654 0.7075057
-0.0013875467 -0.0083252788 0.70751649
-0.0013876408 -0.0097134411 0.70752782
-0.0013730822 -0.010984629 0.70577043
-0.0013485632 -0.012137055 0.70281076
-0.0013485946 -0.013485909 0.70281452
-0.0013486312 -0.01483494 0.70281893
-0.0013511064 -0.016213298 0.70311779
-0.0013833153 -0.017983109 0.70700574
-0.0013609921 -0.019053876 0.70431101
-0.001348783 -0.020231724 0.70283723
-0.0013487098 -0.021579325 0.70282841
-0.0013486417 -0.022926897 0.70282024
-0.0013496003 -0.024292797 0.70293593
-0.0013887334 -0.026385903 0.70765972
-0.0013888278 -0.027776569 0.70767111
-0.0013889166 -0.029167235 0.70768183
-0.0013890055 -0.030558109 0.7076925
-0.001372594 -0.03156966 0.70571148
-0.0013485528 -0.032365263 0.70280951
-0.0013485528 -0.033713788 0.70280945
-0.0013485528 -0.035062343 0.70280951
-0.001348558 -0.036411047 0.70281011
-0.001348558 -0.037759572 0.70281011
-0.0013485632 -0.039108336 0.70281076
-0.0013485632 -0.040456891 0.7028107
-0.0013485685 -0.041805595 0.70281142
-0.0013485685 -0.04315418 0.70281136
-0.0013485737 -0.044502914 0.70281202
-0.0013485737 -0.045851469 0.70281196
-0.0013485788 -0.047200263 0.70281267
-0.0013485788 -0.048548818 0.70281261
-0.0013485788 -0.049897403 0.70281267
-0.0013485841 -0.051246166 0.70281327
-0.0013485893 -0.05259499 0.70281392
-0.0013485946 -0.053943783 0.70281458
-0.0013485998 -0.055292606 0.70281518
-0.001348605 -0.0566414 0.70281577
-0.0013486103 -0.057990253 0.70281643
-0.0013486155 -0.059339076 0.70281708
-0.0013486207 -0.060687929 0.70281774
-0.0013486207 -0.062036544 0.70281768
-0.0013494693 -0.063425034 0.70292008
-0.0013586028 -0.065212935 0.70402265
0 0.057963729 0.70274186
0 0.056518584 0.70246279
0 0.055148542 0.70239109
0 0.053779721 0.70231944
0 0.052375644 0.70213503
0 0.050906986 0.70173562
0 0.049006343 0.69990551
0 0.047683477 0.699911
0 0.046878785 0.70170385
0 0.045584381 0.70186353
0 0.044243991 0.70186478
0 0.042903751 0.70186669
0 0.041563511 0.70186853
0 0.040223181 0.70187044
0 0.038882911 0.70187229
0 0.037548333 0.70189917
0 0.036535859 0.70336801
0 0.0356915 0.70573056
0 0.034595847 0.7070682
0 0.033255458 0.70728672
0 0.031873107 0.707304
0 0.030490011 0.70731866
0 0.029106021 0.70733011
0 0.027721614 0.70733941
0 0.025159985 0.69987082
0 0.023833036 0.69985253
0 0.022572815 0.7003057
0 0.022091597 0.70669317
0 0.020796716 0.70738345
0 0.019413114 0.70740819
0 0.018028468 0.70742685
0 0.016642869 0.70743889
0 0.015257061 0.70745093
0 0.013866454 0.70740753
0 0.011920542 0.69990611
0 0.010592431 0.69985187
0 0.0092879534 0.70018935
0 0.0083102584 0.70721406
0 0.0069378018 0.70751774
0 0.0055506825 0.70753121
0 0.0041635036 0.70755059
0 0.0027758777 0.707564
0 0.001388073 0.70757663
0 2.9802322e-08 0.70732272
0 -0.001324892 0.69995493
0 -0.0026480556 0.69985008
0 -0.0039778352 0.70007998
0 -0.0055538714 0.70762825
0 -0.0069432259 0.70764899
0 -0.0083327293 0.70766574
0 -0.0096984804 0.70726931
0 -0.010793388 0.70288467
0 -0.012141705 0.70287329
0 -0.013491303 0.70287967
0 -0.015089154 0.70560879
0 -0.016667843 0.70769048
0 -0.018066436 0.70777977
0 -0.01943779 0.70762157
0 -0.020571142 0.70556897
0 -0.021596372 0.70295686
0 -0.022934735 0.70287585
0 -0.024284601 0.70288086
0 -0.02565065 0.70298851
0 -0.027807236 0.70785624
0 -0.029200852 0.70787501
0 -0.03058511 0.7078408
0 -0.031558931 0.70565522
0 -0.032376915 0.70286828
0 -0.033725977 0.70286822
0 -0.035075039 0.70286828
0 -0.036424041 0.70286822
0 -0.037773132 0.70286828
0 -0.039122105 0.70286828
0 -0.040471017 0.70286763
0 -0.041820049 0.70286763
0 -0.04316926 0.70286822
0 -0.044518441 0.70286888
0 -0.045867682 0.70286953
0 -0.047216713 0.70286953
0 -0.048565984 0.70287013
0 -0.049915224 0.70287079
0 -0.051264465 0.70287138
0 -0.052613765 0.70287204
0 -0.053963065 0.70287269
0 -0.055312365 0.70287329
0 -0.056661397 0.70287329
0 -0.058010697 0.70287395
0 -0.059360027 0.7028746
0 -0.060709387 0.70287526
0 -0.062058687 0.70287585
0 -0.063448936 0.70298153
0 -0.065266252 0.70415676
0.0013497052 0.058037341 0.70294857
0.0013468069 0.056565911 0.70259869
0.0013462016 0.055194288 0.70252573
0.0013455969 0.053823858 0.70245266
0.0013444931 0.052435249 0.70231944
0.00130783 0.049697578 0.69789374
0.0013038744 0.048243374 0.69741631
0.0013155445 0.047359586 0.698825
0.0013403184 0.04691115 0.70181549
0.0013421406 0.045632809 0.70203549
0.0013421302 0.044290304 0.70203424
0.0013421199 0.042947859 0.70203298
0.0013421095 0.041605383 0.70203173
0.0013421044 0.040263176 0.70203108
0.0013421044 0.038921028 0.70203108
0.0013422703 0.037583619 0.7020511
0.0013540707 0.036559939 0.70347559
0.0013738477 0.035720021 0.70586288
0.0013856211 0.034640521 0.70728403
0.0013877018 0.03330487 0.70753515
0.0013878071 0.031919599 0.70754784
0.0013879124 0.030534089 0.7075606
0.0013879568 0.029147118 0.70756596
0.0013880621 0.027761221 0.70757872
0.0013039282 0.024774671 0.6974228
0.0013038646 0.023469567 0.69741511
0.0013265434 0.022551268 0.7001527
0.0013823577 0.022117764 0.70689011
0.001388345 0.020825207 0.70761287
0.0013887445 0.019442409 0.70766103
0.0013888445 0.018054992 0.70767307
0.0013889443 0.016667366 0.70768511
0.0013889888 0.015278876 0.70769054
0.0013886335 0.013886362 0.70764768
0.0013039429 0.011735499 0.69742459
0.0013038695 0.010430962 0.69741571
0.0013152955 0.0092070699 0.69879496
0.0013869873 0.0083219707 0.70744896
0.0013896776 0.0069483817 0.70777369
0.0013897832 0.0055591464 0.70778644
0.0013898888 0.0041696429 0.7077992
0.0013899389 0.002779901 0.70780528
0.0013900334 0.0013900399 0.70781666
0.0013879568 5.9604645e-08 0.70756596
0.0013044275 -0.0013044178 0.69748306
0.0013038842 -0.0026077628 0.6974175
0.0013052262 -0.0039156675 0.6975795
0.0013906286 -0.0055624843 0.70788848
0.0013898499 -0.0069492161 0.70779443
0.0013515163 -0.0081090927 0.7031672
0.0013504868 -0.0094533861 0.70304292
0.001350639 -0.0108051 0.70306134
0.0013510644 -0.012159556 0.70311266
0.0013887001 -0.013887018 0.70765567
0.0013914083 -0.015305489 0.70798266
0.0013916534 -0.016699791 0.70801216
0.0013917538 -0.018092811 0.70802432
0.0013916868 -0.019483596 0.70801622
0.0013914751 -0.020872116 0.70799065
0.0013820003 -0.022111982 0.70684695
0.0013556132 -0.023045421 0.70366174
0.0013505025 -0.024309009 0.70304483
0.0013505183 -0.025659859 0.70304674
0.0013506757 -0.027013481 0.70306575
0.0013914473 -0.029220343 0.70798725
0.0013890443 -0.030559003 0.70769727
0.0013510276 -0.03107363 0.70310825
0.0013504238 -0.032410145 0.7030353
0.0013504238 -0.033760577 0.7030353
0.0013504185 -0.035110861 0.7030347
0.0013504238 -0.036461413 0.70303535
0.001350429 -0.037811995 0.70303595
0.001350429 -0.039162427 0.70303595
0.0013504343 -0.040513039 0.70303661
0.0013504395 -0.04186365 0.70303726
0.0013504447 -0.043214202 0.70303786
0.00135045 -0.044564843 0.70303845
0.00135045 -0.045915306 0.70303851
0.0013504553 -0.047265917 0.70303917
0.0013504606 -0.048616558 0.70303977
0.0013504658 -0.0499672 0.70304042
0.0013504711 -0.051317871 0.70304102
0.0013504763 -0.052668542 0.70304167
0.0013504763 -0.054019004 0.70304161
0.0013504815 -0.055369735 0.70304233
0.0013504868 -0.056720465 0.70304298
0.001350492 -0.058071136 0.70304352
0.0013504972 -0.059421867 0.70304418
0.0013505025 -0.060772598 0.70304483
0.0013505025 -0.06212309 0.70304483
0.0013515321 -0.063522011 0.70316911
0.0013630422 -0.065426022 0.70455849
0.0027058639 0.0581761 0.70333815
0.0026982888 0.056664079 0.70288086
0.0026970531 0.055289596 0.70280635
0.0026958184 0.053916365 0.70273179
0.0026940003 0.05253306 0.70262206
0.0026037528 0.049471349 0.69717515
0.0026004789 0.048108846 0.69697756
0.0026022706 0.046840876 0.69708568
0.0026745601 0.046804816 0.70144874
0.0026851422 0.045647442 0.7020874
0.0026853704 0.044308633 0.70210117
0.0026853704 0.042965949 0.70210117
0.0026853704 0.041623265 0.70210117
0.0026853704 0.040280581 0.70210117
0.0026853704 0.038937896 0.70210123
0.0026856712 0.037599415 0.70211935
0.0027100951 0.036586285 0.70359349
0.0027512417 0.035766155 0.70607686
0.0027730779 0.034663469 0.70739484
0.0027739967 0.033287942 0.70745027
0.0027742181 0.031903505 0.70746368
0.0027744395 0.03051886 0.70747703
0.0027746612 0.029133916 0.70749038
0.0026019686 0.026019692 0.69706744
0.0026004498 0.024704278 0.69697577
0.002600508 0.023404598 0.69697928
0.0026014622 0.022112459 0.69703686
0.0027618697 0.022094965 0.70671839
0.0027759578 0.020819724 0.70756865
0.0027762572 0.019433856 0.70758671
0.0027764791 0.018047094 0.70760012
0.002776701 0.016660213 0.70761353
0.0027768675 0.015272796 0.7076236
0.0026066436 0.013033271 0.69734961
0.0026004303 0.011701941 0.69697464
0.0026004887 0.010401934 0.69697815
0.0026005472 0.0091019571 0.69698167
0.002772049 0.0083161592 0.70733273
0.0027782551 0.0069456697 0.70770729
0.0027785217 0.0055570602 0.70772332
0.0027787439 0.0041680932 0.70773679
0.0027789774 0.0027789772 0.70775086
0.0027790661 0.0013895631 0.70775622
0.0027742623 2.9802322e-08 0.7074663
0.0026004401 -0.0013001859 0.69697517
0.002600586 -0.0026005805 0.69698405
0.0026023388 -0.0039034784 0.69708985
0.002779633 -0.0055592656 0.70779049
0.0027057268 -0.0067643225 0.70332986
0.0027055794 -0.0081167221 0.70332092
0.0027056003 -0.0094695985 0.70332217
0.0027203858 -0.010881543 0.70421463
0.002788903 -0.012550056 0.70834994
0.002790258 -0.013951272 0.70843172
0.002790807 -0.015349448 0.70846486
0.0027910313 -0.016746193 0.70847839
0.0027912555 -0.018143177 0.70849192
0.0027914909 -0.019540459 0.70850611
0.0027919954 -0.020939976 0.70853657
0.0027913898 -0.022331089 0.70850003
0.0027838086 -0.023662359 0.70804244
0.002720929 -0.02448836 0.70424736
0.0027055794 -0.025703013 0.70332098
0.0027056111 -0.027056098 0.70332283
0.0027056532 -0.028409332 0.70332533
0.0027056532 -0.029762149 0.70332533
0.0027056637 -0.031115115 0.70332605
0.0027056637 -0.032467932 0.70332599
0.0027056742 -0.033820927 0.70332664
0.0027056742 -0.035173744 0.70332664
0.0027056846 -0.03652674 0.7033273
0.0027056846 -0.037879586 0.7033273
0.0027056953 -0.039232552 0.70332789
0.0027056953 -0.040585428 0.70332789
0.0027057058 -0.041938424 0.70332861
0.0027057058 -0.043291271 0.70332855
0.0027057058 -0.044644117 0.70332849
0.0027057163 -0.045997143 0.70332921
0.0027057163 -0.047350019 0.70332921
0.0027057268 -0.048703074 0.7033298
0.0027057268 -0.050055951 0.7033298
0.0027057268 -0.051408798 0.70332986
0.0027057375 -0.052761853 0.70333046
0.0027057375 -0.054114729 0.70333052
0.0027057375 -0.055467606 0.70333052
0.002705748 -0.056820691 0.70333111
0.002705748 -0.058173567 0.70333111
0.0027057584 -0.059526652 0.70333171
0.0027057584 -0.060879558 0.70333177
0.0027057584 -0.062232465 0.70333171
0.0027088805 -0.063658655 0.70352018
0.0040749158 0.058407128 0.70398676
0.004057548 0.0568057 0.70328784
0.0040556379 0.055427074 0.70321101
0.0040537138 0.054049522 0.70313358
0.004051303 0.052666962 0.70303655
0.0039125043 0.049558401 0.69745171
0.0039069024 0.04818514 0.69722641
0.0039069904 0.046883881 0.69722986
0.0039070342 0.045582056 0.69723171
0.0039070342 0.044279754 0.69723171
0.0039070342 0.042977393 0.69723171
0.0039070342 0.041675031 0.69723171
0.0039070342 0.040372699 0.69723165
0.0039070342 0.039070368 0.69723165
0.0039070342 0.037768036 0.69723165
0.0039070342 0.036465675 0.69723165
0.0039070342 0.035163313 0.69723165
0.0039070342 0.033861011 0.69723165
0.0039070342 0.03255862 0.69723171
0.0039070784 0.031256646 0.69723344
0.0039071077 0.029954493 0.69723463
0.0039071366 0.02865234 0.69723582
0.003907166 0.027350187 0.69723701
0.0039071953 0.026047975 0.69723821
0.0039072246 0.024745733 0.69723934
0.0039072246 0.023443371 0.69723934
0.0039072246 0.02214095 0.69723934
0.0039072246 0.020838559 0.69723928
0.0039072246 0.019536167 0.69723934
0.0039072246 0.018233687 0.69723934
0.0039072246 0.016931325 0.69723934
0.0039072246 0.015628904 0.69723934
0.0039072246 0.014326483 0.69723934
0.0039071953 0.013024002 0.69723821
0.0039071366 0.011721432 0.69723582
0.0039070784 0.010418892 0.69723344
0.0039070048 0.0091163516 0.69723052
0.0039070048 0.0078139901 0.69723052
0.0039070048 0.0065116882 0.69723046
0.0039070048 0.0052093267 0.69723052
0.0039070048 0.0039070547 0.69723046
0.0039070048 0.0026046634 0.69723052
0.0039070048 0.0013023615 0.69723046
0.0039070048 -0 0.69723052
0.003906976 -0.0013023317 0.69722933
0.0039069317 -0.0026046038 0.69722754
0.0039096135 -0.0039095879 0.69733542
0.0040687928 -0.005425036 0.7037403
0.004068634 -0.0067810118 0.70373392
0.004068586 -0.0081371367 0.70373195
0.004068729 -0.0094937086 0.7037378
0.004198079 -0.011194855 0.70894241
0.0041991784 -0.012597501 0.70898664
0.0041995337 -0.013998419 0.70900095
0.004199889 -0.015399575 0.70901525
0.0042002443 -0.01680097 0.70902956
0.0042005996 -0.018202573 0.70904386
0.0042009554 -0.019604474 0.70905817
0.0042013279 -0.021006614 0.70907313
0.0042016832 -0.022408932 0.70908737
0.0041935868 -0.023763657 0.70876169
0.0040824804 -0.024494857 0.70429111
0.0040685544 -0.025767505 0.70373076
0.0040685702 -0.027123779 0.70373142
0.004068586 -0.028480083 0.70373201
0.004068586 -0.029836297 0.70373207
0.0040686023 -0.031192601 0.70373267
0.0040686182 -0.032548934 0.70373333
0.004068634 -0.033905268 0.70373392
0.004068634 -0.035261512 0.70373392
0.0040686498 -0.036617815 0.70373458
0.0040686657 -0.037974209 0.70373523
0.0040686815 -0.039330572 0.70373589
0.0040686815 -0.040686816 0.70373583
0.0040686973 -0.042043209 0.70373648
0.0040687132 -0.043399602 0.70373714
0.004068729 -0.044755995 0.70373774
0.0040687448 -0.046112418 0.70373845
0.0040687448 -0.047468662 0.70373845
0.0040687611 -0.048825115 0.70373905
0.004068777 -0.050181538 0.7037397
0.0040687928 -0.051537991 0.7037403
0.0040687928 -0.052894294 0.70374036
0.0040688086 -0.054250747 0.70374095
0.0040688245 -0.055607229 0.70374161
0.0040688403 -0.056963772 0.70374227
0.0040688561 -0.058320254 0.70374292
0.0040688561 -0.059676528 0.70374286
0.004068872 -0.06103307 0.70374358
0.0040688878 -0.062389582 0.70374417
0.0040760948 -0.063858777 0.70403415
0.0054281284 0.056995362 0.70383304
0.0054254378 0.055610746 0.7037518
0.0054227705 0.05422771 0.70367134
0.005420106 0.052846074 0.70359099
0.005231556 0.049699783 0.69790089
0.0052210423 0.048294663 0.69758362
0.0052210423 0.046989381 0.69758362
0.0052210423 0.045684129 0.69758368
0.0052210423 0.044378877 0.69758362
0.0052210423 0.043073624 0.69758368
0.0052210423 0.041768342 0.69758368
0.0052210423 0.04046309 0.69758368
0.0052210423 0.039157808 0.69758368
0.0052210423 0.037852585 0.69758362
0.0052210423 0.036547303 0.69758368
0.0052210423 0.035242021 0.69758368
0.0052210423 0.033936769 0.69758368
0.0052210619 0.032631665 0.69758427
0.005221101 0.031326652 0.6975854
0.0052211597 0.030021697 0.69758719
0.0052211992 0.028716594 0.69758838
0.0052212384 0.02741152 0.69758958
0.0052212775 0.026106417 0.69759071
0.0052213166 0.024801284 0.6975919
0.0052213562 0.023496091 0.69759309
0.0052214148 0.022191048 0.69759488
0.005221454 0.020885825 0.69759607
0.0052214931 0.019580603 0.69759727
0.0052215327 0.01827538 0.6975984
0.0052215718 0.016970098 0.69759965
0.0052216109 0.015664846 0.69760084
0.00522165 0.014359564 0.69760197
0.00522165 0.013054132 0.69760197
0.00522165 0.011748731 0.69760197
0.0052216109 0.01044324 0.69760084
0.0052215327 0.0091376603 0.69759846
0.0052214344 0.0078321993 0.69759548
0.0052213562 0.0065267384 0.69759309
0.0052212579 0.0052212775 0.69759017
0.0052211792 0.003915906 0.69758779
0.005221101 0.0026105642 0.6975854
0.0052210814 0.0013053119 0.69758481
0.0052210619 2.9802322e-08 0.69758427
0.0052210619 -0.0013052523 0.69758427
0.0052210423 -0.0026105046 0.69758368
0.0052250265 -0.0039187372 0.6977039
0.0054430091 -0.0054430068 0.7042821
0.0054430091 -0.006803751 0.70428205
0.0054430091 -0.0081644654 0.7042821
0.0054430091 -0.0095252097 0.70428205
0.0054461868 -0.010892332 0.70437801
0.0054465067 -0.012254626 0.70438766
0.0054465067 -0.013616264 0.70438766
0.0054465067 -0.014977902 0.70438766
0.0054465067 -0.016339511 0.70438766
0.0054465067 -0.017701179 0.70438766
0.0054465067 -0.019062757 0.70438766
0.0054465067 -0.020424426 0.70438766
0.0054465067 -0.021785975 0.70438761
0.005446272 -0.0231466 0.70438051
0.0054430091 -0.024493515 0.7042821
0.00544303 -0.025854379 0.70428276
0.00544303 -0.027215153 0.70428276
0.0054430515 -0.028575987 0.70428336
0.0054430515 -0.029936761 0.70428336
0.0054430729 -0.031297624 0.70428401
0.0054430943 -0.032658577 0.70428467
0.0054430943 -0.034019321 0.70428467
0.0054431153 -0.035380214 0.70428532
0.0054431367 -0.036741167 0.70428592
0.0054431581 -0.03810209 0.70428658
0.0054431581 -0.039462894 0.70428663
0.0054431795 -0.040823847 0.70428729
0.0054432009 -0.0421848 0.70428789
0.0054432219 -0.043545753 0.70428848
0.0054432219 -0.044906586 0.70428854
0.0054432433 -0.046267569 0.7042892
0.0054432647 -0.047628552 0.70428979
0.0054432862 -0.048989564 0.70429045
0.0054432862 -0.050350368 0.70429045
0.0054433071 -0.05171144 0.70429111
0.0054433285 -0.053072453 0.70429176
0.0054433499 -0.054433495 0.70429242
0.0054433499 -0.055794328 0.70429236
0.0054433714 -0.057155401 0.70429307
0.0054433928 -0.058516443 0.70429367
0.0054434137 -0.059877545 0.70429432
0.0054434137 -0.061238348 0.70429426
0.005443478 -0.062599987 0.70429623
0.0054573924 -0.064124346 0.70471615
0.006815291 0.057248473 0.7045604
0.0068106693 0.055847496 0.70444882
0.0068071466 0.054457158 0.70436382
0.0068036546 0.053068489 0.70427954
0.0067854258 0.051569253 0.70383942
0.0066995234 0.049576491 0.70176554
0.0066554323 0.047919154 0.70070112
0.0066554323 0.046588004 0.70070112
0.0066554579 0.045257121 0.70070171
0.0066554579 0.04392609 0.70070171
0.0066554323 0.042594761 0.70070112
0.0066554579 0.041263819 0.70070171
0.0066554579 0.039932758 0.70070171
0.0066554579 0.038601667 0.70070171
0.0066554579 0.037270576 0.70070171
0.0066554579 0.035939455 0.70070171
0.0066554579 0.034608394 0.70070171
0.0066554579 0.033277333 0.70070171
0.0066554835 0.031946301 0.70070231
0.0066554071 0.030614883 0.70070046
0.0066554323 0.029283911 0.70070112
0.0066554323 0.02795285 0.70070112
0.0066554323 0.026621729 0.70070112
0.0066554323 0.025290668 0.70070106
0.0066554323 0.023959577 0.70070112
0.0066554323 0.022628486 0.70070112
0.0066554071 0.021297336 0.70070052
0.0066554071 0.019966245 0.70070052
0.0066554323 0.018635213 0.70070112
0.0066554323 0.017304122 0.70070112
0.0066554323 0.015973061 0.70070112
0.0066554579 0.014642 0.70070165
0.0066554579 0.013310909 0.70070171
0.0066554323 0.011979789 0.70070112
0.0066554071 0.010648698 0.70070052
0.0066569117 0.0093196929 0.70073682
0.0066598719 0.0079918206 0.70080829
0.00666286 0.0066628754 0.70088041
0.006665851 0.0053327084 0.70095259
0.0066688447 0.0040013194 0.70102489
0.0066718408 0.0026687682 0.70109725
0.0066748396 0.001334995 0.70116967
0.0066778669 2.9802322e-08 0.70124269
0.0066807945 -0.0013361275 0.70131338
0.0066838274 -0.0026735067 0.70138663
0.0067187217 -0.0040312409 0.70222908
0.0068336274 -0.0054668784 0.70500308
0.0068335733 -0.0068335533 0.70500177
0.0068337079 -0.0082004368 0.70500511
0.006833896 -0.0095674396 0.70500958
0.0068340572 -0.010934472 0.70501345
0.0068342453 -0.012301624 0.70501804
0.0068344069 -0.013668776 0.70502192
0.006834595 -0.015036076 0.70502645
0.0068347831 -0.016403466 0.70503104
0.0068349447 -0.017770857 0.70503491
0.0068351328 -0.019138366 0.7050395
0.006835294 -0.020505846 0.70504332
0.0068354825 -0.021873534 0.70504791
0.0068356707 -0.023241252 0.70505244
0.0068358318 -0.02460897 0.70505631
0.0068360204 -0.025976866 0.7050609
0.0068360204 -0.027344048 0.7050609
0.0068359128 -0.028710812 0.70505828
0.0068358053 -0.030077517 0.70505571
0.0068356977 -0.031444222 0.70505309
0.0068355901 -0.032810807 0.70505047
0.0068354825 -0.034177423 0.70504791
0.006835375 -0.035543948 0.70504534
0.0068352674 -0.036910415 0.70504266
0.0068351598 -0.038276911 0.70504016
0.0068350523 -0.039643288 0.70503747
0.0068349447 -0.041009635 0.70503485
0.0068348371 -0.042375952 0.70503229
0.0068347296 -0.043742239 0.70502973
0.006834622 -0.045108497 0.7050271
0.0068344874 -0.046474487 0.70502388
0.0068343799 -0.047840655 0.70502126
0.0068342723 -0.049206764 0.70501876
0.0068341647 -0.050572813 0.70501614
0.0068340572 -0.051938802 0.70501351
0.0068339496 -0.053304762 0.70501089
0.006833842 -0.054670751 0.70500833
0.0068337349 -0.056036621 0.70500571
0.0068336809 -0.057402879 0.70500433
0.0068336809 -0.058769643 0.70500445
0.0068336539 -0.060136139 0.70500374
0.0068336539 -0.061502844 0.70500374
0.0068355361 -0.062886924 0.70504922
0.0068634581 -0.064516485 0.70572329
0.0082254587 0.057578236 0.70550823
0.0082165115 0.056146204 0.70532823
0.0082120448 0.054746985 0.70523834
0.0082075512 0.053349078 0.70514798
0.0081835175 0.051828951 0.70466441
0.0081139589 0.050036103 0.70326501
0.0080947103 0.048568279 0.70287776
0.0081100762 0.047308803 0.70318693
0.0081808204 0.046357989 0.70461017
0.0081837103 0.045010448 0.70466828
0.0081843529 0.043649882 0.70468122
0.0081843529 0.04228583 0.70468122
0.0081843529 0.040921807 0.70468122
0.0081843529 0.039557725 0.70468122
0.0081843846 0.038193792 0.70468187
0.0082108481 0.03694883 0.70521432
0.0083260778 0.036079645 0.70753253
0.0084097059 0.035040468 0.70921499
0.0084098754 0.03363952 0.70921832
0.008409909 0.032238007 0.7092191
0.008409909 0.030836374 0.70921904
0.008409909 0.029434711 0.7092191
0.008409909 0.028033048 0.70921904
0.0081119696 0.025687933 0.70322502
0.00809405 0.024282157 0.70286447
0.0080955904 0.022937536 0.7028954
0.0082313372 0.021950245 0.70562655
0.0083935894 0.020984024 0.70889074
0.0084099434 0.01962322 0.70921969
0.008409909 0.018221468 0.70921904
0.008409909 0.016819805 0.7092191
0.008409909 0.015418202 0.7092191
0.0083978157 0.013996392 0.70897573
0.0081016617 0.012152493 0.70301765
0.0080940817 0.010792136 0.70286512
0.0080986721 0.0094484687 0.70295745
0.0083189681 0.0083189905 0.70738947
0.0084183989 0.0070153475 0.70938981
0.0084223775 0.0056149364 0.70946991
0.0084263608 0.0042131841 0.70955002
0.0084303478 0.0028101206 0.70963019
0.0084343376 0.0014057457 0.70971048
0.0083554089 -0 0.70812261
0.0080972882 -0.0013495386 0.70292962
0.0080956211 -0.0026984811 0.70289606
0.0081147486 -0.0040573776 0.70328087
0.008245727 -0.0054971278 0.70591593
0.0082456619 -0.0068714023 0.70591474
0.0082456293 -0.008245647 0.70591402
0.0082455631 -0.0096198022 0.70591271
0.0082454979 -0.010993987 0.7059114
0.0082454653 -0.012368172 0.70591074
0.0082454002 -0.013742357 0.70590949
0.0082453676 -0.015116483 0.70590878
0.0082453024 -0.016490608 0.70590746
0.0082453024 -0.017864794 0.7059074
0.0082454653 -0.019239396 0.70591074
0.0082456293 -0.020614058 0.70591402
0.0082457922 -0.02198875 0.7059173
0.0082459226 -0.023363441 0.70591992
0.008246053 -0.024738103 0.70592254
0.0082463138 -0.026113302 0.70592779
0.0082469657 -0.027489901 0.70594096
0.008247586 -0.028866529 0.70595336
0.0082482062 -0.030243397 0.70596588
0.0082452372 -0.031606734 0.70590621
0.0082452372 -0.032980949 0.70590615
0.0082452372 -0.034355164 0.70590609
0.0082452372 -0.035729349 0.70590615
0.0082452698 -0.037103713 0.70590681
0.0082452698 -0.038477927 0.70590681
0.0082452698 -0.039852142 0.70590687
0.0082452698 -0.041226327 0.70590675
0.0082452698 -0.042600572 0.70590681
0.0082453024 -0.043974906 0.7059074
0.0082453024 -0.045349151 0.7059074
0.0082453024 -0.046723396 0.70590746
0.0082453024 -0.048097551 0.70590746
0.008245335 -0.049472004 0.70590806
0.008245335 -0.050846249 0.70590812
0.0082453676 -0.052220643 0.70590878
0.0082454002 -0.053595096 0.70590937
0.0082454327 -0.054969579 0.70591009
0.0082454653 -0.056344002 0.70591068
0.0082454979 -0.057718486 0.7059114
0.0082455305 -0.059092969 0.70591199
0.0082455631 -0.060467422 0.70591265
0.0082455957 -0.061841935 0.70591331
0.0082511436 -0.063258767 0.706025
0.0083290376 -0.065244138 0.70759207
0.0096827438 0.058096498 0.70699769
0.0096518137 0.056532025 0.70646435
0.0096457275 0.055118471 0.70635933
0.0096396115 0.053706408 0.70625395
0.0096223364 0.052235544 0.70595598
0.0095750997 0.050611258 0.70514143
0.0094633382 0.048668623 0.70321417
0.0094849262 0.047424674 0.70358646
0.0096030366 0.046643347 0.70562321
0.0096072853 0.045291513 0.70569646
0.0096072089 0.043918699 0.70569515
0.0096070953 0.042545736 0.70569319
0.0096070198 0.041172951 0.70569193
0.0096069062 0.039800048 0.70568991
0.0096068298 0.038427323 0.7056886
0.0096285827 0.037138849 0.70606375
0.0097833043 0.036338001 0.70873183
0.0099838516 0.035656631 0.71219009
0.010135747 0.034751177 0.71480942
0.010138494 0.033312231 0.71485686
0.010138663 0.031864375 0.71485972
0.010138832 0.030416518 0.71486264
0.010139002 0.028968602 0.71486557
0.010137944 0.027517289 0.71484733
0.0094642583 0.024336696 0.70323008
0.0094638532 0.02298367 0.70322305
0.0098313102 0.022471607 0.70955962
0.010112571 0.021669775 0.71440983
0.010139002 0.020277977 0.71486557
0.010139043 0.018829644 0.71486634
0.010139043 0.017381251 0.71486628
0.010139043 0.015932798 0.71486634
0.010139043 0.014484346 0.71486634
0.0094790859 0.012187392 0.70348573
0.0094634481 0.010815412 0.70321608
0.0094680535 0.0094680786 0.70329547
0.010091257 0.008649677 0.71404231
0.010139974 0.0072428584 0.71488237
0.01014048 0.0057945549 0.71489114
0.010140988 0.0043461621 0.71489984
0.010141496 0.0028975904 0.7149086
0.010142003 0.0014488697 0.71491736
0.010119596 -0 0.71453094
0.0094661005 -0.0013523102 0.70326185
0.0094628958 -0.0027036667 0.7032066
0.0094905514 -0.0040673912 0.7036835
0.010064325 -0.0057510138 0.71357781
0.010069367 -0.0071923733 0.71366477
0.010074455 -0.0086352229 0.71375251
0.010079507 -0.010079503 0.71383965
0.010084606 -0.011525244 0.71392751
0.010089709 -0.012972474 0.7140156
0.010094775 -0.014421076 0.71410292
0.010099889 -0.015871227 0.71419108
0.010105008 -0.017322868 0.71427941
0.010110132 -0.01877594 0.71436769
0.010115262 -0.020230532 0.71445626
0.010120355 -0.021686465 0.71454406
0.010125495 -0.023143947 0.71463269
0.01013064 -0.024602979 0.71472138
0.010135199 -0.026061922 0.7148
0.010137944 -0.027517259 0.71484733
0.01014065 -0.028973281 0.714894
0.010143356 -0.030430049 0.71494067
0.0099796318 -0.03136456 0.71211737
0.0096913865 -0.031843096 0.70714676
0.0096872561 -0.033213437 0.70707554
0.0096872952 -0.034597486 0.70707619
0.0096873334 -0.035981506 0.70707685
0.0096873716 -0.037365556 0.7070775
0.0096874489 -0.038749814 0.70707887
0.009687488 -0.040133834 0.70707953
0.0096875262 -0.041517973 0.70708019
0.0096875653 -0.042902052 0.70708084
0.0096876035 -0.044286191 0.7070815
0.0096876808 -0.04567048 0.70708281
0.0096877189 -0.047054619 0.70708346
0.0096877581 -0.048438787 0.70708418
0.0096877962 -0.049822956 0.70708483
0.0096878354 -0.051207095 0.70708549
0.0096878735 -0.052591294 0.70708615
0.0096879508 -0.053975701 0.70708746
0.009687989 -0.05535993 0.70708811
0.0096880281 -0.056744158 0.70708883
0.0096880663 -0.058128387 0.70708942
0.0096881054 -0.059512645 0.70709014
0.0096881827 -0.060897112 0.70709145
0.0096882209 -0.06228143 0.70709217
0.009708019 -0.063795537 0.70743358
0.011128592 0.057034075 0.70794225
0.011120801 0.055604011 0.70782471
0.011113065 0.054176211 0.707708
0.011103964 0.052743822 0.70757067
0.011064099 0.051171482 0.70696914
0.010847953 0.048815757 0.70370775
0.010861942 0.047521025 0.70391881
0.011046337 0.046946943 0.70670116
0.011067712 0.045654297 0.70702362
0.011067492 0.044269949 0.70702028
0.011067271 0.042885691 0.707017
0.011067712 0.041503906 0.70702368
0.011068241 0.04012239 0.70703161
0.011068725 0.038740575 0.70703894
0.011076488 0.037383139 0.70715606
0.011242736 0.036538929 0.70966452
0.011495046 0.03592205 0.71347159
0.01160751 0.034822553 0.7151686
0.011609013 0.033375889 0.71519125
0.011609013 0.031924784 0.71519125
0.011609013 0.030473679 0.71519125
0.011609013 0.029022545 0.71519125
0.011608868 0.027571082 0.7151891
0.010849774 0.024412006 0.70373523
0.010849647 0.023055524 0.70373333
0.011305977 0.022611976 0.71061873
0.011586754 0.021725148 0.71485543
0.011609013 0.020315796 0.71519125
0.011609013 0.018864661 0.71519125
0.011609013 0.017413497 0.71519125
0.011609013 0.015962422 0.71519125
0.011609013 0.014511287 0.71519125
0.010877413 0.012237072 0.70415229
0.010848884 0.01084888 0.70372182
0.010852315 0.009495765 0.70377362
0.011572572 0.0086794198 0.71464139
0.011609062 0.0072556734 0.71519196
0.011609062 0.0058045387 0.71519202
0.011609013 0.0043533742 0.71519119
0.011609013 0.0029022992 0.71519125
0.011608965 0.0014511049 0.71519053
0.011591537 -0 0.71492755
0.010851087 -0.0013563633 0.70375502
0.010848546 -0.0027121007 0.70371664
0.011604506 -0.0043516755 0.71512324
0.011630871 -0.0058154166 0.71552104
0.011630871 -0.0072693229 0.7155211
0.011630871 -0.0087231398 0.7155211
0.011630823 -0.010176986 0.71552032
0.011630823 -0.011630803 0.71552032
0.011630823 -0.01308465 0.71552032
0.011630823 -0.014538527 0.71552038
0.011630823 -0.015992373 0.71552032
0.011630823 -0.01744622 0.71552032
0.011630871 -0.018900186 0.7155211
0.011610953 -0.020319164 0.71522051
0.011610953 -0.021770537 0.71522057
0.011611002 -0.02322194 0.71522117
0.011630871 -0.024715602 0.71552104
0.011630871 -0.026169449 0.7155211
0.011630871 -0.027623296 0.71552104
0.011630823 -0.029077053 0.71552032
0.011630823 -0.03053093 0.71552038
0.011470239 -0.031543165 0.71309733
0.011174267 -0.032126009 0.70863146
0.011174267 -0.033522785 0.70863146
0.011174222 -0.034919441 0.70863074
0.011174222 -0.036316216 0.7086308
0.011174222 -0.037712991 0.7086308
0.011174178 -0.039109617 0.70863008
0.011174178 -0.040506393 0.70863008
0.011174178 -0.041903138 0.70863008
0.011174178 -0.043299913 0.70863008
0.011174132 -0.04469651 0.70862937
0.011174132 -0.046093255 0.70862937
0.011174132 -0.04749006 0.70862937
0.011174087 -0.048886627 0.70862877
0.011174087 -0.050283402 0.70862877
0.011174087 -0.051680118 0.70862871
0.011174043 -0.053076684 0.70862806
0.011174043 -0.05447343 0.70862806
0.011174043 -0.055870205 0.70862806
0.011174043 -0.05726698 0.70862806
0.011174043 -0.058663726 0.70862806
0.011174087 -0.06006071 0.70862877
0.011174087 -0.061457455 0.70862865
0.011178851 -0.062881023 0.7087006
0.011278957 -0.064853996 0.71021104
0.012698564 0.05784905 0.71034163
0.012661906 0.056275129 0.70985001
0.012650586 0.054819256 0.70969814
0.012639337 0.053366125 0.70954728
0.012581773 0.05172509 0.70877528
0.012266225 0.049064934 0.70454299
0.012268005 0.047708929 0.7045669
0.012507449 0.04725036 0.70777839
0.0125799 0.046126336 0.70875013
0.012583899 0.044742763 0.70880371
0.012584558 0.043346852 0.70881259
0.012584558 0.041948557 0.70881259
0.012584558 0.040550262 0.70881259
0.012584558 0.039151996 0.70881259
0.012584254 0.037752748 0.70880854
0.012728334 0.036770731 0.71074098
0.013008908 0.036135823 0.71450412
0.013045321 0.034787536 0.71499246
0.013045321 0.03333807 0.71499252
0.013045321 0.031888574 0.71499246
0.013045321 0.030439079 0.71499252
0.013045321 0.028989613 0.71499252
0.013045103 0.02753967 0.7149896
0.012263868 0.024527729 0.7045114
0.012263868 0.023165107 0.7045114
0.012719223 0.022611976 0.71061873
0.01302153 0.021702558 0.7146734
0.013045321 0.020292729 0.71499252
0.013045321 0.018843234 0.71499252
0.013045321 0.017393798 0.71499246
0.013045321 0.015944302 0.71499252
0.013045321 0.014494836 0.71499246
0.013008042 0.013008058 0.7144925
0.012262906 0.010900348 0.70449853
0.012262041 0.0095371604 0.70448691
0.012977596 0.0086517632 0.71408409
0.013041513 0.0072453022 0.71494144
0.013045375 0.0057979226 0.71499324
0.013045321 0.0043484569 0.71499252
0.013045321 0.0028989911 0.71499252
0.013044613 0.0014494061 0.71498299
0.01300696 -0 0.71447802
0.01226382 -0.0013626218 0.70451081
0.012263628 -0.0027252436 0.70450819
0.013040262 -0.0043467581 0.71492463
0.013069856 -0.0058088005 0.71532154
0.013069856 -0.007261008 0.71532154
0.013069856 -0.0087132156 0.71532154
0.013069801 -0.010165364 0.71532083
0.013069801 -0.011617571 0.71532083
0.013069856 -0.013069838 0.71532154
0.013069856 -0.014522046 0.71532154
0.013069856 -0.015974253 0.71532154
0.013069856 -0.017426491 0.71532154
0.013069856 -0.018878698 0.71532154
0.013069801 -0.020330757 0.71532083
0.013069801 -0.021782964 0.71532083
0.013069801 -0.023235202 0.71532083
0.013069801 -0.024687409 0.71532083
0.01306991 -0.026139796 0.71532226
0.013069856 -0.027591914 0.71532154
0.013069856 -0.029044092 0.71532154
0.013069856 -0.030496329 0.71532154
0.012904072 -0.031543285 0.71309799
0.012734191 -0.032542914 0.71081948
0.012734191 -0.033957839 0.71081948
0.012734191 -0.035372734 0.71081948
0.012734139 -0.03678751 0.71081883
0.012734139 -0.038202405 0.71081883
0.012734139 -0.0396173 0.71081883
0.012734139 -0.041032195 0.71081883
0.012734139 -0.04244715 0.71081883
