# .PCD v0.7 - Point Cloud Data file format
VERSION 0.7
FIELDS x y z
SIZE 4 4 4
TYPE F F F
COUNT 1 1 1
WIDTH 194
HEIGHT 1
VIEWPOINT 0 0 0 1 0 0 0
POINTS 194
DATA ascii
0.027439762 0.025407225 0.66270149
0.022582632 0.025662124 0.6639322
0.024460368 0.025479555 0.66305089
0.022486378 0.02657482 0.66340411
0.023439467 0.031592339 0.66304189
0.019644551 0.027915984 0.66483033
0.033236176 0.021811277 0.66539854
0.023886576 0.02284807 0.66538841
0.018643858 0.036251932 0.66505325
0.023185231 0.021077514 0.66723859
0.015863637 0.032784849 0.66768539
0.031953584 0.019172162 0.66859603
0.033110965 0.019225746 0.66895533
0.019143982 0.022334695 0.66840714
0.036336698 0.020305812 0.66903144
0.017113466 0.02353102 0.66913587
0.019436808 0.019436806 0.67037094
0.041204464 0.024939567 0.67091471
0.016270202 0.041217834 0.67095721
0.020840721 0.016453207 0.67242992
0.017502179 0.018596083 0.67206848
0.015314791 0.020784348 0.67207181
0.019927083 0.015498877 0.67365873
0.027567068 0.015437573 0.67313033
0.012134477 0.025372088 0.67318487
0.011140347 0.024508774 0.67450058
0.011126933 0.02559194 0.67433876
0.022240192 0.046704412 0.67425621
0.030367617 0.014621437 0.67579126
0.014549389 0.016787767 0.6751222
0.019446988 0.011439383 0.6781106
0.013786607 0.012637764 0.6787073
0.026499333 0.011521459 0.67910099
0.027813051 0.011588782 0.67991364
0.030030947 0.046201497 0.67944998
0.0069614821 0.020884454 0.68007898
0.0069614821 0.020884454 0.68007898
0.030297128 0.04544571 0.68068576
0.02219044 0.0093433559 0.68100488
0.010526228 0.011695802 0.68120569
0.035511158 0.042613387 0.68291068
0.035511158 0.042613387 0.68291068
0.02713196 0.046006382 0.68242121
0.041676726 0.033341408 0.68376267
0.026134644 0.045141697 0.68342161
0.015610349 0.0060039759 0.68497372
0.0036097609 0.024065077 0.68527031
0.0036097609 0.024065077 0.68527031
0.0012240619 0.018360943 0.68778211
0.032037679 0.040663213 0.68876672
0.033114646 0.040473461 0.68807262
0.01373057 0.0049929619 0.69069988
0.015194076 0.0012661815 0.69286537
0.0025323736 0.010129511 0.69286704
0.0091005182 2.9802322e-08 0.69695759
-0.0025940239 0.0090790987 0.69658792
0 0.0052295625 0.69784093
0.0066382419 -0.0026552677 0.70028603
-0.0013370638 -0.013370633 0.70142269
-0.0093819387 -0.01206249 0.70181048
-0.0040016295 0.0040016472 0.70103788
-0.0068608834 -0.015093923 0.70566112
-0.0013743857 -0.005497545 0.70592773
-0.0054753008 -0.0027376413 0.70525658
-0.015035814 0.0054675937 0.70502323
-0.01781515 0.0082223713 0.70544624
0 -0.0068760216 0.70602757
0.0083474135 -0.012521118 0.70796174
-0.017096367 -0.0085481703 0.71200091
-0.018529421 -0.0071267188 0.71207857
-0.010066242 -0.023008525 0.71361089
-0.014478494 -0.0057913959 0.71479565
-0.021643428 0.0014429092 0.71419764
-0.020983987 -0.017986238 0.72095263
-0.024225496 -0.028767765 0.72279203
-0.021132391 -0.016604006 0.72223228
-0.028871443 -0.0075977147 0.72345066
-0.021364603 -0.028994828 0.72423446
-0.0061921482 -0.027864635 0.72688937
-0.0047214134 -0.031476051 0.72999978
-0.02529671 -0.034782946 0.7308737
-0.028477587 -0.025313377 0.73099965
-0.028717523 -0.035099179 0.7326088
-0.028717523 -0.035099179 0.7326088
-0.028771952 -0.020779729 0.73297375
-0.028771952 -0.020779729 0.73297375
-0.023082398 -0.039569825 0.73904562
0.029144417 0.023519933 0.66346419
0.027285002 0.022652104 0.66431326
0.036833238 0.022625342 0.66705805
0.017310718 0.028853722 0.66667998
0.030997988 0.018704437 0.66905987
0.014954144 0.032578766 0.66896224
0.016063852 0.03909035 0.66929662
0.016063852 0.03909035 0.66929662
0.022618499 0.018310249 0.67003882
0.016790448 0.02112399 0.67079556
0.017332781 0.015095249 0.67501527
0.029095313 0.014547676 0.67510605
0.010451029 0.028746855 0.67522669
0.0091167148 0.021081865 0.67758536
0.0090799164 0.026672453 0.67703015
0.0113214 0.035096377 0.67668617
0.011173151 0.013484797 0.67955458
0.011173151 0.013484797 0.67955458
0.0092709241 0.015065283 0.67991221
0.010323606 0.034412026 0.67848802
0.041426618 0.036760651 0.68089426
0.0053187851 0.017145656 0.68276525
0.0059325323 0.028476149 0.68324876
0.041551419 0.030866772 0.68333042
0.018641546 0.0060132444 0.68519747
0.022799211 0.0071997941 0.68487251
0.0047774124 0.014332265 0.68419594
0.032991193 0.044388935 0.68484139
0.0012240619 0.018360943 0.68778211
0.035273775 0.037131816 0.68943167
0.0029114513 0.01289477 0.69066799
0.0025281634 0.0025281608 0.69261289
0.0038235707 0.0076471567 0.69387335
-0.0025355334 0.015213221 0.69305778
0.00064085633 0.00064055622 0.69512165
-0.0066687912 -0.0073336363 0.70102364
-0.0066687912 -0.0073336363 0.70102364
0.0033312142 -0.001333043 0.70093763
0.0041243639 -0.010998309 0.70597637
-0.0047898055 -0.001368016 0.70516157
-0.01503889 0.0027343333 0.70505697
-0.0095494613 0.01091367 0.70469934
-0.002760608 -0.016563624 0.70664215
-0.012520719 0.0083471537 0.70795637
0.0112186 -0.01331982 0.7093004
0.0091197193 -0.011221394 0.70934284
-0.0085209664 -0.021302402 0.71145338
0.011327585 -0.011327565 0.71094477
-0.018469492 -0.0085243583 0.71152204
-0.015650749 2.9802322e-08 0.71177137
-0.015695222 0.011414737 0.71225935
-0.013072479 -0.02323994 0.71535671
0.0050696079 -0.018836036 0.71492589
0.0028974132 -0.01738444 0.71489912
-0.01300085 -0.0057781041 0.714396
-0.018787989 -0.0014452338 0.71447945
-0.021182075 0.00048097968 0.71435893
0.0014606059 -0.018987864 0.71633548
0 -0.017496645 0.71602768
-0.020647233 -0.025071651 0.71804917
-0.0273495 -0.0091165006 0.72343457
-0.025200434 -0.0070572398 0.72253752
-0.022932429 -0.036372215 0.73091674
-0.03329647 -0.012684375 0.73141712
-0.032005202 -0.036805958 0.73319328
-0.033557087 -0.035154998 0.73291516
-0.033557087 -0.035154998 0.73291516
-0.027085863 -0.02310133 0.73235142
-0.0096629737 -0.033820421 0.73442876
-0.033784706 -0.022523105 0.7342236
-0.033784706 -0.022523105 0.7342236
-0.016712079 -0.038437754 0.74175739
0.019489978 0.033338487 0.6638484
0.016542859 0.025082752 0.66886973
0.04103145 0.025816686 0.67123008
0.014076464 0.029905297 0.67025173
0.016063852 0.03909035 0.66929662
0.018715916 0.014662247 0.67491615
0.029733634 0.015049621 0.67461795
0.029733634 0.015049621 0.67461795
0.025204733 0.045923516 0.67523104
0.0099813556 0.017650258 0.67809677
0.0071249991 0.011874974 0.68336868
0.018000644 0.003213736 0.690323
0.036806785 0.036806792 0.68812382
0.036806785 0.036806792 0.68812382
0.0072836704 0.0034264426 0.69518375
0.010077088 0.0022578845 0.69469708
0.0015207651 0.009920707 0.69360238
0.0083474135 -0.012521118 0.70796174
-0.0020467574 -0.0059749559 0.70490581
-0.017522944 -0.0099464459 0.71152818
0.015311438 -0.0055678189 0.70804787
-0.020324601 -0.021776348 0.71526736
-0.013705412 -0.021354368 0.7141481
0 -0.020366549 0.7156291
-0.020571128 -0.005497898 0.71324843
-0.015695222 0.011414737 0.71225935
-0.021788184 -0.02705285 0.72144532
-0.022460558 -0.021709666 0.72077334
-0.022460558 -0.021709666 0.72077334
-0.026277458 -0.0057261041 0.72213525
-0.022514943 0.0097566843 0.72121108
-0.030735455 -0.033888265 0.73027128
-0.029780651 -0.01838854 0.73302972
-0.034651779 -0.013861875 0.73307455
-0.036867872 -0.02949357 0.73781312
