# .PCD v0.7 - Point Cloud Data file format
VERSION 0.7
FIELDS x y z
SIZE 4 4 4
TYPE F F F
COUNT 1 1 1
WIDTH 208
HEIGHT 1
VIEWPOINT 0 0 0 1 0 0 0
POINTS 208
DATA ascii
-0.0024870594 -0.03606236 0.69013208
0.0050067836 -0.042557657 0.69111782
0.0050067836 -0.042557657 0.69111782
-0.0012624604 -0.021461815 0.6924172
-0.0038235425 -0.048431516 0.69387221
-0.0038235425 -0.048431516 0.69387221
0.0050949357 -0.030569613 0.69377804
0.0050949357 -0.030569613 0.69377804
-0.0038076348 -0.0190382 0.69323218
-0.0038076348 -0.0190382 0.69323218
-0.0089803301 -0.04746744 0.69488502
-0.0089803301 -0.04746744 0.69488502
0.0025837813 -0.037464797 0.69596976
-0.0012850204 -0.0038550496 0.69514048
0 -0.0012890399 0.6956284
-0.012988494 -0.053252816 0.69680977
0.0051740068 -0.04915306 0.69616419
-0.0025884006 0.0025884509 0.69624853
-0.013033218 -0.041706294 0.69734961
0.0039045026 -0.020823985 0.69712979
-0.0052036839 -0.014310122 0.69705981
-0.0039019156 -0.0039018691 0.69702578
-0.019740939 -0.042114019 0.69888759
-0.015747601 -0.024933726 0.6984334
-0.013102563 -0.019653797 0.69818664
0.0065564238 -0 0.69831085
0.006569365 0.0013138652 0.6986233
-0.002623213 0.0091812611 0.69834965
0.011878487 -0.039594918 0.69934255
-0.0039547035 0.0039547384 0.69914973
-0.021300811 -0.043932885 0.70072699
0.01199623 -0.031989902 0.70092177
0.014629118 -0.017288923 0.70056027
-0.0039816066 0.0079632103 0.70023227
0.010690998 -0.049445838 0.70133948
-0.017336467 -0.04800871 0.70100141
-0.020077359 -0.033462256 0.70159489
0.001338037 -0.028098762 0.70154011
0.012076 -0.026835501 0.70199162
0.013341838 -0.020012766 0.70107496
0.0040163072 0.0053550899 0.70162845
-0.0093523581 0.00668028 0.70130038
-0.022897048 -0.033672124 0.70260817
-0.021531885 -0.033643544 0.7024703
-0.01886956 -0.018869579 0.70272171
0.012094681 -0.018813938 0.70224226
-0.0080714561 -0.0080713928 0.70240992
0.014831318 -0.0026966035 0.70277911
-0.012121403 0.0080809295 0.7026006
-0.021662345 -0.027077913 0.70345455
0.013523738 -0.0081142485 0.70327073
-0.017644864 -0.0040719211 0.70386505
0.014920594 0.0027128458 0.70375884
-0.016281459 0.0067839324 0.7038036
-0.020427203 -0.020427197 0.7044102
-0.020456867 -0.019093066 0.70464897
0.01364632 -0.0027292371 0.70475042
-0.0068119243 0.0095367432 0.70447916
-0.0013592511 0.013592541 0.70410085
-0.021940529 -0.013712823 0.70555329
0.0027395282 -0.0013697147 0.70536989
-0.005490745 0.01921764 0.70572257
-0.0041146935 0.020573467 0.70558727
-0.012438003 -0.027639985 0.70684695
-0.0082564373 -0.0013760328 0.70613146
0.0013816926 0.017962009 0.70680982
-0.0069134664 0.019357711 0.70693058
-0.0069134664 0.019357711 0.70693058
-0.0013811708 0.030385792 0.70674688
0.012499999 -0 0.70767844
0.0069489437 0.02640599 0.70778716
0.0083696982 0.025109112 0.70841014
0.006973125 0.030681759 0.70837092
0 0.038971156 0.70803303
-0.012605661 -0.014006257 0.70909566
-0.001406144 0.01827991 0.70976132
0.0056191413 0.043548375 0.70959735
-0.0042224303 0.04644677 0.70992225
0.0014032195 0.047709465 0.70940828
0.0028160373 0.050688684 0.70998764
-0.014125289 -0 0.71053207
0.01274748 0.009914726 0.71099776
-0.0042471867 0.052381992 0.71091831
-0.0099186692 0.012752593 0.71106607
-0.0014167274 0.026917815 0.71103883
-0.0099237682 0.036859721 0.71115404
0.0042521413 0.056695223 0.71111774
0.0028383851 0.059606105 0.71133643
-0.009993081 0.042827547 0.71234924
-0.0071563791 0.05581978 0.71279502
-0.0071563791 0.05581978 0.71279502
0.0057181544 0.064329237 0.71258533
-0.01434206 0.017210484 0.71314877
0.012913504 0.017218024 0.71322453
0.012968233 0.037463814 0.71395856
0.012968233 0.037463814 0.71395856
-0.011497376 0.041678011 0.71350676
-0.0072033787 0.061949044 0.71392971
-0.013011885 0.023132265 0.714544
0.013031622 0.044886738 0.71480876
0.011535306 0.05190888 0.71407908
-0.0086823571 0.060776502 0.71470034
-0.013087359 0.034899652 0.71555632
0.011651982 0.06554243 0.71583956
0.011651982 0.06554243 0.71583956
0.016578022 0.05576244 0.72194695
0.020376028 0.0078369081 0.7292251
0.025352543 0.011091769 0.73129493
0.024125677 0.014475435 0.73417318
-0.0012489159 -0.033095971 0.69078225
-0.0031263556 -0.030637749 0.69097787
-0.010189946 -0.044581026 0.69377923
-0.010189946 -0.044581026 0.69377923
0.0050635422 -0.034811318 0.69283068
0.0032098193 -0.052621588 0.6949513
-0.010732589 -0.046789646 0.69547546
0.00063998712 -0.04220061 0.69439042
0.00063998712 -0.04220061 0.69439042
0.0051358687 -0.025036767 0.69501334
0.0064519448 -0.011613488 0.69578844
-0.0025618277 -0.0070445985 0.69464469
0.013026621 -0.039079815 0.69726998
0.014391058 -0.039248317 0.69794786
-0.0077648261 -0.034941703 0.69624096
-0.0051823603 -0.016842663 0.69641632
-0.015813716 -0.048758954 0.69909847
-0.01984149 -0.044974059 0.69969678
0.010481461 -0.045201674 0.69817781
-0.014545255 -0.035040408 0.69964004
0.013162754 -0.030931935 0.69891322
0.0052530686 -0.0091928542 0.69855011
0.0052530686 -0.0091928542 0.69855011
-0.0092261368 -0.0065900683 0.6991238
-0.0039502503 0.00329265 0.69897056
-0.020028599 -0.034716219 0.70120245
-0.014726175 -0.032129794 0.70162535
0.013403242 -0.01675348 0.7018162
-0.013307602 -0.0066537857 0.70066178
-0.014750044 -0.0026818216 0.70188737
-0.0053026918 -0.0026513338 0.70004761
-0.021504566 -0.034944892 0.70226419
-0.0081281625 -0.010837555 0.70355076
-0.017623138 -0.0047438592 0.70366329
-0.016135113 0.00067280233 0.70233142
0.0013490501 0.0053962171 0.70286953
-0.019080151 -0.012946382 0.70453745
0.012272771 -0.0095454752 0.70463085
0.012272771 -0.0095454752 0.70463085
-0.0082370285 -0.0027456582 0.70574105
-0.0068125655 0.0040875673 0.7044946
-0.0047793896 0.015018657 0.70483482
0.011017391 -0.017213836 0.70626438
-0.019267235 -0.0068811476 0.70615053
0.012430043 -0.0041433275 0.7067402
0.012411986 0.0041373372 0.70649803
-0.0083070016 0.0096915066 0.70714873
0.0041444139 0.013124645 0.70678312
0.0041444139 0.013124645 0.70678312
0.0027574981 0.026886061 0.70645452
-0.0070228009 0.028794348 0.70957017
0.00069609156 0.038976148 0.70805454
0.0070311176 0.040780514 0.70977092
-0.0028004902 0.043407589 0.70904928
-0.0028004902 0.043407589 0.70904928
-0.0091888513 0.03674674 0.7106294
0.0099114748 0.036814064 0.71094203
-0.0092119602 0.038964763 0.71105713
-0.0085296705 0.044781402 0.7116285
0.0085617686 0.009988755 0.71227419
-0.0099923005 0.01712966 0.71233582
-0.011421085 0.035690904 0.71235561
-0.010063451 0.048879594 0.71356273
0.010045704 0.054533809 0.71325672
-0.0057078223 0.057078242 0.71227354
0.011644319 0.017466486 0.71572393
0.011644319 0.017466486 0.71572393
-0.013011885 0.023132265 0.714544
0.0087359175 0.032759085 0.71577781
0.0087359175 0.032759085 0.71577781
0.013069801 0.049374789 0.71532083
0.011675669 0.02627027 0.71619701
-0.010229702 0.062839597 0.71642965
0.028438741 0.0031598508 0.73073924
0.025199819 0.0047249794 0.73014271
0.028524548 0.0071316212 0.73131466
0.026904318 0.011078298 0.73106229
0.023956349 0.011179656 0.7328105
0.023956349 0.011179656 0.7328105
-0.006160453 -0.04605734 0.69388157
-0.006160453 -0.04605734 0.69388157
0.009021366 -0.020620227 0.69559264
-0.0019365291 0.00064593554 0.69585598
0.0027363882 -0.030324131 0.69780868
0.0065479903 -0.0028436258 0.69825017
0.012480758 -0.02563802 0.70149219
-0.01877757 -0.021457892 0.70192862
0.0016622682 -0.023055851 0.7013818
-0.0087589137 -0.016842067 0.70264578
-0.0087589137 -0.016842067 0.70264578
-0.016812515 -0.0057130866 0.70233989
-0.016812515 -0.0057130866 0.70233989
0.011075787 -0.01038532 0.70714551
0.01229724 -0.010249048 0.70495903
-0.0058760028 0.021756357 0.70677292
-0.013289316 -0.013988535 0.70889455
0.0016856942 0.022368243 0.70985836
0.0059526712 0.038149118 0.70901054
0.01093653 0.050442096 0.71343517
