# .PCD v0.7 - Point Cloud Data file format
VERSION 0.7
FIELDS x y z
SIZE 4 4 4
TYPE F F F
COUNT 1 1 1
WIDTH 1333
HEIGHT 1
VIEWPOINT 0 0 0 1 0 0 0
POINTS 1333
DATA ascii
-0.011575757 0.01028958 0.69528222
-0.012065144 0.0093840063 0.70184606
-0.012133161 0.0080887973 0.70275825
-0.012212384 0.0067846477 0.70382082
-0.012295644 0.0054647624 0.70493758
-0.012385 0.0041283369 0.70613611
-0.012425154 0.0027611852 0.7066747
-0.012302754 0.0013669729 0.70503294
-0.01215372 -0 0.7030341
-0.012201281 -0.0013556778 0.70367199
-0.012296224 -0.0027324855 0.70494539
-0.012400273 -0.0041334033 0.70634091
-0.012399732 -0.0055109859 0.70633364
-0.012260502 -0.0068114102 0.70446628
-0.012405979 -0.0082706213 0.70641744
-0.01356466 -0.010550261 0.72195804
-0.013559896 -0.012053251 0.72189415
-0.013441061 -0.013441026 0.72030026
-0.01326264 -0.014736235 0.71790725
-0.013087742 -0.015996128 0.71556151
-0.013073189 -0.017430902 0.71536624
-0.013276322 -0.01917693 0.71809077
-0.013371862 -0.02080068 0.71937215
-0.013461485 -0.022435784 0.72057414
-0.0099691804 0.053584337 0.69044811
-0.0098467125 0.051695228 0.68860018
-0.009786875 0.050157726 0.68769729
-0.0097473068 0.048736572 0.68710023
-0.009720006 0.047385037 0.6866883
-0.0097017204 0.046083212 0.68641245
-0.0096884323 0.044809014 0.68621188
-0.009679189 0.043556362 0.68607241
-0.0096752802 0.042329401 0.68601346
-0.009673126 0.041110814 0.68598092
-0.009675011 0.039909422 0.68600941
-0.0096792225 0.038716912 0.68607295
-0.0096865417 0.037535369 0.68618339
-0.009695258 0.036357224 0.68631488
-0.0097047016 0.035179555 0.6864574
-0.0097158607 0.034005523 0.68662578
-0.0097300764 0.03283906 0.6868403
-0.0097451536 0.031671792 0.68706775
-0.0097626084 0.03050819 0.68733114
-0.0097808838 0.029342651 0.68760693
-0.0098014725 0.028179228 0.68791753
-0.0098228082 0.027012736 0.68823946
-0.0098457709 0.0258452 0.68858594
-0.0098702423 0.024675608 0.68895519
-0.0098962104 0.023503542 0.68934703
-0.0099236965 0.022328317 0.68976176
-0.0099707535 0.021187901 0.69047177
-0.010324378 0.020648748 0.69580758
-0.010352292 0.01941058 0.69622874
-0.010341162 0.018097073 0.69606084
-0.010180467 0.016543269 0.69363612
-0.010121343 0.015182018 0.69274402
-0.010158627 0.01396817 0.69330657
-0.010198582 0.012748241 0.69390947
-0.010240662 0.011520803 0.69454437
-0.010284385 0.010284394 0.69520414
-0.010330901 0.009039551 0.69590604
-0.01074771 0.0080607831 0.70219523
-0.01079588 0.0067474246 0.70292199
-0.010788882 0.0053944588 0.70281643
-0.010687793 0.0040079355 0.70129108
-0.010612509 0.0026531219 0.70015514
-0.010663112 0.0013329089 0.70091867
-0.010725442 2.9802322e-08 0.70185918
-0.010794873 -0.0013493598 0.70290691
-0.010869459 -0.002717346 0.70403224
-0.010949438 -0.004106015 0.705239
-0.01094198 -0.0054709911 0.70512652
-0.010787291 -0.0067420602 0.70279241
-0.010628984 -0.0079717338 0.70040375
-0.010645063 -0.009314388 0.70064634
-0.010724118 -0.010724127 0.70183921
-0.011985938 -0.01348415 0.7208786
-0.011823914 -0.014779866 0.71843386
-0.011666065 -0.016040832 0.71605206
-0.011522014 -0.017283022 0.71387851
-0.011598115 -0.018846929 0.7150268
-0.011879142 -0.020788461 0.71926713
-0.011925825 -0.022360891 0.7199716
-0.01200675 -0.02401346 0.7211926
-0.012636683 -0.026852936 0.73069757
-0.0088701919 0.051954031 0.69298577
-0.0087052062 0.04974404 0.69014066
-0.008643521 0.048156798 0.6890769
-0.0086059049 0.046717793 0.68842828
-0.0085807061 0.045355201 0.68799376
-0.0085628526 0.044037551 0.68768585
-0.0085498802 0.042749405 0.68746215
-0.0085416231 0.041487902 0.68731976
-0.0085372757 0.040247172 0.68724483
-0.0085350592 0.039017439 0.68720657
-0.008536377 0.037803948 0.68722934
-0.0085397037 0.036598712 0.68728667
-0.0085463049 0.035406113 0.68740052
-0.0085540591 0.034216255 0.68753421
-0.0085620089 0.033024907 0.6876713
-0.0085716648 0.031837612 0.68783784
-0.0085841883 0.030657828 0.68805379
-0.0085975397 0.029477298 0.68828404
-0.0086129447 0.028299689 0.68854964
-0.008629201 0.027120352 0.68883002
-0.008647332 0.025941998 0.68914264
-0.0086663729 0.024761081 0.68947101
-0.0086867074 0.023578227 0.68982166
-0.0087084481 0.022393167 0.69019657
-0.0090354076 0.021943182 0.69583476
-0.009059065 0.020706445 0.69624275
-0.0090840682 0.019465864 0.69667387
-0.0091080833 0.018216193 0.697088
-0.0091018807 0.01690349 0.69698107
-0.0089746639 0.015385121 0.69478732
-0.0088980664 0.013982683 0.69346642
-0.0089307055 0.012758166 0.69402921
-0.0089653023 0.011526853 0.69462585
-0.0090009673 0.010286838 0.69524091
-0.0090383617 0.0090383887 0.69588566
-0.0090775248 0.0077807605 0.6965611
-0.0091192499 0.0065137446 0.69728059
-0.0091625694 0.0052357912 0.69802755
-0.0092069283 0.0039458573 0.69879258
-0.0092549585 0.0026442707 0.69962084
-0.009305628 0.0013293922 0.70049453
-0.0093577551 -0 0.70139349
-0.0094133466 -0.0013447404 0.70235211
-0.0094768703 -0.0027076602 0.70344758
-0.0095356097 -0.0040866733 0.70446044
-0.0095077651 -0.0054329634 0.70398027
-0.0093685314 -0.0066917837 0.70157927
-0.0092406832 -0.007920593 0.69937468
-0.0092798872 -0.0092798471 0.70005071
-0.009341618 -0.010676146 0.70111519
-0.0094062481 -0.012093723 0.70222968
-0.010317268 -0.014738947 0.71793967
-0.010177736 -0.015993565 0.71553349
-0.010041971 -0.017214835 0.71319234
-0.010056752 -0.018676817 0.71344721
-0.010683381 -0.021366775 0.72425306
-0.010555007 -0.022617877 0.72203934
-0.010484712 -0.023965031 0.7208271
-0.010543615 -0.025605887 0.72184283
-0.010613686 -0.027292341 0.72305119
-0.0075398623 0.04775247 0.69171512
-0.0074807485 0.046131283 0.69052577
-0.0074449251 0.044669569 0.68980509
-0.0074209156 0.043288708 0.68932199
-0.0074039963 0.041956007 0.68898165
-0.0073916581 0.040654123 0.68873346
-0.0073844586 0.039383799 0.68858862
-0.0073799365 0.038129717 0.6884976
-0.0073777162 0.03688857 0.68845296
-0.0073785521 0.035663009 0.68846977
-0.0073810858 0.034445077 0.68852079
-0.0073869182 0.033241183 0.68863809
-0.0073936768 0.032039255 0.68877405
-0.007400448 0.030835211 0.68891025
-0.0074084164 0.029633701 0.68907058
-0.0074192258 0.028440356 0.68928802
-0.0074308082 0.027246326 0.68952107
-0.0074440744 0.026054293 0.68978798
-0.0074582417 0.024860829 0.69007301
-0.0074739098 0.023667395 0.6903882
-0.0074905315 0.022471577 0.69072264
-0.007510527 0.021279871 0.69112492
-0.0077545731 0.020678848 0.69603467
-0.0077534486 0.019383609 0.69601214
-0.0076923706 0.017948866 0.69478333
-0.0076237912 0.016518235 0.6934036
-0.0076232892 0.0152466 0.69339353
-0.0076392675 0.014005363 0.69371498
-0.0076653883 0.01277566 0.69424045
-0.0076925121 0.011538744 0.69478619
-0.0077210297 0.010294735 0.69535983
-0.0077512576 0.0090431273 0.69596803
-0.0077824784 0.0077824891 0.69659609
-0.0078151235 0.0065126121 0.69725287
-0.0078493729 0.0052329302 0.69794196
-0.0078854449 0.0039427578 0.69866771
-0.0079231141 0.0026410222 0.69942552
-0.0082326373 0.0013721287 0.70565259
-0.0082952352 2.9802322e-08 0.70691204
-0.0083453413 -0.0013908744 0.70792007
-0.0083074654 -0.0027691424 0.70715809
-0.0081853494 -0.0040926635 0.7047013
-0.0080893701 -0.0053928792 0.70277029
-0.0079707019 -0.0066422522 0.70038295
-0.007908267 -0.0079082549 0.69912684
-0.0079368986 -0.0092597008 0.69970286
-0.0079798857 -0.010639817 0.7005676
-0.0080315005 -0.012047231 0.70160609
-0.0080859503 -0.01347658 0.70270151
-0.0081427973 -0.01492846 0.7038452
-0.0085466411 -0.017093301 0.71196991
-0.0085761389 -0.018581599 0.71256328
-0.0093136998 -0.021731943 0.72740191
-0.0093039321 -0.023259819 0.7272054
-0.0092031443 -0.024541706 0.72517771
-0.0090917712 -0.025759995 0.72293711
-0.00906095 -0.027182847 0.72231698
-0.0091306344 -0.028913647 0.72371888
-0.0091917021 -0.030639023 0.72494751
-0.0063508363 0.045726031 0.69334751
-0.0062951483 0.044066042 0.69200307
-0.0062622018 0.042582989 0.69120771
-0.0062401369 0.041184902 0.69067502
-0.0062245987 0.03983745 0.69029987
-0.0062134676 0.038523525 0.69003111
-0.0062071853 0.037243158 0.68987942
-0.0062027532 0.035975993 0.68977249
-0.0062006055 0.034723371 0.68972063
-0.006201026 0.033485532 0.68973076
-0.006202864 0.032254934 0.68977517
-0.006207895 0.031039476 0.68989658
-0.0062136231 0.029825389 0.69003487
-0.0062193619 0.028609037 0.69017345
-0.0062257806 0.02739346 0.69032836
-0.0062346729 0.026185662 0.69054306
-0.0062444429 0.024977803 0.69077891
-0.0062555727 0.023771167 0.69104767
-0.0062675783 0.022563308 0.69133747
-0.0062807202 0.021354467 0.69165474
-0.006294738 0.020143151 0.69199318
-0.0063097579 0.018929273 0.69235581
-0.0063268305 0.017715126 0.69276792
-0.0063443203 0.016495258 0.69319022
-0.0063619064 0.015268594 0.69361478
-0.0063799419 0.014035851 0.69405019
-0.0064001074 0.012800217 0.69453704
-0.0064210412 0.011557907 0.69504237
-0.0064435699 0.010309696 0.69558632
-0.006466642 0.0090532899 0.69614333
-0.0064902683 0.0077883005 0.69671369
-0.006515949 0.0065159798 0.69733369
-0.0065424987 0.0052340329 0.69797468
-0.0065702097 0.0039421618 0.69864362
-0.0065995101 0.0026398003 0.69935107
-0.0068630786 0.0013726056 0.70571417
-0.0068997382 2.9802322e-08 0.70659918
-0.0069332481 -0.0013866127 0.70740813
-0.0068946998 -0.0027578473 0.70647752
-0.0067912876 -0.0040747821 0.70398092
-0.0066908803 -0.0053526759 0.70155692
-0.0066462667 -0.0066462755 0.70047987
-0.0066305404 -0.007956624 0.70010012
-0.0066333502 -0.0092866719 0.70016801
-0.0068617235 -0.010978758 0.70568138
-0.0067668464 -0.012180328 0.70339084
-0.0067236884 -0.013447374 0.70234895
-0.0067587383 -0.014869213 0.70319515
-0.0068057333 -0.016333759 0.70432973
-0.0068540354 -0.017820448 0.70549577
-0.0077915601 -0.021816373 0.72812968
-0.0077974699 -0.023392379 0.72827232
-0.0077413577 -0.024772346 0.72691768
-0.0076450226 -0.025993049 0.72459191
-0.0075510549 -0.027183801 0.72232336
-0.0075128181 -0.028548688 0.72140026
-0.0076328972 -0.030531585 0.72429919
-0.0076879864 -0.032289505 0.72562921
-0.0080912933 -0.035601676 0.73536587
-0.0051416024 0.043703645 0.69518638
-0.0050861724 0.041960955 0.69351357
-0.0050571179 0.040456951 0.69263685
-0.0050377618 0.039042652 0.69205266
-0.0050241584 0.037681192 0.69164217
-0.0050150761 0.03635931 0.69136804
-0.005009274 0.035064936 0.69119298
-0.005005179 0.033784986 0.69106936
-0.0050033415 0.032521725 0.69101393
-0.0050033415 0.031270891 0.69101393
-0.0050047105 0.030028284 0.6910553
-0.0050087324 0.028800189 0.69117665
-0.0050133937 0.027573645 0.69131732
-0.0050180638 0.026344806 0.69145823
-0.0050230147 0.025115073 0.69160759
-0.0050300132 0.023892581 0.69181883
-0.0050379443 0.022670776 0.69205815
-0.0050468897 0.021449298 0.69232816
-0.0050566578 0.020226657 0.6926229
-0.0050672581 0.019002259 0.6929428
-0.0050786827 0.017775387 0.69328761
-0.0050909976 0.016545773 0.69365919
-0.0051117814 0.015335381 0.69428641
-0.0052924748 0.014554322 0.69973934
-0.005307572 0.013268948 0.7001949
-0.0053219404 0.011974365 0.70062852
-0.0053209011 0.010641813 0.70059717
-0.0052328953 0.0091575682 0.6979413
-0.0051999851 0.007799983 0.69694817
-0.0052181017 0.0065226257 0.69749498
-0.0052378648 0.0052378774 0.69809127
-0.005258793 0.0039441288 0.6987229
-0.0052804905 0.0026402771 0.69937766
-0.005303076 0.0013257861 0.70005918
-0.0055098343 -0 0.70629871
-0.0055260011 -0.0013814867 0.70678663
-0.0054737269 -0.0027368665 0.70520908
-0.0053922227 -0.0040441751 0.70274949
-0.0053367349 -0.0053367019 0.70107502
-0.0053534056 -0.0066917241 0.70157802
-0.0056782309 -0.0085173249 0.71138054
-0.005685478 -0.0099495649 0.71159923
-0.0056751012 -0.011350185 0.71128607
-0.0056026061 -0.012605846 0.7090984
-0.0055235634 -0.013808906 0.70671302
-0.0054467418 -0.014978528 0.70439482
-0.0054281922 -0.016284555 0.70383489
-0.0054607373 -0.017747372 0.70481706
-0.0054996093 -0.019248605 0.70599014
-0.005538906 -0.020770848 0.70717603
-0.0061711706 -0.024684668 0.72625631
-0.0060951239 -0.025904268 0.72396147
-0.0060209297 -0.027094185 0.72172242
-0.0059525445 -0.028274566 0.71965867
-0.0059992289 -0.029996127 0.72106755
-0.0061446792 -0.032259524 0.72545683
-0.0061721024 -0.033946574 0.72628438
-0.0062150192 -0.035736322 0.72757953
-0.0039074738 0.04167974 0.69724935
-0.0038533937 0.039818436 0.69507337
-0.0038290198 0.038290203 0.69409263
-0.0038131922 0.036860853 0.6934557
-0.0038021351 0.035486579 0.69301081
-0.0037951309 0.034156144 0.69272906
-0.0037901769 0.032848179 0.69252968
-0.0037866798 0.031555682 0.69238901
-0.0037852498 0.030282021 0.69233143
-0.0037849611 0.029018074 0.69231987
-0.0037859371 0.027763546 0.69235909
-0.0037889096 0.026522368 0.69247872
-0.0037924659 0.025283128 0.69262183
-0.0037960291 0.024041533 0.69276518
-0.0037995989 0.022797644 0.69290876
-0.0038047442 0.021560222 0.69311583
-0.0038107946 0.02032426 0.69335926
-0.0038175494 0.019087762 0.69363105
-0.003827136 0.017859995 0.69401681
-0.003973532 0.017218649 0.6999073
-0.0039800406 0.015920162 0.70016921
-0.0039868909 0.014618605 0.70044488
-0.0039942847 0.013314307 0.70074236
-0.0040040272 0.012012064 0.70113438
-0.0040128441 0.010700941 0.70148909
-0.0039717155 0.00926736 0.69983423
-0.0039101997 0.0078203976 0.69735909
-0.0039208038 0.0065346658 0.69778574
-0.0039337655 0.0052450299 0.69830728
-0.0039481432 0.0039481521 0.6988858
-0.0039633042 0.0026422143 0.69949579
-0.0039791898 0.0013263822 0.70013499
-0.003995785 -0 0.70080274
-0.0040133381 -0.0013377666 0.701509
-0.0040501226 -0.0027000606 0.7029891
-0.0040140026 -0.0040140152 0.70153576
-0.0039950195 -0.0053266585 0.70077193
-0.0040199934 -0.0066999793 0.7017768
-0.0042651379 -0.0085302591 0.71164066
-0.0042838049 -0.0099955201 0.71239179
-0.0042957384 -0.011455297 0.71287191
-0.0042948006 -0.012884349 0.71283412
-0.0042554741 -0.014184892 0.71125185
-0.0041972511 -0.015389889 0.70890915
-0.0041405335 -0.016562134 0.70662701
-0.0040920801 -0.017732352 0.70467734
-0.0041084988 -0.019172996 0.705338
-0.0041370662 -0.020685315 0.70648742
-0.0041666995 -0.0222224 0.70767981
-0.0041972678 -0.023784488 0.70890981
-0.0044881273 -0.026928753 0.72061306
-0.00443559 -0.028092027 0.71849906
-0.0044586984 -0.029724628 0.71942896
-0.0047381097 -0.033166736 0.73067158
-0.004679196 -0.034314126 0.72830111
-0.0046503269 -0.035652459 0.72713947
-0.0046786922 -0.037429541 0.72828078
-0.0047107879 -0.039256573 0.72957224
-0.0025968058 0.037653714 0.69675589
-0.0025774376 0.036084145 0.6955868
-0.002565875 0.034639299 0.69488907
-0.00255829 0.033257753 0.69443119
-0.0025530551 0.031913191 0.69411522
-0.0025493274 0.030591965 0.69389027
-0.0025468422 0.029288679 0.69374031
-0.0025457321 0.028003067 0.69367325
-0.0025459093 0.026732087 0.69368398
-0.0025515177 0.025515199 0.69402242
-0.0025478881 0.02420494 0.69380343
-0.0025503004 0.022952706 0.69394904
-0.0025527172 0.021698087 0.6940949
-0.0025551389 0.020441175 0.69424099
-0.0025583748 0.019187838 0.69443631
-0.002566671 0.017966717 0.69493711
-0.0026600128 0.017290086 0.7005707
-0.0026671386 0.016002834 0.70100081
-0.0026716092 0.014693856 0.70127058
-0.0026760637 0.013380319 0.70153952
-0.0026805331 0.01206243 0.70180929
-0.0026856505 0.010742635 0.7021181
-0.002679944 0.0093798041 0.7017737
-0.0026326138 0.0078978837 0.69891703
-0.0026192681 0.0065481961 0.69811159
-0.0026277958 0.0052556098 0.69862622
-0.0027218349 0.0040827692 0.70430201
-0.0027172372 0.0027172565 0.70402449
-0.0026678143 0.001333952 0.70104158
-0.0026658289 -0 0.70092177
-0.0026766099 -0.0013383031 0.70157248
-0.0026814227 -0.0026814044 0.70186287
-0.0026562 -0.0039842725 0.70034063
-0.002617798 -0.0052355826 0.69802284
-0.0026059984 -0.0065149963 0.69731069
-0.002835941 -0.008507818 0.71118897
-0.0028528918 -0.0099851191 0.71221197
-0.0028689329 -0.011475742 0.71318018
-0.0028694067 -0.012912333 0.71320879
-0.0028472231 -0.014236093 0.7118699
-0.0028092412 -0.015450835 0.7095775
-0.0027722702 -0.0166336 0.70734608
-0.0027362492 -0.017785609 0.705172
-0.002734731 -0.019143134 0.70508039
-0.0027485213 -0.020613909 0.70591271
-0.0027664434 -0.022131503 0.70699441
-0.0027861858 -0.023682535 0.70818591
-0.0028062123 -0.025255889 0.70939469
-0.0029406433 -0.027936101 0.71750832
-0.0029571231 -0.029571205 0.71850294
-0.0032132021 -0.033738613 0.73395866
-0.0032102186 -0.035312384 0.73377866
-0.0031764116 -0.036528707 0.73173815
-0.0031366982 -0.037640363 0.72934127
-0.0031303258 -0.039129049 0.72895664
-0.0031523779 -0.040980935 0.73028755
-0.0031747429 -0.042859018 0.73163748
-0.0013127016 0.035442948 0.69848186
-0.0013018129 0.033847153 0.69716752
-0.0012953631 0.032384068 0.69638896
-0.001291137 0.030987322 0.69587874
-0.001288217 0.029628962 0.69552636
-0.0013492596 0.029683709 0.70289481
-0.0013539599 0.028433174 0.70346218
-0.0013555075 0.027110159 0.70364898
-0.0013266244 0.02520588 0.70016247
-0.0012895652 0.023212224 0.69568902
-0.0012849728 0.021844536 0.6951347
-0.0012862333 0.020579726 0.69528681
-0.0012875011 0.019312561 0.69543988
-0.0012887665 0.018042743 0.69559264
-0.001291041 0.016783565 0.69586718
-0.0013338099 0.016005725 0.70102984
-0.0013411097 0.014752209 0.70191103
-0.0013449145 0.013449162 0.70237029
-0.0013472037 0.012124807 0.70264667
-0.0013494693 0.010795772 0.70292008
-0.0013505602 0.0094539523 0.70305181
-0.0013321888 0.0079931617 0.70083416
-0.0013137836 0.0065689385 0.69861245
-0.0013171302 0.0052685142 0.69901645
-0.0013240615 0.0039722025 0.69985312
-0.0013690086 0.0027380288 0.70527875
-0.0013727405 0.0013727546 0.70572919
-0.001364316 -0 0.70471227
-0.0013422132 -0.0013422072 0.70204425
-0.0013367399 -0.0026734471 0.70138347
-0.0013183446 -0.0039550066 0.69916302
-0.0013003952 -0.0052015781 0.69699633
-0.0013029748 -0.0065148473 0.69730771
-0.0013086279 -0.0078517497 0.69799018
-0.0013152108 -0.0092064738 0.69878477
-0.001429768 -0.011438131 0.71261305
-0.0014291035 -0.012861907 0.71253288
-0.0014153252 -0.014153242 0.71086961
-0.001396862 -0.015365452 0.70864087
-0.0013797778 -0.016557306 0.70657867
-0.0013741574 -0.017864019 0.70590025
-0.00137299 -0.019221872 0.70575929
-0.0014277471 -0.021416187 0.71236908
-0.001407226 -0.022515625 0.70989197
-0.0013918207 -0.023660958 0.70803237
-0.0013973058 -0.025151461 0.70869446
-0.0014074084 -0.02674076 0.70991397
-0.0014175655 -0.028351307 0.71114004
-0.0016123489 -0.033859313 0.73465252
-0.0016097419 -0.035414338 0.73433781
-0.0015963122 -0.03671518 0.73271662
-0.0015853364 -0.038048059 0.73139179
-0.0015852497 -0.039631248 0.7313813
-0.00157752 -0.041015536 0.73044825
-0.0015816777 -0.042705297 0.73095018
-0.0015931794 -0.04460901 0.73233855
0 0.033189565 0.70027816
0 0.031564713 0.69878292
0 0.030944079 0.70242816
0 0.029708445 0.70303023
0 0.028463483 0.70363623
0 0.027209312 0.70424736
0 0.025941551 0.70483649
0 0.024613142 0.70508426
0 0.022806674 0.70196664
0 0.020858794 0.69739211
0 0.019443721 0.69649565
0 0.018164635 0.69664347
0 0.01688385 0.69679862
0 0.015600622 0.69695461
0 0.014323711 0.6972087
0 0.013445169 0.70232189
0 0.012171298 0.70326942
0 0.010851651 0.70376331
0 0.0095105171 0.70402771
0 0.0080907643 0.70279813
0 0.0066224933 0.69990551
0 0.0052848756 0.69950914
0 0.0039747059 0.69995373
0 0.0027457178 0.70574164
0 0.0013755858 0.70607293
0 -0 0.70516479
0 -0.001347512 0.70268571
0 -0.0026558638 0.70031977
0 -0.0039261878 0.69800258
0 -0.0051969588 0.69685781
0 -0.0065203905 0.6974417
0 -0.0078567266 0.69809008
0 -0.0092055798 0.69876909
0 -0.010566443 0.69946009
0 -0.01194945 0.70029402
0 -0.014049679 0.70961928
0 -0.015261024 0.70749503
0 -0.016604483 0.70705289
0 -0.018038362 0.70751905
0 -0.020585686 0.71751881
0 -0.022058636 0.71753907
0 -0.023334771 0.71607196
0 -0.024429202 0.71348745
0 -0.025492042 0.71097827
0 -0.026685089 0.70956028
0 -0.028234273 0.71043372
0 -0.02986148 0.71167231
0 -0.031512588 0.71292967
0 -0.036374927 0.73093098
0 -0.037679642 0.72953886
0 -0.039664328 0.73154122
0 -0.041506946 0.73272997
0 -0.043184519 0.73309278
0 -0.044546664 0.73206997
0 -0.046374619 0.73305631
0 -0.048315972 0.73443329
0.0013483957 0.031013101 0.70279056
0.0013515005 0.029733032 0.70316529
0.0013565342 0.028487235 0.7037729
0.0013616 0.027232021 0.70438445
0.0013667092 0.025967479 0.70500118
0.0013718517 0.02469337 0.7056219
0.00137688 0.023406953 0.70622891
0.0013794929 0.022071898 0.70654428
0.0013568572 0.02035287 0.70381188
0.0013180996 0.018453389 0.69913346
0.001307825 0.017001718 0.6978932
0.0013089039 0.015706867 0.69802344
0.0013102167 0.014412433 0.69818193
0.0013115273 0.013115287 0.69834018
0.0013135254 0.011821747 0.69858134
0.0013217396 0.010573924 0.69957286
0.0013638019 0.0095466077 0.70465016
0.0013611893 0.0081671476 0.70433486
0.001340339 0.0067017078 0.70181799
0.0013261992 0.0053048134 0.70011115
0.0013295077 0.0039885342 0.7005105
0.0013778573 0.0027557015 0.70634687
0.0013752452 0.001375258 0.70603156
0.0013577162 2.9802322e-08 0.7039156
0.0013376507 -0.0013376176 0.7014935
0.0013188299 -0.0026376545 0.69922161
0.0013047018 -0.003914088 0.6975162
0.0013046137 -0.0052184165 0.69750559
0.0013070182 -0.0065350831 0.69779575
0.0013128157 -0.0078769028 0.69849563
0.0013163119 -0.0092141628 0.69891769
0.0013216542 -0.010573208 0.69956249
0.0013274151 -0.011946738 0.70025802
0.0013332264 -0.013332278 0.70095944
0.0013405768 -0.014746308 0.70184666
0.0013830015 -0.016595989 0.70696783
0.0014668396 -0.019068867 0.71708798
0.0014749715 -0.020649582 0.71806955
0.001480401 -0.022205979 0.71872497
0.0014803632 -0.023685813 0.71872044
0.0014683334 -0.02496165 0.71726829
0.0014495224 -0.026091397 0.71499765
0.0014311343 -0.02719155 0.71277797
0.0014134656 -0.028269321 0.71064508
0.0014163406 -0.029743165 0.71099222
0.0014264049 -0.031380892 0.71220708
0.0014368272 -0.033046991 0.71346515
0.0014476021 -0.034742415 0.71476579
0.0015513338 -0.038783342 0.72728729
0.0015771476 -0.04100582 0.7304033
0.0016041016 -0.043310732 0.733657
0.0016114516 -0.045120656 0.73454416
0.0016036278 -0.046505183 0.73359978
0.0016016985 -0.04805097 0.73336691
0.0027318175 0.02868408 0.70490456
0.002725475 0.02725476 0.70452178
0.0027357105 0.025989264 0.70513952
0.0027460125 0.024714112 0.70576125
0.0027564033 0.023429453 0.70638835
0.002766873 0.02213499 0.70702028
0.0027772337 0.02082929 0.7076456
0.0027834964 0.01948452 0.70802361
0.0027449604 0.017842293 0.70569772
0.0026656857 0.015994102 0.70091319
0.0026392024 0.014515668 0.69931471
0.0026410881 0.013205439 0.69942856
0.0026437507 0.011896878 0.69958919
0.0026465498 0.010586202 0.69975817
0.002650264 0.009275943 0.69998235
0.0026645616 0.0079936981 0.7008453
0.0026702029 0.0066755116 0.7011857
0.0026641428 0.0053282976 0.70081997
0.0026700695 0.0040051043 0.70117772
0.0026766099 0.0026765764 0.70157248
0.002732838 0.0013664067 0.70496613
0.002695045 -0 0.70268518
0.0026575713 -0.0013287961 0.70042336
0.0026579169 -0.0026578903 0.70044422
0.0026581304 -0.0039871931 0.7004571
0.0028074933 -0.0056149662 0.70947194
0.002806643 -0.0070165694 0.70942068
0.002772602 -0.0083177984 0.70736611
0.0027205348 -0.0095218718 0.70422357
0.002670367 -0.01068145 0.70119566
0.0026570735 -0.011956841 0.70039332
0.002668224 -0.013341099 0.70106632
0.0026799648 -0.014739811 0.7017749
0.0026918089 -0.016150802 0.70248979
0.0027074663 -0.01759851 0.70343482
0.0029433835 -0.020603687 0.71767366
0.002960575 -0.02220428 0.71871126
0.002960701 -0.023685604 0.71871889
0.0029375234 -0.024968922 0.71731997
0.0029026654 -0.026123971 0.7152161
0.0028686486 -0.027252138 0.71316302
0.0028350155 -0.028350174 0.71113312
0.0028306043 -0.02972132 0.71086681
0.0028435299 -0.031278819 0.71164697
0.0028624572 -0.032918245 0.7127893
0.0028827139 -0.034592599 0.71401191
0.0029039998 -0.036299974 0.71529663
0.002927426 -0.038056523 0.71671051
0.0031395038 -0.042383283 0.72951055
0.0031970746 -0.044759005 0.73298526
0.0032086179 -0.046524942 0.73368198
0.0031791725 -0.04768759 0.73190486
0.003188991 -0.049429357 0.73249739
0.0041228309 0.024737 0.70591462
0.0041381009 0.023449242 0.70652902
0.0041538151 0.022153735 0.70716137
0.0041696662 0.020848364 0.70779914
0.0041856389 0.019533008 0.70844185
0.0042016665 0.018207222 0.70908678
0.004212176 0.016848743 0.70950967
0.0041654008 0.015273154 0.70762759
0.0040437751 0.013479233 0.70273376
0.0039947899 0.011984408 0.70076269
0.0039975778 0.010660231 0.70087487
0.0040012454 0.0093362331 0.70102239
0.0040057199 0.0080114603 0.70120245
0.0040108366 0.0066847205 0.70140839
0.0040172357 0.0053563416 0.70166582
0.0040247119 0.004024744 0.70196664
0.004032325 0.0026881993 0.70227295
0.0040390748 0.0013463795 0.70254457
0.0040124268 -0 0.70147234
0.003982367 -0.001327455 0.70026278
0.0040006926 -0.002667129 0.70100021
0.004218244 -0.0042181909 0.70975375
0.0042295228 -0.0056393445 0.71020758
0.0042407415 -0.007067889 0.71065897
0.0042490736 -0.0084981322 0.7109943
0.0042371219 -0.0098866224 0.71051341
0.0041774032 -0.01113975 0.70811051
0.0041091302 -0.012327373 0.70536339
0.0040384331 -0.013461441 0.70251876
0.0040226616 -0.014749736 0.70188415
0.0040403428 -0.016161352 0.70259559
0.0040582432 -0.017585695 0.70331585
0.0040763021 -0.019022733 0.70404255
0.0044256095 -0.022127986 0.71809751
0.0044218171 -0.023583025 0.71794492
0.0043807314 -0.024824142 0.71629179
0.0043296027 -0.025977612 0.71423453
0.004285601 -0.027142137 0.71246403
0.0042786351 -0.02852422 0.71218377
0.0042693126 -0.029885173 0.71180862
0.0044633946 -0.032731533 0.7196179
0.0043965839 -0.033707142 0.71692967
0.0043320679 -0.034656525 0.71433371
0.0043384144 -0.036153436 0.71458912
0.0043698777 -0.037872255 0.71585512
0.0044025443 -0.039622903 0.71716952
0.0046991506 -0.043858737 0.72910398
0.0047640512 -0.046052516 0.73171544
0.0047459402 -0.047459364 0.7309866
0.0047222045 -0.048796088 0.73003161
0.0055448501 0.022179425 0.70735538
0.0055642738 0.020866066 0.70794153
0.0055856067 0.019549638 0.70858538
0.0056071039 0.018223107 0.70923406
0.005628767 0.016886294 0.7098878
0.0056505753 0.01553908 0.71054596
0.005666309 0.014165789 0.71102077
0.0056193681 0.012643605 0.7096042
0.0054534096 0.010906875 0.70459592
0.0053752474 0.0094066858 0.70223719
0.0053790337 0.0080685914 0.70235145
0.0053833257 0.0067291856 0.70248097
0.005389797 0.0053897798 0.7026763
0.0053969338 0.0040477216 0.70289171
0.0054033753 0.0027016997 0.70308608
0.0053825337 0.0013456345 0.70245707
0.0053103296 -0 0.7002781
0.0052753398 -0.0013188422 0.69922221
0.005324285 -0.0026621521 0.70069927
0.0056414469 -0.0042310655 0.71027046
0.0056593185 -0.005659312 0.71080983
0.0056740819 -0.0070925653 0.71125531
0.0056845248 -0.0085268021 0.7115705
0.0056716274 -0.0099253356 0.71118122
0.0056104311 -0.011220843 0.70933455
0.0055334154 -0.012450218 0.70701039
0.0054566208 -0.013641536 0.70469284
0.0053835344 -0.014804691 0.70248723
0.0053924737 -0.016177416 0.70275706
0.0054145106 -0.017597139 0.70342207
0.0054386002 -0.019035071 0.70414907
0.0054629263 -0.020485967 0.70488316
0.005487428 -0.021949679 0.70562249
0.0057915905 -0.024614245 0.71480149
0.0057330611 -0.025798768 0.71303517
0.0057281465 -0.027208716 0.71288693
0.0057492824 -0.028746396 0.7135247
0.0060890093 -0.031967312 0.72377688
0.0060974238 -0.033535808 0.72403085
0.0060816291 -0.03496933 0.72355413
0.0059914449 -0.035948634 0.72083259
0.0059011886 -0.03688243 0.71810889
0.0058246967 -0.037860513 0.71580052
0.0058453968 -0.039456457 0.71642518
0.0058888621 -0.041222006 0.71773684
0.0059339413 -0.043021053 0.71909726
0.0062890085 -0.047167569 0.72981238
0.0062583964 -0.048502564 0.72888863
0.0069934754 0.019581735 0.70886219
0.007014879 0.018238693 0.70937896
0.0070420043 0.016900837 0.71003377
0.0070693404 0.015552551 0.71069372
0.0070968899 0.014193773 0.7113589
0.0071246251 0.012824327 0.71202838
0.0071466644 0.011434674 0.71256047
0.0071080392 0.0099512637 0.71162796
0.0068956576 0.0082748234 0.70650071
0.0067812679 0.0067812502 0.70373905
0.0067860885 0.0054288805 0.7038554
0.0067894831 0.0040737092 0.70393741
0.0067679537 0.0027072132 0.70341766
0.0066865026 0.0013373196 0.70145124
0.0065891729 -0 0.69910145
0.0065232152 -0.0013046265 0.69750911
0.0065375995 -0.0026150346 0.69785637
0.0070364429 -0.0042218566 0.70989949
0.0070804325 -0.0056643188 0.71096152
0.0071136272 -0.0071136057 0.71176291
0.0071135107 -0.0085361898 0.7117601
0.0070715849 -0.0099002123 0.71074796
0.0069819242 -0.011171043 0.7085833
0.0068920469 -0.012405694 0.70641351
0.0068129394 -0.01362586 0.70450366
0.0067627109 -0.014877945 0.70329106
0.0067671891 -0.016241252 0.70339918
0.0067823529 -0.017634124 0.70376527
0.0068390612 -0.019149363 0.70513427
0.0068330895 -0.020499229 0.70499015
0.0068638106 -0.021964163 0.70573175
0.0068948097 -0.023442358 0.70648021
0.0069259787 -0.024933487 0.70723265
0.0071381489 -0.027124971 0.7123549
0.0075736688 -0.030294687 0.72286934
0.0076216799 -0.032011032 0.72402841
0.0076527675 -0.033672184 0.72477895
0.0076323608 -0.035108864 0.72428626
0.0075858715 -0.036412179 0.72316396
0.0075345174 -0.037672549 0.72192413
0.0075034732 -0.039018035 0.7211746
0.0074259234 -0.040099949 0.71930242
0.0073489337 -0.041153967 0.7174437
0.0073852967 -0.042834729 0.71832162
0.007440744 -0.044644475 0.71966022
0.0074990364 -0.046494037 0.72106749
0.008082184 -0.051725954 0.73514593
0.0084724184 0.016944826 0.71047664
0.0084905326 0.015565991 0.71084106
0.0085236495 0.014206111 0.71150738
0.0085570244 0.012835532 0.71217883
0.0085906629 0.011454254 0.71285552
0.008621891 0.01005891 0.71348381
0.0085769147 0.0085769296 0.71257895
0.0084250672 0.0070208907 0.70952404
0.0082686516 0.0055124462 0.70637721
0.0081769694 0.0040884614 0.70453274
0.0080829728 0.0026943088 0.70264161
0.0079644602 0.0013274252 0.7002573
0.0078572119 -0 0.69809961
0.007859434 -0.0013098717 0.69814432
0.0078778164 -0.0026259124 0.69851416
0.0078968247 -0.0039483905 0.69889665
0.0079172468 -0.0052781403 0.69930744
0.0079681436 -0.0066401064 0.70033145
0.0085096983 -0.0085096955 0.7112267
0.0084289154 -0.0098337233 0.70960146
0.0083235512 -0.011098027 0.70748168
0.0082560126 -0.012384027 0.70612293
0.0082743624 -0.013790578 0.70649207
0.0087158969 -0.015979141 0.71537507
0.0087334951 -0.017466992 0.71572912
0.0087289978 -0.018912792 0.71563864
0.0086091449 -0.020088017 0.71322739
0.008441885 -0.021104693 0.70986241
0.0082810335 -0.022082746 0.7066263
0.0082792249 -0.023457795 0.70658994
0.0083168102 -0.024950415 0.70734608
0.0083546387 -0.026456356 0.70810711
0.0083928797 -0.027976274 0.70887649
0.0091182543 -0.031913877 0.72346985
0.0091456147 -0.033533931 0.7240203
0.0091140289 -0.034937114 0.72338486
0.0090620136 -0.036248028 0.72233838
0.0090113683 -0.03754735 0.72131944
0.0090320194 -0.039138734 0.72173494
0.0090748332 -0.040836781 0.72259635
0.0090834135 -0.042389244 0.72276896
0.008971272 -0.043361127 0.72051281
0.0089049414 -0.044524699 0.71917838
0.0089587048 -0.046286583 0.72025996
0.0090265842 -0.048141807 0.72162563
0.0090989936 -0.050044447 0.7230823
0.010042137 0.014345944 0.7131952
0.0099918898 0.012846738 0.71232873
0.010031203 0.011464238 0.71300668
0.01004973 0.010049731 0.71332622
0.0099475924 0.0085265636 0.71156478
0.0097938217 0.0069956183 0.70891315
0.0096447719 0.0055113435 0.70634294
0.0095002269 0.0040715635 0.70385033
0.0093636988 0.0026753545 0.70149601
0.0092392787 0.0013199151 0.69935036
0.0092113223 2.9802322e-08 0.69886833
0.0092200162 -0.0013171136 0.69901824
0.0092344731 -0.0026383996 0.69926757
0.0092548532 -0.0039663613 0.699619
0.0092769498 -0.0053010881 0.70000005
0.0092993658 -0.006642431 0.70038658
0.0093225697 -0.0079907477 0.70078671
0.0093727922 -0.0093728006 0.70165277
0.0096067544 -0.010979146 0.70568734
0.0096352967 -0.012388229 0.70617956
0.0096860984 -0.013837278 0.70705557
0.010206136 -0.016038209 0.71602333
0.010234738 -0.017545253 0.71651649
0.010262894 -0.019059628 0.71700203
0.01024992 -0.020499825 0.71677828
0.010148308 -0.021746337 0.71502608
0.010008377 -0.022876263 0.71261305
0.0098664854 -0.023961484 0.71016622
0.0097289495 -0.025017262 0.70779449
0.0097536845 -0.026474237 0.70822102
0.0097983591 -0.027995318 0.70899141
0.0098432861 -0.02952981 0.70976615
0.0098890699 -0.031079948 0.71055567
0.010584818 -0.034778655 0.72255343
0.010524635 -0.036084473 0.7215156
0.010471171 -0.037397027 0.72059369
0.010508811 -0.039032727 0.72124273
0.010577453 -0.040798753 0.72242641
0.010646998 -0.042587936 0.72362566
0.010693291 -0.044300765 0.72442394
0.010688827 -0.045809239 0.72434694
0.010537631 -0.046666652 0.72173971
0.010493623 -0.047970831 0.72098082
0.010566471 -0.04981333 0.72223699
0.012028728 0.015035927 0.72152424
0.011832219 0.013311267 0.71855915
0.011542491 0.011542499 0.7141875
0.011451622 0.010020196 0.71281636
0.011279369 0.0084595084 0.7102173
0.011106361 0.0069414377 0.70760685
0.010938579 0.0054693222 0.70507514
0.010854773 0.0040705502 0.70381063
0.010848546 0.0027121603 0.70371675
0.010822359 0.0013528168 0.70332152
0.010700176 -0 0.70147794
0.011620467 -0.0014525652 0.7153641
0.011274519 -0.0028185844 0.7101441
0.010948618 -0.0041057169 0.7052266
0.010662171 -0.0053310692 0.70090449
0.010676627 -0.006672889 0.70112264
0.010702565 -0.0080268979 0.70151395
0.010728671 -0.0093875527 0.70190787
0.010754988 -0.010754943 0.70230496
0.010805238 -0.012155861 0.70306325
0.01104502 -0.013806254 0.70668125
0.01169709 -0.016083479 0.71652019
0.011738978 -0.017608464 0.71715224
0.011754367 -0.019100845 0.71738446
0.011720121 -0.020510226 0.71686774
0.01160751 -0.02176407 0.7151686
0.011469813 -0.022939622 0.71309084
0.011331048 -0.024078459 0.7109971
0.01119285 -0.025183916 0.70891184
0.011167892 -0.026523739 0.70853525
0.011208239 -0.028020561 0.709144
0.011257306 -0.029550403 0.70988441
0.011309243 -0.031100392 0.71066803
0.01136166 -0.032664746 0.71145892
0.011415926 -0.034247756 0.71227777
0.011931456 -0.037285775 0.72005653
0.011989144 -0.038964689 0.72092694
0.012060039 -0.040702611 0.72199672
0.012134851 -0.042471975 0.72312558
0.01221607 -0.044283241 0.72435105
0.012269342 -0.046010017 0.72515488
0.012185599 -0.047219217 0.72389126
0.01205507 -0.048220247 0.72192168
0.0120343 -0.04964149 0.72160828
0.012786651 -0.054343224 0.7329604
0.013419892 0.014910996 0.72001642
0.013202448 0.013202488 0.71709991
0.01299183 0.011548311 0.714275
0.012787983 0.0099462271 0.711541
0.012590334 0.0083935559 0.70889008
0.012417753 0.0068987906 0.70657539
0.012357886 0.005492419 0.7057724
0.012341646 0.0041138828 0.7055546
0.013209475 0.0029354692 0.7171942
0.01325994 0.0014733076 0.71787107
0.013301168 2.9802322e-08 0.71842396
0.013289072 -0.0014765561 0.71826172
0.013173584 -0.0029274523 0.71671277
0.01295169 -0.004317224 0.71373671
0.012722017 -0.0056542456 0.71065623
0.012465569 -0.0069252849 0.70721662
0.012121638 -0.0080810785 0.70260376
0.012125633 -0.0094310343 0.70265734
0.012155326 -0.010804713 0.70305562
0.012185117 -0.012185097 0.70345521
0.012215198 -0.013572425 0.70385861
0.012268198 -0.014994442 0.70456946
0.013210814 -0.017614394 0.71721214
0.013221595 -0.019097865 0.71735668
0.013138053 -0.020436972 0.71623623
0.012984764 -0.021641254 0.71418023
0.01283501 -0.022817761 0.71217179
0.012771949 -0.024124771 0.711326
0.012672116 -0.025344253 0.70998693
0.012644703 -0.026694357 0.70961922
0.013262133 -0.029471368 0.7179004
0.012997662 -0.030327857 0.71435326
0.012760276 -0.031191766 0.71116936
0.012790703 -0.032687366 0.71157753
0.01285041 -0.034267724 0.71237826
0.012910572 -0.035862684 0.71318519
0.012974204 -0.03748101 0.71403861
0.013549263 -0.040647775 0.72175145
0.013627139 -0.042395532 0.72279596
0.013708679 -0.044172406 0.72388965
0.013767765 -0.045892537 0.72468209
0.013674212 -0.047100037 0.72342736
0.013564131 -0.048227996 0.72195095
0.013567191 -0.049746364 0.72199196
0.014279755 -0.05394572 0.73154908
0.01457573 0.017490864 0.71596938
0.014473851 0.015921265 0.71473956
0.014381594 0.014381617 0.71362597
0.014387013 0.012948304 0.71369135
0.014335255 0.011468202 0.71306658
0.014317476 0.010022253 0.712852
0.0142489 0.0085493326 0.71202421
0.014043935 0.0070219934 0.70955008
0.013967553 0.0055870414 0.70862806
0.014631953 0.0043896139 0.7166481
0.014689852 0.0029380023 0.71734697
0.01474815 0.0014748275 0.71805072
0.01478291 -0 0.71847028
0.014755853 -0.0014755726 0.7181437
0.014627025 -0.002925396 0.71658856
0.014423922 -0.0043271482 0.7141369
0.01421794 -0.0056871772 0.71165049
0.014014592 -0.0070072711 0.70919585
0.013805672 -0.0082833767 0.70667392
0.013594426 -0.0095160902 0.70412397
0.013571064 -0.010856807 0.70384192
0.01360177 -0.012241572 0.70421267
0.013635343 -0.013635308 0.70461786
0.01366919 -0.015036076 0.70502645
0.013702828 -0.016443372 0.70543253
0.013759313 -0.017887086 0.70611441
0.014460238 -0.02024433 0.71457529
0.014326035 -0.021489054 0.71295536
0.014238798 -0.022782058 0.71190226
0.014294622 -0.024300814 0.71257609
0.015039228 -0.027070582 0.72156435
0.01508264 -0.028656989 0.72208834
0.015115314 -0.030230612 0.72248274
0.015080611 -0.031669259 0.72206378
0.014869388 -0.032712668 0.71951419
0.01457023 -0.033511519 0.71590304
0.014315116 -0.034356266 0.71282351
0.014354917 -0.035887271 0.71330392
0.014422785 -0.037499249 0.71412313
0.014490994 -0.039125681 0.71494651
0.014565893 -0.040784508 0.71585071
0.015210795 -0.044111282 0.72363532
0.015243894 -0.045731664 0.72403485
0.015204206 -0.047133029 0.7235558
0.015492656 -0.049576491 0.72703767
0.015654873 -0.051661074 0.7289958
0.015786666 -0.053674638 0.73058665
0.015423082 0.030846179 0.70927298
0.015087568 0.028803557 0.7055912
0.014984588 0.027244747 0.7044611
0.016003765 0.020368427 0.71564519
0.015806735 0.018680692 0.7134831
0.015648827 0.017071456 0.71175027
0.015659278 0.015659302 0.71186495
0.015714969 0.014286339 0.71247607
0.015772035 0.012904435 0.71310228
0.015797 0.011488765 0.71337628
0.015848419 0.010085374 0.71394056
0.015900703 0.0086731315 0.71451426
0.015980547 0.0072638988 0.71539044
0.016045757 0.0058348477 0.71610606
0.016109055 0.004393369 0.71680069
0.016172787 0.0029405057 0.71750003
0.016232474 0.0014756918 0.71815503
0.016242061 2.9802322e-08 0.71826017
0.016177783 -0.0014707148 0.71755481
0.015979677 -0.0029053986 0.71538091
0.015765855 -0.0042997599 0.71303451
0.015557614 -0.0056572855 0.71074927
0.015378588 -0.0069902539 0.7087847
0.015263806 -0.0083257258 0.70752519
0.015077391 -0.0095947087 0.7054795
0.015046172 -0.010942638 0.7051369
0.015050733 -0.01231423 0.70518696
0.015075785 -0.013705224 0.70546186
0.015106412 -0.01510641 0.70579797
0.015144059 -0.016520768 0.70621109
0.015181896 -0.01794222 0.7066263
0.015219376 -0.019370109 0.70703757
0.015278815 -0.020834744 0.70768988
0.01560589 -0.022699475 0.71127909
0.015727773 -0.024306566 0.71261656
0.016605103 -0.02717194 0.72224414
0.016651401 -0.028761476 0.72275221
0.016657496 -0.030286342 0.72281915
0.016596738 -0.031684667 0.72215235
0.01649503 -0.032990038 0.7210362
0.016392242 -0.034274668 0.71990824
0.016319523 -0.035606235 0.71911025
0.016171144 -0.036752611 0.71748203
0.015900239 -0.037582368 0.71450913
0.015951069 -0.039152622 0.71506703
0.016027119 -0.04079628 0.71590155
0.016103897 -0.042455703 0.71674401
0.016192656 -0.044161737 0.71771801
0.016721772 -0.047125012 0.72352445
0.01703782 -0.04956454 0.72699267
0.017177178 -0.051531494 0.72852188
0.017304404 -0.053486347 0.72991806
0.017044023 0.032667726 0.71147442
0.016618043 0.030466408 0.70718938
0.016355416 0.028622001 0.70454752
0.016331265 0.027218819 0.70430458
0.017378103 0.021722674 0.71483499
0.017153548 0.020012498 0.71257609
0.016986532 0.0184021 0.71089602
0.017016131 0.017016143 0.7111938
0.017084667 0.015660971 0.71188331
0.017153759 0.014294803 0.71257824
0.017190889 0.01289317 0.71295166
0.017248277 0.011498868 0.71352899
0.017315248 0.010100573 0.71420264
0.017382814 0.0086914003 0.71488231
0.017450908 0.00727126 0.71556735
0.017519539 0.0058398545 0.71625769
0.017588636 0.0043971539 0.71695274
0.017658355 0.0029430389 0.71765411
0.017706648 0.0014755428 0.71813989
0.017683068 -0 0.71790266
0.017550362 -0.0014625192 0.71656775
0.017313953 -0.0028856695 0.71418965
0.017083827 -0.0042709708 0.71187478
0.016941601 -0.0056472123 0.71044409
0.016934169 -0.0070558786 0.71036935
0.016936716 -0.0084683299 0.71039492
0.018288501 -0.010668278 0.72399288
0.018275514 -0.012183666 0.72386223
0.018098226 -0.013573676 0.72207886
0.017779734 -0.014816463 0.71887505
0.017307701 -0.015865356 0.71412677
0.016795969 -0.016795963 0.70897919
0.016640259 -0.018026918 0.70741284
0.016682202 -0.019462556 0.70783472
0.016723955 -0.020904899 0.70825469
0.016765647 -0.022354186 0.70867413
0.016828779 -0.023840725 0.70930916
0.01811395 -0.027170897 0.72223705
0.018212056 -0.028835744 0.72322392
0.018170469 -0.030284077 0.72280556
0.018058954 -0.031603158 0.7216838
0.017946174 -0.032901317 0.72054935
0.017841432 -0.034196049 0.71949571
0.017858703 -0.035717368 0.7196694
0.017927192 -0.03734833 0.72035837
0.017971234 -0.038937658 0.72080141
0.017800912 -0.040052056 0.71908808
0.017519392 -0.040878564 0.71625626
0.017580181 -0.042485446 0.71686774
0.017664041 -0.044160098 0.71771133
0.017750291 -0.045854926 0.71857893
0.017858014 -0.047621369 0.71966255
0.018706707 -0.051443428 0.72819972
0.018838216 -0.053374916 0.72952253
0.018234121 0.032260418 0.70933652
0.017811919 0.030143231 0.7054162
0.017636595 0.028489888 0.70378828
0.017702188 0.027234167 0.70439732
0.017771274 0.025973409 0.70503879
0.017854089 0.024721056 0.70580781
0.018137332 0.023718029 0.7084378
0.018469796 0.022732049 0.71152484
0.018397054 0.02122736 0.7108494
0.018333066 0.019743323 0.71025527
0.018371241 0.018371254 0.71060979
0.018444907 0.017026067 0.71129382
0.018519165 0.015670061 0.71198332
0.018594101 0.014303178 0.71267915
0.018669646 0.012925148 0.71338058
0.018788926 0.011562407 0.71448815
0.018812792 0.010129988 0.7147097
0.01884741 0.0086988211 0.71503121
0.018921303 0.0072774291 0.71571732
0.01899578 0.0058448315 0.71640891
0.019070847 0.0044009984 0.71710587
0.019146428 0.0029456317 0.71780771
0.019198589 0.0014768243 0.718292
0.019173896 2.9802322e-08 0.71806276
0.018971765 -0.0014593601 0.71618593
0.018764107 -0.0028867424 0.71425772
0.018660855 -0.0043063462 0.71329892
0.018599844 -0.0057230294 0.71273243
0.01970176 -0.0075775683 0.72296417
0.019784167 -0.0091311634 0.72372943
0.019841088 -0.010683656 0.72425795
0.019813238 -0.012192726 0.72399932
0.019660685 -0.013611257 0.72258282
0.019403189 -0.014925539 0.7201919
0.019144641 -0.016199291 0.71779108
0.0188745 -0.017422587 0.7152828
0.018595479 -0.018595487 0.7126919
0.018294975 -0.019702286 0.70990157
0.018204359 -0.021005005 0.70906019
0.018250624 -0.022462279 0.70948976
0.018296456 -0.023926139 0.70991534
0.018342743 -0.025397658 0.71034515
0.018408975 -0.026905447 0.71096015
0.019640852 -0.030216664 0.72239864
0.019516954 -0.03152737 0.72124821
0.019392278 -0.032817662 0.72009051
0.019336989 -0.034211606 0.71957713
0.01940069 -0.03581664 0.72016859
0.019468419 -0.037439227 0.72079748
0.019543046 -0.039086074 0.72149044
0.019618928 -0.040746987 0.72219509
0.019663852 -0.042352915 0.72261226
0.019451065 -0.043390781 0.72063637
0.01917121 -0.04424125 0.71803784
0.01924308 -0.045887321 0.71870518
0.019335335 -0.047594637 0.71956176
0.020316003 -0.051571369 0.72866774
0.020420058 -0.053406298 0.72963393
0.019066062 0.02996096 0.70441604
0.01900075 0.028501153 0.70385283
0.019074658 0.027249575 0.70449007
0.019149145 0.025988132 0.70513237
0.01922429 0.024716944 0.70578027
0.01929995 0.023435652 0.70643264
0.019377753 0.022146016 0.70710349
0.01956897 0.020966798 0.70875216
0.019716974 0.019716978 0.71002829
0.019795926 0.018381923 0.71070904
0.020000624 0.017143428 0.71247399
0.020081289 0.015778154 0.71316946
0.020162523 0.014401823 0.71386993
0.020244583 0.013014406 0.71457744
0.020475851 0.0058502555 0.71657145
0.020555539 0.0044047534 0.71725857
0.02063716 0.0029481947 0.71796232
0.020717405 0.0014798343 0.71865416
0.020785922 -0 0.71924496
0.020836314 -0.0014882982 0.71967947
0.020953437 -0.0029933155 0.7206893
0.02106121 -0.0045131147 0.72161853
0.021148745 -0.0060424805 0.72237331
0.02123701 -0.0075846016 0.72313428
0.021323116 -0.0091384649 0.72387671
0.021346135 -0.010673076 0.7240752
0.021274347 -0.012156755 0.72345626
0.021052733 -0.01353386 0.7215454
0.020799786 -0.014856964 0.71936452
0.020552846 -0.016148657 0.71723533
0.0203117 -0.01741004 0.71515608
0.020071844 -0.018638104 0.71308804
0.019822707 -0.019822687 0.71094
0.019735612 -0.021145284 0.71018898
0.019758057 -0.022580624 0.71038252
0.019799633 -0.024042368 0.71074092
0.019849885 -0.025521249 0.71117425
0.019900231 -0.027007461 0.71160835
0.019951405 -0.028502017 0.7120496
0.020020297 -0.030030429 0.71264362
0.020833459 -0.032738268 0.71965486
0.020898975 -0.034334004 0.72021973
0.020967074 -0.035943538 0.7208069
0.02103298 -0.037558913 0.72137517
0.021105343 -0.039195627 0.72199911
0.021179959 -0.040847033 0.72264236
0.021248419 -0.04249683 0.72323275
0.021129729 -0.043768734 0.72220933
0.020898527 -0.044782549 0.72021586
0.020758072 -0.045964271 0.71900481
0.020856861 -0.047672778 0.71985662
0.021819498 -0.051431686 0.72815663
0.020743288 0.027657747 0.70695382
0.020528657 0.026002973 0.70522666
0.020609181 0.02473104 0.70587468
0.020690341 0.023449063 0.70652777
0.02077214 0.022156984 0.70718604
0.020854589 0.020854622 0.70784956
0.020937694 0.01954186 0.70851827
0.021046508 0.018240333 0.70939398
0.021428799 0.017143071 0.71247041
0.021408554 0.015699655 0.71230751
0.021612108 0.014408082 0.71394563
0.022140549 0.0029520988 0.71819818
0.0222187 0.0014812946 0.71882701
0.022309333 -0 0.71955645
0.022400998 -0.0014933646 0.720294
0.02249342 -0.0029990971 0.72103781
0.02258651 -0.004517287 0.72178698
0.022680372 -0.0060480833 0.72254229
0.022775019 -0.007591635 0.72330391
0.0228488 -0.009139508 0.7238977
0.022830484 -0.010654211 0.72375035
0.022692814 -0.012102842 0.72264242
0.022419017 -0.013451427 0.72043914
0.022151183 -0.014767438 0.71828371
0.021897305 -0.016057998 0.7162407
0.021819478 -0.017455548 0.71561438
0.021812081 -0.018903792 0.71555489
0.023590507 -0.022017807 0.7298665
0.02352789 -0.02352789 0.72936261
0.023235565 -0.024784565 0.72701019
0.022545377 -0.025551438 0.72145599
0.021851586 -0.026221871 0.7158727
0.021428887 -0.02714327 0.71247119
0.021481348 -0.02864179 0.71289331
0.021536378 -0.03015089 0.71333611
0.021592589 -0.03166908 0.71378851
0.021664299 -0.033218592 0.7143656
0.022501286 -0.03600201 0.72110116
0.022619247 -0.037698716 0.72205037
0.022693604 -0.039335579 0.72264874
0.02276706 -0.040980697 0.72323984
0.022756722 -0.042479217 0.72315669
0.022616597 -0.043725371 0.72202909
0.022415159 -0.044830292 0.72040802
0.022374457 -0.046240538 0.72008049
0.02343954 -0.050004333 0.72865164
0.023406906 -0.051495194 0.72838902
0.022087408 0.023467869 0.70666134
0.022169672 0.022169679 0.70728201
0.022257719 0.020866662 0.7079463
0.022346469 0.019553185 0.70861578
0.022435928 0.018229216 0.70929074
0.022526197 0.016894639 0.70997179
0.022620419 0.015551567 0.71068263
0.022708749 0.014192998 0.71134907
0.023860045 -0 0.72003496
0.023916395 -0.0014947653 0.72046006
0.024015056 -0.0030018687 0.72120434
0.024114532 -0.0045214891 0.72195488
0.024214944 -0.0060537159 0.7227124
0.024316089 -0.0075987577 0.72347546
0.024387127 -0.0091451705 0.72401142
0.024346011 -0.01065138 0.72370124
0.024089038 -0.012044489 0.72176254
0.023812523 -0.013394535 0.71967638
0.02365477 -0.014784187 0.71848619
0.023586929 -0.01621595 0.71797436
0.023549961 -0.017662436 0.71769547
0.025157399 -0.02044037 0.72982264
0.025254307 -0.022097528 0.73055381
0.025107071 -0.023537844 0.72944295
0.024854409 -0.024854422 0.7275368
0.024624549 -0.026163548 0.72580266
0.024410255 -0.027461529 0.72418588
0.024172409 -0.028704733 0.72239155
0.023629937 -0.02953741 0.71829885
0.023092173 -0.030308485 0.71424174
0.023145916 -0.031825602 0.71464723
0.023205815 -0.033358335 0.7150991
0.023267195 -0.034900784 0.71556222
0.023342611 -0.036472827 0.71613115
0.02424261 -0.03939423 0.72292113
0.024308328 -0.041020274 0.72341692
0.024209566 -0.042366743 0.72267181
0.024293244 -0.044031501 0.7233032
0.024665626 -0.046248019 0.72611254
0.024792451 -0.048035353 0.72706938
0.024899157 -0.04979831 0.7278744
0.023999725 0.021176279 0.71043783
0.023756873 0.01956448 0.70871347
