# .PCD v0.7 - Point Cloud Data file format
VERSION 0.7
FIELDS x y z
SIZE 4 4 4
TYPE F F F
COUNT 1 1 1
WIDTH 218
HEIGHT 1
VIEWPOINT 0 0 0 1 0 0 0
POINTS 218
DATA ascii
-0.023545193 -0.029687405 0.66359675
-0.027580041 -0.026558548 0.66332865
-0.029772852 -0.023612916 0.66395235
-0.021734515 -0.034154236 0.66495752
-0.020694422 -0.031041592 0.66492665
-0.023736667 -0.025800735 0.66460168
-0.031994417 -0.022705704 0.66460758
-0.019826015 -0.030260742 0.66598326
-0.027107136 -0.021894246 0.66587555
-0.020953873 -0.026192337 0.66649258
-0.03802019 -0.023234546 0.66750932
-0.022320915 -0.039327323 0.66832823
-0.019083701 -0.026505142 0.6680029
-0.018143181 -0.026681155 0.66885275
-0.017227855 -0.036609173 0.66999888
-0.017165089 -0.027893245 0.66952533
-0.040847294 -0.022573501 0.66978014
-0.020312861 -0.022451073 0.66907632
-0.01626746 -0.03470391 0.67093515
-0.017277325 -0.024836153 0.67037213
-0.03991003 -0.020494312 0.67022926
-0.021603972 -0.019443572 0.67041624
-0.024952471 -0.017358243 0.6709826
-0.015265771 -0.029441118 0.67164916
-0.01744342 -0.021804243 0.67162514
-0.019595934 -0.019595921 0.67143804
-0.040836062 -0.019866168 0.67325044
-0.034158666 -0.016528398 0.67303497
-0.022139439 -0.015497595 0.67364812
-0.013372103 -0.030087203 0.67453772
-0.01337768 -0.024525762 0.67459387
-0.014482404 -0.021166563 0.67450023
-0.01452637 -0.020113438 0.67490846
-0.016788838 -0.01678881 0.67513084
-0.025781419 -0.013451189 0.67533314
-0.01921914 -0.013566464 0.67649275
-0.010339203 -0.021827221 0.67869729
-0.010339203 -0.021827221 0.67869729
-0.010387421 -0.028853923 0.67934394
-0.011587419 -0.015063643 0.67989731
-0.03228832 -0.012684703 0.67922276
-0.019644631 -0.010400087 0.67951393
-0.018522883 -0.010419101 0.6797691
-0.0093144467 -0.018628865 0.68056887
-0.024491619 -0.0093301237 0.68080568
-0.030436456 -0.044484019 0.68133259
-0.030436456 -0.044484019 0.68133259
-0.016400574 -0.0093717575 0.68143368
-0.02116029 -0.0082289875 0.68192881
-0.0083263563 -0.013084263 0.68360764
-0.0060046655 -0.022817731 0.68499023
0.0023872128 0.0095488429 0.68410581
-0.032435622 -0.044448793 0.68503684
-0.0048590344 -0.021865636 0.6866591
0.0024209858 0.012104928 0.68614417
-0.029247049 -0.042651951 0.68712604
-0.034263596 -0.041605771 0.68773836
-0.031795703 -0.041578978 0.68764329
0.0036744897 0.013473153 0.68787479
-0.035693318 -0.0381549 0.68859589
-0.039298732 -0.036842525 0.68826777
-0.03963691 -0.032204986 0.68954349
-0.036250863 -0.036250859 0.69091672
-0.0062262495 -0.012452483 0.69033974
-0.0062262495 -0.012452483 0.69033974
0.0062270304 0.014944881 0.69035852
-0.013822432 -0.0050263107 0.69170797
0.0037551282 0.017523944 0.69111949
-0.002523958 -0.012619764 0.69235915
-0.0050868052 -0.0089018941 0.69353271
-0.015294843 -0.0012745559 0.69387901
0.010182853 0.016547143 0.69367218
0.0076196673 0.017779261 0.69332063
0.0012807858 -0.012807876 0.69462931
0.0039395336 -0.0091921985 0.69853932
0.0026292372 -0.0078876913 0.6987133
0.0013237084 -0.0052947998 0.6998105
-0.0026361791 -0.0026361644 0.6991322
-0.009335272 0.0040008426 0.70100582
0.0081736678 -0.0068114102 0.70446628
0.0054670521 -0.0013667643 0.70500767
0.012305756 -2.9802322e-08 0.70507324
0.012328023 0.0013697743 0.70537192
0.005494717 0.0027473569 0.70584249
0.005494717 0.0027473569 0.70584249
0.015668586 -0.0014243722 0.71196711
0.012830218 -0.011404634 0.71210742
0.019998403 -0.0042853355 0.7124548
0.014316473 0.021474749 0.71283984
0.018788926 0.0043359399 0.71448815
-0.0057775551 0.017332703 0.71437788
0.013033523 0.021722585 0.71483427
-0.016001487 0.010182798 0.71562022
0.011598405 0.010148615 0.71503121
-0.0029148648 0.017489225 0.7159524
0 0.020345867 0.71545064
-0.0014598449 0.021897703 0.71624362
0.011727093 0.024920076 0.71697295
-0.01768907 0.013266832 0.71796304
-0.0044446494 0.022223294 0.71886361
-0.0073917066 0.023653477 0.71847636
0.024121752 0.015076101 0.7220093
0.009060517 0.028691649 0.72230834
0.01823627 0.028874099 0.72346741
0.022924978 0.012226641 0.72451073
0.029135445 0.0092006922 0.72512788
0.023731539 0.034806281 0.73100144
0.035334766 0.012849033 0.73390126
0.035334766 0.012849033 0.73390126
0.027259156 0.022448719 0.7335819
0.025718817 0.020896554 0.73405826
0.022587873 0.040335506 0.73478168
0.032441322 0.01784274 0.73582542
0.012969929 0.034046084 0.73572588
0.010030818 0.041795075 0.74182928
0.013517309 0.042241633 0.74398518
-0.023194423 -0.034619153 0.66538852
-0.033340018 -0.026046872 0.66579026
-0.033340018 -0.026046872 0.66579026
-0.01922125 -0.035299253 0.66659051
-0.019430026 -0.028884649 0.66681576
-0.018087525 -0.036707789 0.66845757
-0.018087525 -0.036707789 0.66845757
-0.021092184 -0.021091949 0.66948771
-0.021092184 -0.021091949 0.66948771
-0.015269389 -0.028902635 0.67168033
-0.035084218 -0.018351167 0.67032969
-0.019494291 -0.017286709 0.67322481
-0.02301402 -0.013471827 0.6755408
-0.011359617 -0.026695311 0.67714745
-0.013694284 -0.015976638 0.6777786
-0.029005423 -0.012511745 0.67732489
-0.012651486 -0.034504026 0.67885828
-0.010346374 -0.021267131 0.67879343
-0.014609518 -0.010519579 0.68111658
-0.014609518 -0.010519579 0.68111658
-0.026981186 -0.0093847811 0.6816299
-0.029104207 -0.045140013 0.68341649
-0.042547151 -0.039001524 0.68268853
-0.008267995 -0.027166247 0.68260121
-0.007141131 -0.024993926 0.68369323
0.00039427157 0.0051284237 0.68291157
-0.029371198 -0.044355765 0.68473327
-0.037976552 -0.039201617 0.68790138
-0.025558181 -0.0060852766 0.6869365
-0.018776329 -0.0048454404 0.68624938
-0.015758038 -0.0048486292 0.68634498
0.0086419554 0.011111081 0.6890499
0.0086419554 0.011111081 0.6890499
-0.002523958 -0.012619764 0.69235915
-0.01889318 -0.0012595356 0.6920653
0 -0.019241512 0.69486845
-0.0051297448 -0.0070515722 0.69482851
-0.0051297448 -0.0070515722 0.69482851
-0.012769403 -0.0025538504 0.69416511
-0.01160962 -0.0012899637 0.69573641
-0.010361359 -0.0012951493 0.69636559
0.00065803382 -0.0065650344 0.69851899
-0.015124817 0.0039452165 0.69876707
0.0026912875 -0.0026912987 0.70245832
0.010874094 2.9802322e-08 0.70410216
0.005494717 0.0027473569 0.70584249
0.013863951 -0.0069319308 0.70737743
0.011331586 -0.0092092454 0.71100515
0.014920126 -0.0014207512 0.71152949
0.010506608 -0.01098604 0.71298254
0.015869081 0.001442641 0.7141673
0.018774558 0.0086651742 0.71435469
-0.016001487 0.010182798 0.71562022
-0.0029148648 0.017489225 0.7159524
0.019053632 0.023450613 0.71694607
0.010968542 0.024857894 0.7165314
0.019341627 0.026780695 0.71962023
0.0076182708 0.027425796 0.72394609
0.0076182708 0.027425796 0.72394609
0.027485382 0.0068717599 0.7243458
0.020019239 0.030798852 0.72591215
0.00077762851 0.029477596 0.72730142
0.025069714 0.024536064 0.73319572
0.030320598 0.03510806 0.73265737
0.029166417 0.030786783 0.73561907
0.014940914 0.038182378 0.74041677
-0.028968913 -0.0289689 0.66491246
-0.015272531 -0.029999882 0.67170739
-0.025916293 -0.017929381 0.67020559
-0.022553962 -0.018323246 0.6709339
-0.019595934 -0.019595921 0.67143804
-0.043247074 -0.027171016 0.67388076
-0.043247074 -0.027171016 0.67388076
-0.016821543 -0.021210711 0.67245853
-0.043572053 -0.029818108 0.67843568
-0.011081505 -0.02961969 0.67843437
-0.010543241 -0.022243429 0.67843693
-0.017871127 -0.01124157 0.67921305
-0.017871127 -0.01124157 0.67921305
-0.040507585 -0.033755824 0.68819749
-0.0035029054 -0.0019093379 0.69388497
-0.003214878 1.4901161e-08 0.69532299
0.0025057355 -0.0099958461 0.69742107
-0.019335315 0.0027622283 0.70673752
0.010137819 0.0012100472 0.70446175
-0.013055454 0.0082425028 0.70585084
0.010543711 -0.0087856948 0.70963168
0.013900409 -0.013904075 0.71360606
0.017719632 0.0090974178 0.71342802
-0.009556097 0.018164104 0.71310747
0.0087079601 0.024672598 0.71521538
-0.0095512737 0.022032812 0.71733093
0.0073119737 0.02486071 0.71655142
0.020790987 0.025246203 0.71928859
0.029783946 0.0064200214 0.72596014
0.022143144 0.010689288 0.72435462
0.020181756 0.032601297 0.72742116
0.024780186 0.032524019 0.72697675
0.029911781 0.018014133 0.7341457
0.024335647 0.040559411 0.73586291
0.014651326 0.035814375 0.73653275
0.029308558 0.039078087 0.73657233
