# .PCD v0.7 - Point Cloud Data file format
VERSION 0.7
FIELDS x y z
SIZE 4 4 4
TYPE F F F
COUNT 1 1 1
WIDTH 1316
HEIGHT 1
VIEWPOINT 0 0 0 1 0 0 0
POINTS 1316
DATA ascii
-0.023285734 -0.0010124147 0.66223502
-0.022906698 -0.001991868 0.66024578
-0.022579674 -0.0029451549 0.6585294
-0.022365207 -0.0038896203 0.65740383
-0.022236208 -0.0048339367 0.65672684
-0.022154471 -0.0057794154 0.6562978
-0.022107527 -0.0067283511 0.65605146
-0.022101291 -0.0076873899 0.65601873
-0.022128033 -0.0086587965 0.65615904
-0.022182204 -0.0096443892 0.65644342
-0.028750686 -0.013750315 0.69091672
-0.028591257 -0.014917135 0.69007999
-0.028915459 -0.016343504 0.69178146
-0.028771697 -0.017513216 0.69102699
-0.028575514 -0.018636167 0.68999738
-0.027933687 -0.019432127 0.68662888
-0.027825149 -0.020566404 0.68605924
-0.027946288 -0.021870971 0.68669498
-0.027720334 -0.022899389 0.68550909
-0.027456155 -0.023874909 0.68412262
-0.026663246 -0.024344712 0.6799612
-0.026585015 -0.0254291 0.67955065
-0.026533909 -0.026533902 0.67928243
-0.026212081 -0.027351737 0.67759335
-0.025339106 -0.027542502 0.67301178
-0.025220359 -0.028509945 0.67238849
-0.025036817 -0.029391021 0.67142522
-0.023417007 -0.02850762 0.66292405
-0.023499845 -0.029630214 0.66335875
-0.023647327 -0.030844331 0.66413277
-0.024908705 0.0033966601 0.67669499
-0.023876676 0.0021705925 0.67103249
-0.023250815 0.0010568798 0.66759843
-0.022761086 -0 0.66491139
-0.022359895 -0.0010163486 0.66271013
-0.022013286 -0.0020011961 0.66080832
-0.021710197 -0.0029604733 0.6591453
-0.021461155 -0.0039020181 0.65777886
-0.021302965 -0.0048415661 0.6569109
-0.021202989 -0.0057826042 0.65636235
-0.021141008 -0.006726712 0.65602231
-0.021105694 -0.0076747835 0.65582848
-0.021104587 -0.008633703 0.65582246
-0.021131892 -0.0096054077 0.65597224
-0.021181721 -0.010590881 0.65624565
-0.027949404 -0.01524514 0.69337893
-0.027915008 -0.016495228 0.69319022
-0.027753359 -0.017661214 0.6923033
-0.027160816 -0.018518716 0.68905205
-0.026935149 -0.019589186 0.68781388
-0.027069828 -0.020917594 0.6885528
-0.026914285 -0.022020757 0.68769944
-0.02666261 -0.023026794 0.68631852
-0.025880702 -0.02352789 0.68202823
-0.025733463 -0.02456373 0.68122041
-0.02573017 -0.025730133 0.68120229
-0.025460565 -0.026617825 0.67972296
-0.024472669 -0.026697427 0.67430258
-0.024277739 -0.027588308 0.67323303
-0.024196973 -0.028596461 0.67278993
-0.022448605 -0.027550548 0.66319686
-0.022289937 -0.02836898 0.66232628
-0.022381499 -0.029502839 0.66282868
-0.022544403 -0.030742347 0.66372252
-0.023559088 0.0033656061 0.67544544
-0.022776576 0.0021692216 0.67094743
-0.02224111 0.0010591149 0.66786951
-0.021809025 2.9802322e-08 0.66538578
-0.021443833 -0.0010211468 0.66328669
-0.021127 -0.002012074 0.66146541
-0.020846575 -0.0029780567 0.65985358
-0.020594634 -0.0039227605 0.6584053
-0.020396546 -0.0048562884 0.65726668
-0.020275151 -0.005792886 0.65656894
-0.020196809 -0.0067322552 0.65611857
-0.02014629 -0.0076747537 0.65582818
-0.020117408 -0.0086216927 0.65566212
-0.020119738 -0.0095808208 0.65567553
-0.020142619 -0.010550857 0.65580708
-0.020184629 -0.011534065 0.6560486
-0.020243708 -0.012531817 0.65638816
-0.026554121 -0.017702729 0.69266123
-0.026067104 -0.018619329 0.68986177
-0.026090872 -0.019878745 0.68999839
-0.026082478 -0.021114379 0.68995017
-0.025835996 -0.022145152 0.68853343
-0.025109813 -0.02271837 0.68435919
-0.024885533 -0.023700446 0.68306994
-0.024885703 -0.024885684 0.6830709
-0.024685334 -0.025860816 0.68191922
-0.023741601 -0.026002675 0.67649448
-0.023482589 -0.02683723 0.67500567
-0.023405684 -0.02786389 0.67456365
-0.023150237 -0.028662205 0.67309529
-0.021109093 -0.02714026 0.66136253
-0.021184472 -0.028245926 0.66179579
-0.021295387 -0.029407918 0.66243339
-0.021499304 -0.03071326 0.66360551
-0.023432236 0.004686445 0.68145078
-0.022334326 0.0033501387 0.67482436
-0.021713868 0.002171427 0.67107952
-0.021240082 0.0010620356 0.66821998
-0.020852268 -0 0.66587937
-0.020520631 -0.0010260046 0.66387773
-0.020230956 -0.0020230711 0.66212934
-0.019975208 -0.0029962659 0.66058576
-0.019745011 -0.0039489865 0.65919644
-0.019535424 -0.004883796 0.65793145
-0.019374268 -0.0058122575 0.65695882
-0.019276246 -0.0067466497 0.65636718
-0.019209588 -0.0076838136 0.65596491
-0.019166304 -0.0086248219 0.65570366
-0.019146344 -0.0095731616 0.65558314
-0.019146502 -0.010530591 0.6555841
-0.019159487 -0.01149568 0.65566248
-0.019199027 -0.012479335 0.65590113
-0.01924699 -0.013472915 0.65619063
-0.019303447 -0.014477581 0.65653133
-0.02520059 -0.020160437 0.69212377
-0.024984147 -0.021236509 0.69081748
-0.024709912 -0.02223891 0.68916237
-0.024024226 -0.022822976 0.68502373
-0.023995109 -0.023995101 0.68484807
-0.023878118 -0.025072008 0.68414187
-0.023551673 -0.025906831 0.6821717
-0.022683598 -0.026086152 0.67693239
-0.022586649 -0.027103961 0.6763472
-0.019886494 -0.024858087 0.66005039
-0.019946713 -0.025930703 0.6604138
-0.020016344 -0.027022064 0.66083407
-0.020103317 -0.028144628 0.66135901
-0.020240914 -0.029349327 0.66218948
-0.02050749 -0.030761212 0.66379839
-0.021974765 0.0046263039 0.67963469
-0.021192614 0.0033462048 0.67466557
-0.020669572 0.0021757185 0.67134261
-0.020254094 0.0010659993 0.66870296
-0.01990504 -0 0.66648531
-0.01960331 -0.0010317266 0.66456842
-0.019337175 -0.0020354986 0.66287756
-0.019098923 -0.0030156076 0.6613639
-0.018884061 -0.0039755702 0.65999883
-0.018693229 -0.0049192607 0.65878642
-0.018518049 -0.0058477819 0.65767348
-0.018381879 -0.0067722499 0.65680844
-0.018298527 -0.0077046454 0.65627885
-0.018240839 -0.0086403787 0.65591234
-0.018200159 -0.0095790327 0.65565389
-0.018187273 -0.010529488 0.65557206
-0.018182615 -0.011483759 0.65554243
-0.018197449 -0.012450874 0.65563673
-0.018221406 -0.013426274 0.65578884
-0.018262638 -0.014417857 0.65605086
-0.018307101 -0.015416503 0.65633333
-0.018360816 -0.016428053 0.65667456
-0.018414848 -0.017445624 0.65701783
-0.018469248 -0.018469244 0.65736347
-0.018524025 -0.019498944 0.65771145
-0.018579021 -0.020534724 0.65806091
-0.018634345 -0.021576613 0.65841234
-0.018690001 -0.022624731 0.65876597
-0.018746043 -0.023679197 0.65912199
-0.018803654 -0.02474162 0.65948796
-0.018873321 -0.025826663 0.65993059
-0.018954761 -0.026935697 0.66044807
-0.019067867 -0.028099984 0.66116655
-0.019239292 -0.029365242 0.6622557
-0.022015819 0.006115526 0.68766612
-0.020704214 0.0046009421 0.67887026
-0.020090694 0.0033484697 0.67475593
-0.019636231 0.002181828 0.67170823
-0.019264746 0.0010702908 0.66921705
-0.018950077 2.9802322e-08 0.66710687
-0.018675756 -0.0010375082 0.66526711
-0.018434275 -0.002048254 0.66364777
-0.018217672 -0.0030362606 0.66219521
-0.018020939 -0.0040046275 0.6608758
-0.017841173 -0.0049558878 0.65967035
-0.017680388 -0.0058934391 0.6585921
-0.017533874 -0.0068187118 0.65760952
-0.017416934 -0.0077408254 0.6568253
-0.017340541 -0.0086702406 0.656313
-0.017285334 -0.0096029341 0.65594274
-0.017255718 -0.010545164 0.65574419
-0.017239166 -0.011492759 0.65563321
-0.017237598 -0.012449384 0.65562266
-0.01724506 -0.013412803 0.65567267
-0.017267009 -0.014389157 0.65581989
-0.017292932 -0.015371501 0.6559937
-0.017331796 -0.016368896 0.65625435
-0.017376287 -0.017376274 0.65655273
-0.017422901 -0.018390805 0.6568653
-0.017471718 -0.019413024 0.65719271
-0.017523019 -0.020443499 0.65753675
-0.017576892 -0.021482825 0.65789801
-0.017633284 -0.02253142 0.6582762
-0.017692242 -0.023589671 0.65867162
-0.017756332 -0.024661541 0.65910137
-0.017841732 -0.02577135 0.65967405
-0.017939836 -0.026909709 0.66033196
-0.018081738 -0.028127134 0.66128355
-0.018314602 -0.029506832 0.66284519
-0.020294724 0.0059690475 0.68413007
-0.019516444 0.0045921206 0.67860377
-0.019010449 0.0033547878 0.67501086
-0.018614817 0.0021899641 0.67220163
-0.018284312 0.0010755658 0.66985488
-0.01799977 -0 0.6678344
-0.017749619 -0.0010440946 0.66605818
-0.017526481 -0.0020619035 0.66447377
-0.017324874 -0.0030573308 0.66304225
-0.017146299 -0.0040344 0.66177422
-0.016983807 -0.0049952269 0.66062045
-0.016833911 -0.005941391 0.65955609
-0.016698239 -0.0068757236 0.65859276
-0.016576266 -0.0078005791 0.65772665
-0.016471893 -0.0087203681 0.65698552
-0.016397543 -0.0096455812 0.6564576
-0.016351473 -0.010580331 0.65613043
-0.016322825 -0.011521965 0.65592706
-0.016307414 -0.012470335 0.65581763
-0.016304668 -0.013427377 0.65579814
-0.016313944 -0.014394641 0.655864
-0.01632675 -0.015366316 0.65595496
-0.016352061 -0.016352028 0.65613467
-0.016385127 -0.017348945 0.65636945
-0.016422069 -0.018354058 0.65663177
-0.016463768 -0.019369125 0.65692788
-0.016511029 -0.020395964 0.6572634
-0.016563995 -0.021435738 0.6576395
-0.016622212 -0.022488862 0.65805292
-0.016686682 -0.023557663 0.65851068
-0.016760971 -0.024648488 0.65903819
-0.016857691 -0.025782347 0.65972495
-0.016975364 -0.02696085 0.66056049
-0.01715875 -0.028261423 0.66186261
-0.018987797 0.005933702 0.68327665
-0.018373942 0.0045934916 0.67864543
-0.017942714 0.0033642948 0.67539209
-0.017590728 0.002198875 0.67273653
-0.017295491 0.0010810196 0.67050916
-0.017038517 2.9802322e-08 0.66857046
-0.016813083 -0.0010508001 0.66686964
-0.016611435 -0.0020763874 0.66534835
-0.016428826 -0.003080368 0.66397065
-0.01626298 -0.0040657222 0.66271943
-0.016112717 -0.0050352216 0.66158581
-0.015978375 -0.0059918761 0.66057229
-0.015853891 -0.0069360733 0.65963316
-0.015740285 -0.0078701079 0.65877604
-0.015640078 -0.0087975264 0.65802002
-0.015546831 -0.0097167194 0.65731657
-0.015479476 -0.010642111 0.65680838
-0.015434054 -0.01157552 0.65646565
-0.015406082 -0.012517452 0.65625471
-0.015391538 -0.01346758 0.65614492
-0.015391538 -0.014429539 0.65614498
-0.015395503 -0.015395492 0.6561749
-0.01541078 -0.016373932 0.65629011
-0.015435467 -0.01736486 0.65647638
-0.015465869 -0.018365681 0.65670574
-0.015502353 -0.019377947 0.65698099
-0.015546267 -0.020404458 0.65731227
-0.015598259 -0.021447599 0.65770453
-0.015657565 -0.022507727 0.65815198
-0.015726171 -0.023589224 0.65866953
-0.015811328 -0.024705142 0.65931201
-0.015922409 -0.025873899 0.66015005
-0.016083444 -0.027140796 0.66136497
-0.018518081 0.0074072182 0.6890468
-0.017739322 0.0059131682 0.68277979
-0.017255912 0.0046015978 0.67888957
-0.016884178 0.0033768415 0.67589813
-0.016574798 0.002210021 0.67340845
-0.016309811 0.0010873377 0.67127597
-0.016077677 -0 0.6694079
-0.015871365 -0.0010580719 0.66774762
-0.015685184 -0.0020913482 0.66624933
-0.015519476 -0.0031038821 0.66491586
-0.015370775 -0.0040988624 0.66371924
-0.015234021 -0.0050780177 0.6626187
-0.015108299 -0.0060432851 0.66160697
-0.0149977 -0.0069989264 0.66071695
-0.014895731 -0.0079443753 0.65989631
-0.014801819 -0.0088810623 0.65914059
-0.014720965 -0.0098139644 0.65848994
-0.014646422 -0.010740697 0.65789008
-0.014580945 -0.011664748 0.65736312
-0.01453897 -0.012600422 0.65702534
-0.014508657 -0.01354143 0.65678144
-0.014497196 -0.014497221 0.65668917
-0.014494011 -0.015460253 0.65666354
-0.014500786 -0.016434222 0.65671802
-0.014518397 -0.01742208 0.65685982
-0.014543839 -0.018422186 0.65706456
-0.01457703 -0.019436032 0.65733165
-0.014618816 -0.020466328 0.65766788
-0.014671364 -0.021517992 0.65809077
-0.014733491 -0.022591323 0.65859079
-0.014808127 -0.023692966 0.65919131
-0.01491709 -0.024861813 0.66006821
-0.015070381 -0.026121974 0.66130179
-0.01715905 0.0073538721 0.68797338
-0.016556364 0.0059129894 0.68277693
-0.016151665 0.0046147406 0.67928755
-0.01582377 0.0033908188 0.67646039
-0.015549821 0.0022213757 0.67409831
-0.015312574 0.001093775 0.67205268
-0.015105172 2.9802322e-08 0.67026442
-0.014920271 -0.001065731 0.66867018
-0.014753074 -0.0021075606 0.66722858
-0.014602285 -0.0031290352 0.66592848
-0.014465806 -0.0041330755 0.66475171
-0.01434242 -0.0051222742 0.66368783
-0.014230439 -0.0060987175 0.66272235
-0.014127492 -0.0070637465 0.66183472
-0.014036871 -0.0080210567 0.66105336
-0.013954528 -0.0089707673 0.66034341
-0.013878685 -0.0099133253 0.65968943
-0.013815423 -0.010854959 0.65914398
-0.013758375 -0.011792898 0.65865213
-0.013708361 -0.012729168 0.65822089
-0.013670186 -0.013670146 0.65789169
-0.013642544 -0.014616996 0.65765339
-0.013628326 -0.01557523 0.65753078
-0.013625768 -0.016545534 0.65750873
-0.013634247 -0.017529726 0.65758181
-0.01365706 -0.018534571 0.65777856
-0.01368838 -0.019554794 0.65804857
-0.013731695 -0.020597488 0.65842205
-0.013786215 -0.021664023 0.65889215
-0.013860416 -0.022770643 0.65953189
-0.013973126 -0.023953915 0.66050369
-0.01417186 -0.025306851 0.66221726
-0.014726367 -0.027348995 0.66699833
-0.019320697 0.014862061 0.71942592
-0.019341543 0.013390303 0.71961939
-0.019400939 0.011939049 0.72017097
-0.016649356 0.0089650452 0.69462132
-0.015854049 0.0073172748 0.68723655
-0.01539761 0.0059221387 0.6829983
-0.015053906 0.0046319962 0.67980689
-0.014769214 0.0034083128 0.67716336
-0.01452637 0.0022348464 0.67490846
-0.014314433 0.0011011064 0.67294055
-0.01412677 2.9802322e-08 0.67119801
-0.013957753 -0.0010736585 0.66962862
-0.013807066 -0.0021241605 0.66822934
-0.013672621 -0.0031551719 0.66698098
-0.013550031 -0.0041692257 0.66584271
-0.013437249 -0.0051681399 0.66479546
-0.013336836 -0.0061554313 0.66386306
-0.013246957 -0.0071329474 0.66302854
-0.013163765 -0.0081007779 0.66225606
-0.013090786 -0.0090628266 0.66157842
-0.01302657 -0.010020405 0.66098213
-0.012968229 -0.010973096 0.66044039
-0.012920415 -0.011926562 0.65999651
-0.012880295 -0.012880266 0.65962386
-0.012846448 -0.013834625 0.65930969
-0.012823909 -0.014796793 0.65910041
-0.012810162 -0.015766382 0.65897274
-0.012804788 -0.016744733 0.65892279
-0.01281078 -0.017737985 0.65897846
-0.012831924 -0.018754333 0.65917474
-0.01286749 -0.019796133 0.65950501
-0.012921783 -0.020873636 0.66000915
-0.013001936 -0.022003263 0.66075337
-0.013119948 -0.023212165 0.6618492
-0.01330627 -0.024565399 0.66357929
-0.013719297 -0.026383251 0.66741443
-0.017702438 0.016227275 0.71809751
-0.017732099 0.014776766 0.71839589
-0.017779052 0.013334274 0.71886826
-0.017826254 0.011884183 0.71934301
-0.015206322 0.0088703334 0.69298851
-0.014773941 0.0073869824 0.68863916
-0.014255114 0.0059396327 0.68342018
-0.013954789 0.0046516359 0.68039912
-0.013705402 0.0034263432 0.67789048
-0.013490736 0.002248466 0.67573106
-0.013303286 0.0011086166 0.67384553
-0.013137097 -0 0.67217374
-0.01298685 -0.0010822117 0.6706624
-0.012852348 -0.0021420419 0.66930944
-0.012730819 -0.0031827092 0.66808695
-0.012619697 -0.004206568 0.66696912
-0.012520904 -0.0052170157 0.66597533
-0.012430868 -0.0062153935 0.66506964
-0.012349063 -0.0072036088 0.66424674
-0.0122779 -0.0081852078 0.66353089
-0.012213024 -0.0091597438 0.66287827
-0.012155843 -0.010129869 0.66230309
-0.0121084 -0.011099368 0.6618259
-0.012066841 -0.012066811 0.66140783
-0.012033341 -0.013036072 0.66107082
-0.012009946 -0.014011592 0.6608355
-0.011993606 -0.014991969 0.66067111
-0.011985332 -0.015980422 0.66058791
-0.011990812 -0.016986996 0.66064304
-0.012007593 -0.018011391 0.66081178
-0.012037753 -0.019059747 0.66111523
-0.012084957 -0.020141572 0.66159004
-0.012156233 -0.021273375 0.66230702
-0.012262482 -0.022481233 0.66337585
-0.01242372 -0.023812115 0.6649977
-0.012761952 -0.025523901 0.66840005
-0.016337659 0.016337693 0.71930927
-0.016195606 0.014723301 0.71775043
-0.01622951 0.013278723 0.71812248
-0.016272418 0.011834472 0.71859336
-0.013851485 0.0088145733 0.69202673
-0.013666989 0.0074547529 0.6900022
-0.01311521 0.005961448 0.68394709
-0.012858983 0.0046760142 0.68113536
-0.01264136 0.0034476519 0.67874724
-0.012452283 0.0022640824 0.67667234
-0.012285341 0.0011168718 0.67484039
-0.012135401 -0 0.673195
-0.012001917 -0.001091063 0.67173016
-0.011883663 -0.0021606684 0.67043251
-0.011775041 -0.0032113791 0.66924047
-0.011676656 -0.0042460561 0.66816086
-0.011587555 -0.0052670538 0.6671831
-0.011509672 -0.0062779784 0.66632843
-0.011438441 -0.0072789788 0.66554672
-0.011373499 -0.0082716048 0.66483414
-0.011319472 -0.0092613995 0.66424119
-0.011271237 -0.010246575 0.66371191
-0.011228754 -0.01122874 0.66324574
-0.01119711 -0.012215018 0.66289842
-0.011171942 -0.013203204 0.66262227
-0.011153392 -0.014195234 0.66241872
-0.011145391 -0.015198231 0.66233087
-0.011147536 -0.016214609 0.66235447
-0.011160263 -0.017247647 0.66249412
-0.011185313 -0.018303245 0.66276902
-0.011225753 -0.019389927 0.66321278
-0.011288481 -0.020524502 0.66390109
-0.011383221 -0.021731585 0.66494071
-0.011527828 -0.023055643 0.66652763
-0.011801763 -0.024676383 0.66953373
-0.014997683 0.016497463 0.72106278
-0.014753973 0.014754027 0.71812093
-0.014692896 0.013223618 0.71738374
-0.013108148 0.010486543 0.69825411
-0.012674015 0.0088718534 0.69301361
-0.01253959 0.0075237751 0.69139099
-0.011974772 0.0059874058 0.68457305
-0.011753649 0.0047014952 0.68190384
-0.011564665 0.0034694076 0.67962259
-0.011399548 0.0022799373 0.67762947
-0.011254041 0.0011254251 0.67587304
-0.011122623 -0 0.67428672
-0.011005871 -0.00110057 0.67287737
-0.010900496 -0.0021800995 0.67160535
-0.010803598 -0.0032410622 0.67043573
-0.010718253 -0.0042873025 0.66940552
-0.01064167 -0.0053208172 0.66848105
-0.010571285 -0.0063427687 0.66763145
-0.010509989 -0.0073569715 0.66689152
-0.010456128 -0.0083649158 0.66624141
-0.01040774 -0.0093669295 0.66565728
-0.010367742 -0.010367721 0.66517448
-0.010335239 -0.011368752 0.66478217
-0.010308746 -0.012370467 0.66446233
-0.010290063 -0.013377041 0.66423678
-0.01028099 -0.014393359 0.66412729
-0.010280017 -0.01542002 0.66411555
-0.010289026 -0.016462445 0.66422433
-0.010310459 -0.017527759 0.66448295
-0.010344777 -0.01862061 0.66489732
-0.010398925 -0.019757956 0.66555095
-0.010481235 -0.020962447 0.66654444
-0.010609729 -0.022280425 0.66809547
-0.010841216 -0.02385065 0.67088979
-0.013032654 0.018824965 0.71482259
-0.01306647 0.017421991 0.71527618
-0.013112107 0.016025931 0.71588826
-0.013134631 0.014594048 0.71619034
-0.013168979 0.013168991 0.71665102
-0.011718292 0.010416269 0.69719398
-0.01151434 0.0089555979 0.69445848
-0.011391074 0.0075940788 0.69280523
-0.010835849 0.0060199201 0.68535841
-0.010645949 0.0047315359 0.68281138
-0.01048258 0.0034942031 0.68062025
-0.010338861 0.0022975206 0.6786927
-0.010209918 0.0011344552 0.67696321
-0.010095611 2.9802322e-08 0.67543012
-0.009995196 -0.0011105239 0.67408323
-0.0099015515 -0.0022003353 0.6728273
-0.0098184543 -0.0032728314 0.67171288
-0.0097438097 -0.0043305755 0.67071164
-0.0096766045 -0.0053758621 0.66981024
-0.00961765 -0.0064117312 0.66901958
-0.0095645264 -0.0074390769 0.66830707
-0.0095178047 -0.0084602535 0.66768038
-0.0094794622 -0.0094794631 0.66716611
-0.0094465315 -0.01049614 0.66672444
-0.0094194161 -0.011512607 0.66636074
-0.009401802 -0.012535721 0.66612452
-0.0093907909 -0.013564467 0.66597682
-0.0093871262 -0.014602184 0.66592771
-0.0093928222 -0.015654683 0.66600406
-0.0094117336 -0.016731977 0.66625774
-0.0094415117 -0.017833948 0.66665709
-0.0094879745 -0.018975914 0.66728032
-0.0095578907 -0.020177752 0.66821802
-0.0096685868 -0.021485746 0.66970271
-0.0098603722 -0.023007512 0.67227501
-0.011527652 0.020173401 0.71396363
-0.011537365 0.018748224 0.7141102
-0.011567179 0.017350793 0.71456003
-0.011597147 0.01594609 0.71501219
-0.011627271 0.014534086 0.71546674
-0.010867207 0.012225628 0.70399827
-0.010446715 0.010446727 0.69765353
-0.01033259 0.0090410411 0.69593149
-0.010220931 0.0076657236 0.69424671
-0.01011166 0.0063197911 0.69259793
-0.0095248679 0.0047624409 0.68374395
-0.0093850149 0.0035193861 0.68163371
-0.0092625525 0.0023156703 0.67978585
-0.0091522466 0.0011440217 0.67812151
-0.0090551134 -0 0.67665589
-0.0089667551 -0.0011208355 0.67532265
-0.0088862935 -0.0022215843 0.67410856
-0.0088148871 -0.0033055544 0.67303109
-0.0087521365 -0.004376024 0.67208427
-0.0086950017 -0.0054343939 0.67122221
-0.0086432286 -0.0064824522 0.67044103
-0.0086003616 -0.007525295 0.6697942
-0.0085624792 -0.0085624754 0.66922259
-0.0085297152 -0.0095959306 0.66872823
-0.008504767 -0.010630965 0.66835177
-0.008486202 -0.011668533 0.66807169
-0.0084736822 -0.012710512 0.66788274
-0.0084682349 -0.013760865 0.66780055
-0.0084720552 -0.014826089 0.66785824
-0.0084870057 -0.015913099 0.66808379
-0.0085124234 -0.017024815 0.66846728
-0.0085516786 -0.018172294 0.66905963
-0.008612032 -0.019377083 0.66997027
-0.0087039322 -0.020671844 0.67135698
-0.0088647846 -0.022161931 0.67378402
-0.010033686 0.020067394 0.71304947
-0.010054258 0.018672198 0.71340424
-0.010080134 0.017280251 0.71385044
-0.010106142 0.015881091 0.71429896
-0.010131568 0.014473677 0.71473742
-0.0094349636 0.012130678 0.70272481
-0.0092298482 0.010548413 0.69918782
-0.0091280453 0.0091280639 0.69743228
-0.0090284646 0.0077387094 0.69571507
-0.0089310333 0.0063793361 0.69403493
-0.0088356817 0.0050489902 0.69239068
-0.0082778996 0.0035476983 0.68277204
-0.0081722662 0.0023349524 0.68095046
-0.0080793202 0.0011542141 0.67934763
-0.0079979198 -0 0.67794394
-0.0079210829 -0.0011315942 0.67661893
-0.0078542978 -0.0022440553 0.67546725
-0.0077948687 -0.0033406317 0.67444241
-0.0077403211 -0.0044230521 0.67350185
-0.0076932656 -0.005495131 0.67269039
-0.0076519996 -0.0065588355 0.67197871
-0.0076153441 -0.0076153278 0.67134666
-0.0075848284 -0.0086683631 0.67082047
-0.0075608031 -0.0097210407 0.67040616
-0.007541907 -0.010774136 0.6700803
-0.0075284843 -0.011830449 0.6698488
-0.0075226636 -0.012895972 0.66974843
-0.0075246417 -0.013974339 0.66978252
-0.0075356215 -0.015071243 0.66997194
-0.0075563635 -0.016192168 0.67032963
-0.0075888517 -0.017345935 0.67088985
-0.007640006 -0.0185543 0.67177194
-0.0077177989 -0.019845754 0.67311341
-0.0078510521 -0.021309942 0.67541134
-0.0086652525 0.020218939 0.71435612
-0.0085874777 0.018606216 0.71279144
-0.0086050937 0.017210186 0.71314585
-0.0086264219 0.015815109 0.71357495
-0.0084805172 0.014134198 0.71063954
-0.0080811866 0.012121767 0.70260566
-0.0079890592 0.010652095 0.7007522
-0.0079000862 0.0092167854 0.69896221
-0.0078130728 0.007813096 0.69721162
-0.0077279843 0.0064400136 0.69549978
-0.0076447017 0.0050964952 0.69382429
-0.0071529159 0.0035764575 0.68393034
-0.0070662675 0.0023554265 0.68218708
-0.0069907778 0.0011651516 0.68066835
-0.0069205794 2.9802322e-08 0.67925602
-0.0068580657 -0.0011430085 0.67799836
-0.0068028364 -0.0022675991 0.67688727
-0.0067535397 -0.0033767521 0.67589545
-0.006710045 -0.0044733584 0.67502046
-0.00667114 -0.0055592954 0.67423773
-0.0066370745 -0.0066370666 0.67355239
-0.0066094683 -0.0077110529 0.672997
-0.0065861661 -0.0087815523 0.67252815
-0.006567514 -0.0098512471 0.67215294
-0.0065550832 -0.010925144 0.67190289
-0.0065485355 -0.012005657 0.67177111
-0.0065482473 -0.013096482 0.67176533
-0.0065560108 -0.014204651 0.67192149
-0.0065732086 -0.015337467 0.6722675
-0.0065982975 -0.016495734 0.67277229
-0.0066406471 -0.017708361 0.67362428
-0.0067059011 -0.019000053 0.67493707
-0.0068126847 -0.020438045 0.67708534
-0.0073891287 0.022167385 0.71841419
-0.0072979983 0.020434439 0.716214
-0.0072099855 0.018746018 0.71408921
-0.0071424334 0.017141849 0.71245837
-0.0071560843 0.015743434 0.71278787
-0.0069850683 0.013970137 0.70865917
-0.0068009915 0.012241781 0.70421523
-0.0067236363 0.010757834 0.70234764
-0.0066480218 0.0093072653 0.70052218
-0.0065741129 0.0078889728 0.69873786
-0.0065018055 0.0065018237 0.69699222
-0.0064310716 0.0051448643 0.69528455
-0.0063618594 0.0038171709 0.69361365
-0.0059430441 0.0023772418 0.6835025
-0.0058821966 0.0011764765 0.68203354
-0.0058247494 2.9802322e-08 0.68064666
-0.0057749706 -0.001154989 0.67944491
-0.0057313819 -0.0022925735 0.67839253
-0.0056917262 -0.0034150183 0.67743516
-0.0056561297 -0.0045248866 0.67657578
-0.0056267469 -0.0056267381 0.67586643
-0.0056011146 -0.0067213178 0.67524767
-0.0055793142 -0.0078110099 0.6747213
-0.00556238 -0.0088997781 0.67431247
-0.0055507929 -0.0099914074 0.67403275
-0.0055435314 -0.01108706 0.67385745
-0.0055415686 -0.012191445 0.67381006
-0.00554654 -0.013311714 0.67393011
-0.0055607422 -0.014457941 0.67427295
-0.0055792602 -0.015621901 0.67471999
-0.0056129312 -0.016838759 0.67553288
-0.0056658322 -0.01813066 0.67681003
-0.0057496857 -0.019548923 0.67883444
-0.0059540221 -0.021434456 0.68376756
-0.0059750122 0.02240631 0.72033662
-0.0059012887 0.020654529 0.71811187
-0.0058293627 0.018945456 0.71594137
-0.005691112 0.017073333 0.71176922
-0.0056993496 0.01567322 0.71201789
-0.0055679074 0.013919801 0.70805126
-0.005495999 0.012365997 0.70588124
-0.00543286 0.010865718 0.7039758
-0.0053711557 0.0093995333 0.70211375
-0.0053108372 0.00796628 0.70029348
-0.0052518579 0.0065648258 0.69851363
-0.0051941746 0.0051941574 0.69677287
-0.0051377444 0.0038533211 0.69506991
-0.0048015253 0.0024007559 0.68492365
-0.004751883 0.0011879802 0.68342555
-0.0047087865 2.9802322e-08 0.68212497
-0.0046709967 -0.0011677444 0.6809845
-0.0046363128 -0.0023181438 0.6799379
-0.0046067312 -0.0034550428 0.6790452
-0.0045807837 -0.0045807958 0.67826211
-0.0045580398 -0.0056975186 0.67757577
-0.0045389421 -0.0068084002 0.67699945
-0.0045245206 -0.007917881 0.67656422
-0.0045135156 -0.009027034 0.67623216
-0.0045062574 -0.010139048 0.67601311
-0.0045035272 -0.011258841 0.67593074
-0.0045060092 -0.012391508 0.6760056
-0.0045171096 -0.013551325 0.67634058
-0.0045313356 -0.014726818 0.67676991
-0.004556187 -0.015946627 0.6775198
-0.0045962958 -0.017236114 0.67873025
-0.0046609873 -0.018643945 0.68068248
-0.0048012263 -0.020405173 0.68491459
-0.004530672 0.022653401 0.72232491
-0.0044741612 0.020879447 0.72005111
-0.0044190241 0.019149125 0.71783257
-0.0042509101 0.017003655 0.71106821
-0.0042571947 0.015609741 0.71132106
-0.0042137085 0.014045715 0.70957124
-0.0041642361 0.012492716 0.70758069
-0.0041159121 0.010975748 0.70563632
-0.0040686973 0.0094936192 0.70373654
-0.0040225531 0.0080451071 0.7018798
-0.0039774436 0.0066291094 0.70006478
-0.0039333347 0.0052444637 0.69828993
-0.0036756687 0.0036756694 0.68792224
-0.0036370284 0.0024246871 0.68636751
-0.0036190851 0.001206398 0.68564546
-0.0035705655 -0 0.68369323
-0.0035429448 -0.0011809468 0.68258184
-0.0035187269 -0.0023458004 0.68160737
-0.0034972534 -0.0034972429 0.68074334
-0.0034785457 -0.004638046 0.67999065
-0.0034635896 -0.0057726204 0.67938882
-0.0034512507 -0.0069024861 0.67889237
-0.0034416222 -0.0080304444 0.67850494
-0.0034350103 -0.009160012 0.67823887
-0.0034322732 -0.010296792 0.67812878
-0.0034334038 -0.011444658 0.67817426
-0.0034408155 -0.012616277 0.67847246
-0.0034510107 -0.013804048 0.67888272
-0.0034685107 -0.015030205 0.67958683
-0.0034970539 -0.016319573 0.68073535
-0.0035438964 -0.017719477 0.68262011
-0.0036371807 -0.019398302 0.68637359
-0.0030943647 0.024754941 0.7267862
-0.0030541248 0.022905946 0.72435749
-0.0030155985 0.021109223 0.72203219
-0.0028346106 0.018425018 0.71110862
-0.0028226369 0.016935855 0.71038598
-0.0028296015 0.015562803 0.71080631
-0.0028282658 0.014141321 0.71072567
-0.0028048984 0.012622029 0.70931536
-0.002772016 0.011088073 0.7073307
-0.0027398954 0.0095896721 0.70539206
-0.002708511 0.0081255436 0.70349789
-0.0026778476 0.0066946149 0.70164716
-0.0025054947 0.0050109923 0.69124472
-0.0024753655 0.0037130713 0.6894263
-0.0024500398 0.0024500787 0.68789774
-0.002514852 0.0012574792 0.69180948
-0.0025385066 2.9802322e-08 0.69323719
-0.0025149612 -0.0012574792 0.69181609
-0.0023741478 -0.0023741424 0.68331718
-0.0023611926 -0.0035417378 0.68253529
-0.0023500542 -0.0047000945 0.68186307
-0.0023407533 -0.005851835 0.68130171
-0.0023333889 -0.0070001483 0.68085724
-0.00232876 -0.008150667 0.68057787
-0.0023261174 -0.0093044341 0.68041837
-0.0023261565 -0.010467678 0.6804207
-0.0023303218 -0.011651576 0.68067211
-0.0023372578 -0.012854874 0.68109071
-0.0023478549 -0.014087141 0.68173033
-0.0023660483 -0.01537931 0.68282843
-0.0023956478 -0.016769528 0.6846149
-0.0024524261 -0.018393189 0.68804181
-0.001565311 0.025044978 0.72897452
-0.0015446375 0.023169577 0.72647899
-0.0015231398 0.021323979 0.72388399
-0.0014066848 0.018286914 0.70982665
-0.0014057116 0.016868532 0.70970917
-0.0014092521 0.015501797 0.71013653
-0.00141273 0.014127314 0.71055639
-0.0014120468 0.012708426 0.7104739
-0.001400341 0.011202753 0.70906091
-0.0013839488 0.0096876621 0.70708215
-0.001367936 0.0082076192 0.70514929
-0.0013522896 0.0067614615 0.70326054
-0.0012641046 0.0050564408 0.69261569
-0.0012503987 0.0037512481 0.69096118
-0.0012569939 0.0025139749 0.69175732
-0.0012917802 0.0012918413 0.69595635
-0.0012825207 -0 0.6948387
-0.0012700281 -0.0012699962 0.69333065
-0.0012577809 -0.0025155246 0.69185239
-0.0012457633 -0.0037372708 0.69040167
-0.0011910411 -0.0047641397 0.68379617
-0.0011871996 -0.0059359968 0.68333244
-0.0011844396 -0.0071066022 0.68299925
-0.0011827222 -0.0082790554 0.68279195
-0.0011823438 -0.0094587207 0.68274629
-0.0011839714 -0.010655731 0.68294275
-0.0011875567 -0.01187557 0.68337554
-0.0011922345 -0.013114572 0.68394023
-0.0012010493 -0.014412582 0.68500423
-0.0012151239 -0.015796602 0.68670321
-0.0012747105 -0.017845958 0.69389594
0 0.025341928 0.73121476
0 0.023440748 0.72866088
0 0.021380365 0.72437048
0 0.018293798 0.7098906
0 0.016801894 0.70903838
0 0.015440345 0.7094624
0 0.014071971 0.70988852
0 0.012695879 0.71030569
0 0.011277318 0.71018618
0 0.0097876191 0.70880651
0 0.0082913935 0.70683432
0 0.0064609647 0.6960057
0 0.005109489 0.69421667
0 0.0037976503 0.69282919
0 0.0026214719 0.69824517
0 0.0013085902 0.69798416
0 -0 0.69641459
0 -0.0012828112 0.69487643
0 -0.0025406778 0.69336772
0 -0.0037741959 0.69188803
0 -0.0049841702 0.69043672
0 -0.0061712861 0.68901289
0 -0.0073361099 0.68761623
0 -0.0084793568 0.68624556
0 -0.009627223 0.68528843
0 -0.01086393 0.68573505
0 -0.012112081 0.68623072
0 -0.013416171 0.68725002
0 -0.014798701 0.68888861
0 -0.0167799 0.69583362
0.0016251461 0.027627528 0.73619723
0.0016028732 0.025645971 0.73350871
0.0015812098 0.023718178 0.73089367
0.0015104604 0.021146476 0.72235346
0.0014126783 0.018364817 0.71055013
0.0013946418 0.016735733 0.70837295
0.001398121 0.015379339 0.70879287
0.0014016232 0.014016241 0.70921564
0.0014051432 0.012646288 0.70964056
0.0014085894 0.011268705 0.71005654
0.0014077961 0.0098545849 0.70996082
0.001396138 0.0083768666 0.70855355
0.0013055303 0.0065276623 0.69761622
0.0012910507 0.005164206 0.69586837
0.0013129 0.0039387047 0.69850582
0.001333559 0.002667129 0.70099956
0.0013221721 0.00132218 0.69962507
0.0013089039 2.9802322e-08 0.69802344
0.0012958945 -0.0012958944 0.69645303
0.0012831412 -0.0025662482 0.69491363
0.0012706411 -0.0038119256 0.69340467
0.0012583777 -0.005033493 0.69192433
0.0012463487 -0.0062317252 0.69047236
0.0012345475 -0.007407248 0.68904781
0.0012239843 -0.0085678697 0.68777275
0.0012273046 -0.0098184049 0.68817353
0.001231153 -0.011080325 0.68863803
0.0012389936 -0.012389898 0.68958449
0.0012520883 -0.013772964 0.69116521
0.0012764619 -0.015317529 0.69410729
0.0014873907 -0.019336045 0.71956867
0.0032903193 0.027967721 0.73861313
0.0032446622 0.025957316 0.73585743
0.0024555372 0.018416554 0.6882295
0.0024605624 0.017223954 0.68853283
0.0024665273 0.016032457 0.68889284
0.0027783217 0.016669959 0.70771128
0.002785248 0.015318871 0.70812935
0.0027921975 0.013960987 0.70854878
0.0027991817 0.012596339 0.70897031
0.0028061897 0.011224777 0.70939326
0.0028130505 0.0098457038 0.7098074
0.0026704387 0.0080113411 0.70120001
0.0026393828 0.0065984428 0.69932568
0.0026257206 0.0052514672 0.69850099
0.0027172372 0.004075855 0.70402455
0.0026997668 0.0026997924 0.70297015
0.0026721125 0.0013360679 0.70130104
0.0026450085 -2.9802322e-08 0.69966519
0.002618449 -0.001309216 0.69806212
0.0025924272 -0.0025924146 0.6964916
0.002566908 -0.0038503408 0.69495136
0.0025418864 -0.0050837398 0.69344115
0.0025173479 -0.0062933564 0.69196016
0.002493565 -0.0074806809 0.69052476
0.0024959473 -0.0087357759 0.69066852
0.0025043571 -0.010017395 0.69117606
0.0025182329 -0.011332035 0.69201356
0.0026886116 -0.013443053 0.70229685
0.0026771771 -0.014724463 0.70160669
0.002954345 -0.017726064 0.71833521
0.0029621525 -0.019253969 0.71880651
0.0029701155 -0.020790786 0.71928704
0.0050743455 0.030446082 0.74420071
0.0049970169 0.028316408 0.74108922
0.0036596931 0.019518405 0.6872794
0.0036672892 0.018336445 0.68758512
0.0036749041 0.017149597 0.68789148
0.003682551 0.015957743 0.68819916
0.0036902425 0.014760971 0.68850863
0.0041615097 0.015258908 0.70747101
0.0041718525 0.013906181 0.70788717
0.0041822297 0.012546688 0.7083047
0.0041926759 0.01118046 0.70872498
0.004194363 0.0097868443 0.70879292
0.0040493044 0.0080986023 0.7029562
0.0040045502 0.0066742599 0.70115536
0.0041220319 0.0054960847 0.70588249
0.0041361633 0.0041361749 0.70645112
0.0040930603 0.0027287304 0.70471674
0.0040506893 0.001350224 0.70301193
0.0040091863 2.9802322e-08 0.70134193
0.0039685098 -0.0013228357 0.69970524
0.0039286506 -0.0026190877 0.6981014
0.003889584 -0.0038895607 0.69652951
0.0038513008 -0.0051350594 0.69498914
0.0038137503 -0.0063562691 0.69347823
0.0038076348 -0.0076152682 0.69323218
0.0038210757 -0.0089158416 0.69377303
0.0040673162 -0.010846168 0.70368099
0.0040549752 -0.012164891 0.70318437
0.0040426929 -0.013475597 0.70269012
0.0041080778 -0.015062928 0.70532107
0.0044130939 -0.017652363 0.71759397
0.0044247075 -0.019173741 0.71806127
0.0044364017 -0.020703197 0.71853173
0.0068455706 0.030805081 0.74660814
0.0067468109 0.028673977 0.74362779
0.0048698452 0.019479394 0.68698537
0.0048687365 0.018257767 0.68695188
0.0048788027 0.017075807 0.68725562
0.004888928 0.015889019 0.68756127
0.004899078 0.014697254 0.68786752
0.00490927 0.013500512 0.68817508
0.0055380012 0.013844997 0.70714873
0.0055544451 0.012497514 0.70764494
0.0055646524 0.01112932 0.70795298
0.0055260453 0.0096706152 0.70678788
0.005460158 0.0081902444 0.70479959
0.0054940223 0.006867528 0.70582157
0.0056062443 0.0056062639 0.70920813
0.0055755237 0.0041816831 0.7082811
0.0055165482 0.0027582943 0.70650131
0.0054588285 0.0013646781 0.70475948
0.0054023042 2.9802322e-08 0.70305371
0.005346918 -0.0013366938 0.70138228
0.0052926764 -0.002646327 0.69974536
0.0052395039 -0.003929615 0.69814074
0.0051873894 -0.0051873922 0.69656813
0.0051662563 -0.0064578056 0.6959303
0.0051832884 -0.0077749193 0.69644433
0.0054530031 -0.0095427334 0.70458364
0.005436345 -0.010872692 0.704081
0.0054198098 -0.012194574 0.70358199
0.0055135279 -0.013783813 0.70641017
0.0058444627 -0.016072273 0.71639705
0.0058597643 -0.017579287 0.71685874
0.0058751712 -0.019094288 0.71732372
0.0058906092 -0.020617098 0.71778953
0.0086679636 0.0312047 0.74928784
0.0062540863 0.021263927 0.69101173
0.0061640427 0.019724965 0.68883789
0.0060765548 0.018229663 0.6867258
0.0060724132 0.017002791 0.68662578
0.0060849399 0.015820861 0.68692815
0.0060975188 0.014634073 0.6872319
0.0061101713 0.013442397 0.68753731
0.0061228545 0.012245744 0.68784356
0.0069111288 0.012440026 0.70687413
0.0069330544 0.011092901 0.70740348
0.0069386475 0.0097141266 0.70753849
0.0069150897 0.0082981288 0.7069698
0.0069777183 0.0069777369 0.70848173
0.0070024668 0.0056020021 0.70907927
0.0070066466 0.004204005 0.70918012
0.0069712223 0.0027885139 0.70832491
0.0068974919 0.0013795495 0.70654494
0.0068253046 -2.9802322e-08 0.70480222
0.006754613 -0.0013509095 0.70309556
0.0066853445 -0.0026741624 0.70142329
0.0066174832 -0.003970474 0.69978493
0.0065748347 -0.0052598119 0.69875526
0.006593674 -0.0065936446 0.69921017
0.0068540354 -0.0082248449 0.70549577
0.006833009 -0.0095661879 0.70498818
0.0068132868 -0.010901272 0.70451206
0.0070728231 -0.012731045 0.71077776
0.0072559062 -0.014511824 0.7151978
0.0072769374 -0.016009241 0.71570551
0.0073631052 -0.017671466 0.71778584
0.0073345695 -0.01906985 0.71709692
0.010700082 0.033883601 0.75529373
0.010538363 0.031615108 0.75204027
0.0076021077 0.02153936 0.6929673
0.0074912584 0.019976705 0.69073725
0.0073835952 0.018459022 0.68857121
0.0072790091 0.016984373 0.68646705
0.0072707334 0.015753239 0.68630064
0.0072857249 0.014571488 0.68660223
0.0073007522 0.01338473 0.68690455
0.0073245033 0.012207478 0.6873824
0.0073508192 0.011026233 0.68791181
0.0082820533 0.011042744 0.7066468
0.0083077298 0.0096923709 0.70716339
0.0083269421 0.0083269477 0.70754987
0.0083490172 0.006957531 0.70799398
0.0083698323 0.0055798888 0.70841277
0.0083907517 0.0041953921 0.70883363
0.0083989659 0.00279966 0.70899886
0.0083670113 0.0013945103 0.70835602
0.0082791597 -0 0.70658863
0.0081924899 -0.0013653934 0.70484495
0.0081075849 -0.0027025044 0.70313674
0.0080360202 -0.0040180087 0.70169699
0.0080548348 -0.0053698719 0.70207554
0.0080885543 -0.0067404509 0.7027539
0.0082414569 -0.008241415 0.7058301
0.0082583018 -0.0096346736 0.70616895
0.008609998 -0.011480004 0.71324456
0.0086415112 -0.012962252 0.71387851
0.0086724972 -0.014454126 0.71450192
0.0092768157 -0.0170075 0.72665989
0.009188137 -0.018376261 0.72487581
0.012651079 0.034338653 0.75818479
0.0091266753 0.023468584 0.69740868
0.008985539 0.021822035 0.69497484
0.0088528227 0.020235002 0.6926862
0.0087239714 0.018694222 0.69046426
0.0085988156 0.017197639 0.68830597
0.0084772008 0.015743375 0.68620884
0.0084637785 0.01450932 0.6859774
0.0084921177 0.013344765 0.6864661
0.0085224388 0.012174934 0.68698895
0.0085538793 0.010997862 0.68753111
0.0096213846 0.010995865 0.70593959
0.009671079 0.0096711218 0.70679653
0.0096803168 0.0082974136 0.70695585
0.009702404 0.0069303215 0.70733672
0.0097264983 0.0055580139 0.70775223
0.0097507127 0.0041788816 0.70816976
0.0097750472 0.0027928948 0.70858943
0.009789289 0.001398474 0.70883501
0.009761082 2.9802322e-08 0.70834857
0.0096615516 -0.0013802052 0.70663226
0.009563203 -0.0027323067 0.70493627
0.0095727257 -0.0041025877 0.70510054
0.0096105495 -0.0054917037 0.70575273
0.0096779279 -0.0069127977 0.70691466
0.0099741481 -0.008549273 0.71202278
0.0099995714 -0.0099995434 0.71246117
0.010025208 -0.011457354 0.71290332
0.010050893 -0.012922525 0.71334612
0.010076751 -0.014395356 0.71379209
0.010102783 -0.015875816 0.71424103
0.01056624 0.023774087 0.69945699
0.010405731 0.022112221 0.69703513
0.010250026 0.020500094 0.69468576
0.010098913 0.018935472 0.69240558
0.0099522267 0.017416418 0.69019228
0.0098097045 0.015940785 0.68804181
0.0096873855 0.014531106 0.68619609
0.0096795252 0.01330936 0.68607754
0.0097165741 0.012145728 0.68663651
0.01092972 0.012295902 0.70494151
0.011371142 0.011371136 0.71160203
0.011838164 0.010358453 0.71864879
0.011163362 0.0083725154 0.70846689
0.011060402 0.0069127679 0.70691335
0.011072517 0.005536288 0.70709616
0.011099974 0.0041624904 0.70751041
0.011127568 0.0027818978 0.70792675
0.011155299 0.0013944507 0.70834517
0.0111753 2.9802322e-08 0.70864701
0.011150734 -0.0013938248 0.70827633
0.011149348 -0.0027873516 0.70825541
0.011186004 -0.0041947365 0.70880854
0.011238509 -0.0056192279 0.70960075
0.011297798 -0.007061094 0.71049535
0.011353355 -0.0085150003 0.71133363
0.011382224 -0.0099594295 0.71176922
0.011411239 -0.01141125 0.71220708
0.011440404 -0.012870431 0.71264714
0.011469624 -0.014337033 0.71308804
0.011499136 -0.015811265 0.71353328
0.011530282 -0.01729542 0.71400326
0.012049709 0.024099469 0.70163906
0.011864246 0.022410244 0.69915158
0.01168436 0.020772189 0.69673884
0.011509847 0.019183099 0.69439822
0.011340472 0.01764074 0.69212651
0.011179684 0.016148448 0.68997002
0.011050346 0.014733821 0.68823528
0.010927593 0.01335597 0.68658888
0.01253844 0.013931632 0.70819402
0.012782808 0.012782782 0.71147162
0.013250895 0.011778593 0.71774971
0.013368262 0.010397553 0.71932387
0.013434247 0.0089561343 0.72020888
0.013467282 0.0074818432 0.72065192
0.01248782 0.0055501461 0.70751512
0.012443546 0.0041478574 0.70692134
0.012469546 0.0027710199 0.70727003
0.012500499 0.0013889968 0.70768517
0.012531606 2.9802322e-08 0.70810235
0.012561204 -0.0013956726 0.70849937
0.012592006 -0.0027981997 0.70891249
0.012624388 -0.0042080879 0.70934677
0.012657549 -0.005625546 0.7097916
0.012689393 -0.00704965 0.71021867
0.0127215 -0.0084809959 0.71064937
0.012789552 -0.009947449 0.71156198
0.012937919 -0.011500359 0.71355194
0.012847613 -0.012847573 0.71234071
0.012851308 -0.014279217 0.71239036
0.012885356 -0.015748769 0.71284699
0.017831 0.03209585 0.75526392
0.013362565 0.022716343 0.70132518
0.013157237 0.021051615 0.69884664
0.012958123 0.019437194 0.69644314
0.012764947 0.017870933 0.69411135
0.012599702 0.016379625 0.69211662
0.012451874 0.014942259 0.69033217
0.012632086 0.013895333 0.69250751
0.014198535 0.014198542 0.71141624
0.014691591 0.013222456 0.71736789
0.014767769 0.011814237 0.71828747
0.014834346 0.010384023 0.71909118
0.01487499 0.0089250207 0.71958172
0.014911375 0.0074556768 0.72002101
0.014944082 0.0059776306 0.72041577
0.013989654 0.0041969121 0.70889485
0.01391698 0.0027834177 0.70801759
0.013868378 0.0013868809 0.70743084
0.013878072 -0 0.7075479
0.013905341 -0.0013905168 0.7078771
0.01393853 -0.0027876794 0.70827764
0.013973339 -0.0041919947 0.70869792
0.014008321 -0.0056033134 0.70912015
0.01404348 -0.0070217252 0.70954454
0.014078759 -0.0084472299 0.70997041
0.015127686 -0.010589361 0.72263211
0.014970868 -0.011976689 0.72073913
0.014817267 -0.013335526 0.718885
0.014438726 -0.014438659 0.71431559
0.019525025 0.031950057 0.75428647
0.019551493 0.030215979 0.75457692
0.014670331 0.021338671 0.70101255
0.014445338 0.019698173 0.69854355
0.014232387 0.018113971 0.69620669
0.014060967 0.016617507 0.69432557
0.013911985 0.015176743 0.69269067
0.014754029 0.014754057 0.701931
0.016307337 0.014824867 0.71897656
0.016433755 0.013445824 0.72036386
0.016323496 0.011871666 0.71915388
0.016260026 0.010347277 0.7184574
0.016299549 0.0088906884 0.71889108
0.016339265 0.0074269474 0.71932691
0.016379246 0.0059560835 0.71976566
0.016417095 0.0044774115 0.72018099
0.016421327 0.0029857159 0.72022742
0.016374895 0.001488626 0.71971792
0.016220763 2.9802322e-08 0.71802652
0.016037339 -0.0014579594 0.71601367
0.015420717 -0.0028037429 0.70924699
0.015321811 -0.004178673 0.70816171
0.01534839 -0.0055812001 0.70845336
0.015386822 -0.0069939792 0.70887506
0.015425323 -0.0084137917 0.70929754
0.015464079 -0.0098407567 0.70972288
0.016645165 -0.012105554 0.72268379
0.016472567 -0.013477534 0.72078979
0.02120956 0.031814337 0.75337642
0.019872418 0.028152615 0.73992586
0.01955856 0.026078105 0.73676866
0.015972978 0.019966245 0.70070052
0.015757896 0.018384248 0.69853693
0.015565305 0.016862422 0.6965996
0.015910868 0.015910864 0.70007575
0.017851057 0.016363472 0.71959257
0.018756272 0.015630245 0.72869825
0.01895218 0.014214128 0.73066902
0.019051852 0.012701243 0.73167157
0.017869264 0.01042375 0.71977568
0.017733607 0.0088668168 0.71841103
0.017756186 0.0073984563 0.71863818
0.017799467 0.0059331656 0.71907359
0.01784296 0.0044607222 0.71951103
0.017885821 0.0029810071 0.71994221
0.017897107 0.0014914572 0.7200557
0.017854955 2.9802322e-08 0.71963173
0.017700784 -0.0014750659 0.71808088
0.017500641 -0.0029167533 0.71606761
0.016883086 -0.0042207539 0.7098555
0.016747262 -0.0055823922 0.70848924
0.016733484 -0.0069722235 0.7083506
0.016787246 -0.0083936155 0.70889139
0.017014535 -0.009925127 0.71117783
0.018255671 -0.012170434 0.72366261
0.022961371 0.03179267 0.75323111
0.021835133 0.028553665 0.74277353
0.021485444 0.02644363 0.73952651
0.021146879 0.024400234 0.73638278
0.017329616 0.018662691 0.70093781
0.017178759 0.017178774 0.69953704
0.019626088 0.018116385 0.72226155
0.020294826 0.017172575 0.7284711
0.020421257 0.015708685 0.72964501
0.020513812 0.01420188 0.73050451
0.020570142 0.012658566 0.73102748
0.020619722 0.011102945 0.73148787
0.020664906 0.009537667 0.73190743
0.019357707 0.0074452758 0.71976954
0.019257355 0.0059253573 0.71883774
0.01926261 0.0044452548 0.71888649
0.019302698 0.0029696524 0.71925879
0.019349746 0.001488477 0.71969563
0.019367833 -0 0.71986353
0.019330949 -0.0014869571 0.71952105
0.019181713 -0.0029509962 0.71813536
0.018964756 -0.004376471 0.71612084
0.018752655 -0.0057700276 0.71415132
0.018535048 -0.0071288347 0.71213078
0.018822514 -0.0086872876 0.7148
0.019992923 -0.010765433 0.72566777
0.024254927 0.031184912 0.7491554
0.023854578 0.028966278 0.74570346
0.023467116 0.026819587 0.74236274
0.023083273 0.024732113 0.73905313
0.022055039 0.02205503 0.73018754
0.021730024 0.020177871 0.72738516
0.021950545 0.018814772 0.72928655
0.023224445 0.018247813 0.74027038
0.022187117 0.015847981 0.73132628
0.022021992 0.014157027 0.72990257
0.022068648 0.012610674 0.73030484
0.022121636 0.011060864 0.73076177
0.02217488 0.0095035434 0.73122084
0.022225842 0.0079378188 0.73166025
0.022230716 0.0063516498 0.73170227
0.022159627 0.0047484934 0.73108929
0.021917809 0.0031311214 0.72900438
0.021004464 0.0015003383 0.72112924
0.020850781 2.9802322e-08 0.71980423
0.020835243 -0.0014882386 0.71967024
0.020803345 -0.0029718876 0.71939516
0.020663546 -0.00442788 0.71818984
0.020439632 -0.0058399141 0.71625918
0.020711053 -0.0073967576 0.71859944
0.022375612 -0.0095894933 0.73295152
0.026374971 0.031650007 0.7522741
0.025933243 0.02939105 0.74871933
0.025505943 0.027206331 0.74528074
0.024907473 0.0249075 0.74046463
0.023968909 0.022370994 0.73291165
0.023668172 0.020512432 0.73049152
0.024871817 0.019897491 0.74017775
0.025236961 0.018507123 0.74311614
0.025258854 0.016839236 0.74329233
0.025285445 0.015171289 0.74350631
0.023632543 0.012604058 0.73020476
0.023612309 0.011019081 0.73004192
0.023668818 0.0094675422 0.7304967
0.023725597 0.0079085231 0.73095357
0.023782 0.0063419044 0.73140752
0.023795897 0.0047591925 0.73151934
0.023731107 0.0031641424 0.73099798
0.023490988 0.0015660822 0.7290656
0.023209181 2.9802322e-08 0.72679782
0.022405235 -0.0014936924 0.72032815
0.022310479 -0.0029747188 0.71956557
0.022325387 -0.0044650733 0.71968555
0.022686493 -0.0060497224 0.72259158
0.024266984 -0.0080889761 0.73531038
0.028073777 0.029828399 0.75182503
0.027588688 0.027588695 0.74816531
0.026345756 0.024699152 0.73878819
0.02594143 0.02269876 0.73573774
0.026517916 0.021545798 0.74008697
0.027176816 0.020382643 0.745058
0.026924899 0.018510848 0.74315745
0.026912127 0.016820073 0.74306107
0.026941862 0.015154839 0.74328542
0.026978862 0.013489455 0.74356455
0.027023317 0.01182273 0.74389994
0.025331981 0.0094995499 0.73113978
0.025256831 0.0078927875 0.73057282
0.025289116 0.0063222945 0.73081636
0.025333827 0.004750073 0.73115373
0.025355896 0.003169477 0.73132026
0.025300164 0.0015812814 0.73089975
0.025065187 2.9802322e-08 0.72912699
0.0247644 -0.0015477836 0.72685772
0.024472902 -0.003059119 0.72465861
0.024745991 -0.0046398342 0.72671884
0.026773063 -0.006693244 0.74201196
0.02947122 0.027737647 0.74928892
0.028411629 0.025069058 0.74176514
0.028167224 0.023196548 0.74002981
0.029564885 0.022608429 0.74995404
0.029368214 0.020730525 0.74855751
0.029062042 0.018804878 0.74638355
0.028807772 0.01694575 0.74457806
0.028638357 0.015161484 0.74337512
0.028642107 0.013478637 0.74340171
0.028688988 0.011813134 0.7437346
0.028746368 0.010145813 0.74414206
0.02872554 0.0084486902 0.74399412
0.02836388 0.0066739023 0.74142611
0.028001653 0.0049414635 0.73885411
0.026956499 0.0031713545 0.73143286
0.026911672 0.0015830696 0.73111457
0.026864184 2.9802322e-08 0.73077738
0.02664041 -0.0015670657 0.72918832
0.026899049 -0.0031645894 0.73102486
0.029130405 -0.0051406324 0.74686897
0.031043127 0.027593911 0.74820453
0.03054898 0.025457501 0.74489081
0.031395923 0.024419069 0.75057042
0.031504571 0.022753298 0.75129908
0.031516001 0.021010667 0.75137573
0.031328771 0.01914537 0.75012016
0.031084165 0.017268986 0.74847984
0.030900339 0.01545018 0.74724704
0.030765366 0.013673484 0.74634188
0.030692445 0.011935949 0.74585289
0.030691089 0.010230362 0.74584377
0.030756742 0.008543551 0.74628407
0.030436739 0.0067637563 0.74413806
0.03004273 0.005007118 0.74149585
0.029658791 0.0032954216 0.73892105
0.028729526 0.0015960932 0.73268926
0.028720029 2.9802322e-08 0.73262554
0.029153638 -0.001619637 0.73553336
0.031604066 -0.003511548 0.75196636
0.034626447 0.023691803 0.76001322
0.033395957 0.021092176 0.75219572
0.03327544 0.019264728 0.75143003
0.033310529 0.017531872 0.75165302
0.033301961 0.015774637 0.7515986
0.033225533 0.013989747 0.751113
