# .PCD v0.7 - Point Cloud Data file format
VERSION 0.7
FIELDS x y z
SIZE 4 4 4
TYPE F F F
COUNT 1 1 1
WIDTH 1321
HEIGHT 1
VIEWPOINT 0 0 0 1 0 0 0
POINTS 1321
DATA ascii
-0.025753742 -0.030904472 0.69546235
-0.025681602 -0.032102019 0.69502699
-0.025609864 -0.0332928 0.69459397
-0.025535708 -0.034473181 0.69414639
-0.025457786 -0.035640895 0.69367605
-0.025366813 -0.036781847 0.69312704
-0.025357649 -0.038036436 0.69307172
-0.026237478 -0.0406681 0.69838196
-0.026179755 -0.041887611 0.69803357
-0.026121892 -0.043101102 0.69768429
-0.025935302 -0.044090003 0.69655812
-0.02578279 -0.045119852 0.6956377
-0.025632061 -0.046137691 0.69472796
-0.025649374 -0.047451317 0.69483244
-0.026499895 -0.012552589 0.70838374
-0.026401024 -0.013895273 0.70775557
-0.026332157 -0.015244931 0.70731807
-0.02626208 -0.016586542 0.70687282
-0.026177524 -0.017910928 0.70633566
-0.026079802 -0.019216657 0.70571476
-0.025957268 -0.020492584 0.70493633
-0.025613755 -0.021569461 0.7027539
-0.024967175 -0.022339046 0.69864607
-0.024859622 -0.023551226 0.69796276
-0.024787938 -0.024787933 0.69750738
-0.024717592 -0.0260185 0.69706035
-0.024647642 -0.027242124 0.69661605
-0.024578089 -0.028458804 0.69617414
-0.024504287 -0.029663056 0.69570524
-0.024434905 -0.030865163 0.69526446
-0.024388779 -0.032090485 0.69497132
-0.024531968 -0.033570051 0.69588113
-0.024531512 -0.034860551 0.69587821
-0.024023322 -0.035402775 0.6926496
-0.023889882 -0.036463499 0.69180179
-0.023856474 -0.037668139 0.69158959
-0.024394996 -0.039802343 0.6950109
-0.024349559 -0.041009754 0.69472224
-0.024332508 -0.04226172 0.69461393
-0.024222609 -0.04334569 0.69391567
-0.024113785 -0.044420123 0.69322431
-0.024008382 -0.04548955 0.69255471
-0.023968201 -0.046674907 0.69229937
-0.025362218 -0.0070450604 0.71010756
-0.025281128 -0.0084270239 0.70956373
-0.02521437 -0.0098055899 0.7091161
-0.025142001 -0.011174232 0.70863074
-0.025060302 -0.012530148 0.70808291
-0.024959395 -0.013866365 0.70740616
-0.024829099 -0.015173346 0.70653248
-0.024324078 -0.01621604 0.70314562
-0.023877053 -0.017244518 0.70014787
-0.023796381 -0.018508255 0.69960684
-0.023727952 -0.019773304 0.69914794
-0.023659913 -0.021031022 0.69869161
-0.023592263 -0.022281557 0.69823796
-0.023523232 -0.023523211 0.69777501
-0.023451963 -0.024754852 0.6972971
-0.023392668 -0.025991827 0.69689941
-0.023360863 -0.027254343 0.69668621
-0.023526948 -0.028755158 0.69779998
-0.023517746 -0.030050427 0.69773823
-0.023486573 -0.031315386 0.6975292
-0.023441855 -0.032558143 0.69722933
-0.023386283 -0.033780158 0.69685668
-0.023317579 -0.034976363 0.69639587
-0.023129681 -0.035979509 0.69513589
-0.022487916 -0.036230505 0.69083202
-0.02243983 -0.037399709 0.69050956
-0.022800252 -0.039267093 0.69292665
-0.022797177 -0.040528268 0.69290596
-0.022783311 -0.041769415 0.69281304
-0.022694604 -0.042867541 0.69221812
-0.022609694 -0.043963253 0.69164866
-0.022525333 -0.045050681 0.69108301
-0.022464411 -0.046176851 0.69067442
-0.022713644 -0.047951013 0.6923458
-0.024206849 -0.0014238954 0.71190858
-0.02413672 -0.0028395951 0.71141064
-0.024072196 -0.004248023 0.71095252
-0.023998164 -0.0056466162 0.71042681
-0.023914512 -0.0070336759 0.70983279
-0.023812996 -0.0084046125 0.70911199
-0.023644757 -0.0097360611 0.70791733
-0.023027997 -0.010836691 0.703538
-0.022781018 -0.012060523 0.70178425
-0.022711646 -0.013359755 0.70129168
-0.022645647 -0.014653057 0.70082307
-0.022580031 -0.015938818 0.70035714
-0.022514794 -0.017217189 0.69989395
-0.022446435 -0.018485308 0.69940859
-0.022379337 -0.019746423 0.69893211
-0.022332717 -0.021019012 0.69860107
-0.022334153 -0.022334099 0.69861126
-0.023152191 -0.024514079 0.70441985
-0.023143845 -0.025866628 0.7043606
-0.023103112 -0.027180105 0.7040714
-0.022371879 -0.027635843 0.69887912
-0.022314074 -0.02887705 0.69846869
-0.022243826 -0.030094564 0.69796985
-0.022154558 -0.031277031 0.69733608
-0.022047475 -0.032422781 0.6965757
-0.021936042 -0.033549249 0.69578451
-0.021825731 -0.034664392 0.69500118
-0.021701526 -0.035743684 0.69411922
-0.021147875 -0.036075771 0.69018793
-0.021090942 -0.037219316 0.68978369
-0.021286806 -0.038817108 0.69117445
-0.021350436 -0.040189058 0.69162625
-0.021333626 -0.041412294 0.69150686
-0.021260757 -0.042521507 0.69098949
-0.021187091 -0.043620497 0.69046646
-0.021114841 -0.044713765 0.68995339
-0.021056509 -0.045828849 0.68953919
-0.021132896 -0.047238201 0.6900816
-0.023227727 0.0058069229 0.71526444
-0.023030663 0.0043182671 0.71377772
-0.022967108 0.0028709173 0.7132982
-0.022905035 0.0014315844 0.71282989
-0.022829695 -0 0.71226156
-0.022743307 -0.0014214814 0.71160978
-0.022634692 -0.0028293431 0.71079034
-0.022335874 -0.0041879714 0.70853585
-0.021760276 -0.0054400563 0.70419335
-0.021668002 -0.0067712665 0.70349723
-0.021603841 -0.0081014335 0.70301318
-0.02154031 -0.0094238818 0.70253384
-0.021477237 -0.010738581 0.70205802
-0.02141387 -0.012045294 0.70157993
-0.021347104 -0.013341933 0.70107627
-0.021272123 -0.014624596 0.7005105
-0.02120381 -0.015902817 0.69999516
-0.021857204 -0.017758965 0.70492464
-0.022045629 -0.019289911 0.70634621
-0.022027984 -0.020651221 0.70621306
-0.022000004 -0.021999985 0.706002
-0.021965582 -0.023338407 0.7057423
-0.021921843 -0.024662048 0.70541227
-0.02187535 -0.025976956 0.7050615
-0.021812953 -0.027266175 0.70459074
-0.020938205 -0.027481377 0.69799131
-0.020835876 -0.02864933 0.69721937
-0.020733153 -0.029803872 0.69644433
-0.020631665 -0.030947477 0.69567865
-0.020539057 -0.032092273 0.69498003
-0.020449607 -0.033230603 0.69430512
-0.02036332 -0.034363091 0.69365412
-0.020271473 -0.035475075 0.69296122
-0.019847888 -0.035974294 0.68976551
-0.019792983 -0.037111849 0.68935132
-0.019844063 -0.038447857 0.6897366
-0.019962272 -0.039924532 0.69062847
-0.019941794 -0.041129947 0.69047397
-0.019882031 -0.042249292 0.69002306
-0.019818597 -0.04335317 0.68954456
-0.019758375 -0.044456303 0.68909019
-0.01970152 -0.045559764 0.68866128
-0.019725217 -0.046847373 0.68884003
-0.021831084 0.010187864 0.71570778
-0.021771355 0.0087085664 0.71522713
-0.021708785 0.0072362721 0.71472359
-0.021635702 0.0057695508 0.71413541
-0.021547331 0.0043095052 0.71342432
-0.021432852 0.0028577149 0.71250302
-0.020992003 0.0013994575 0.70895541
-0.02060405 2.9802322e-08 0.70583332
-0.020533187 -0.0013688505 0.70526314
-0.020471973 -0.0027295649 0.70477045
-0.020411203 -0.0040822327 0.70428145
-0.020350793 -0.0054268539 0.70379531
-0.020288371 -0.0067627728 0.70329297
-0.020224994 -0.0080899894 0.70278293
-0.020178173 -0.009416461 0.70240611
-0.020162873 -0.010753512 0.70228302
-0.0199895 -0.011993676 0.7008878
-0.01985782 -0.013238519 0.69982815
-0.019765943 -0.014495045 0.69908881
-0.020093149 -0.016074538 0.70172191
-0.020727118 -0.017963469 0.70682371
-0.020771643 -0.019386828 0.70718205
-0.020727202 -0.020727187 0.70682442
-0.02067975 -0.022058398 0.70644253
-0.020632515 -0.023383498 0.70606238
-0.020585576 -0.024702698 0.70568466
-0.02053877 -0.026015759 0.70530802
-0.020468436 -0.027291268 0.70474207
-0.019437548 -0.02721259 0.69644612
-0.019353462 -0.028385073 0.69576943
-0.01927053 -0.029548138 0.69510198
-0.019188587 -0.030701727 0.69444257
-0.01910853 -0.031847537 0.6937983
-0.019034071 -0.032992363 0.69319916
-0.018960811 -0.034129441 0.69260955
-0.018885376 -0.03525269 0.69200253
-0.018580133 -0.035921574 0.68954611
-0.018524794 -0.037049562 0.68910074
-0.018519066 -0.038272709 0.68905473
-0.018611116 -0.039703697 0.68979549
-0.018588616 -0.040894955 0.68961442
-0.018544106 -0.042033285 0.68925619
-0.01849062 -0.043144792 0.68882573
-0.018437702 -0.044250458 0.68839991
-0.018385021 -0.045349717 0.687976
-0.018379446 -0.046561271 0.68793118
-0.020325109 0.010162592 0.71527171
-0.020179752 0.0086484849 0.7140184
-0.019641345 0.0070147514 0.70937622
-0.01943481 0.0055527985 0.70759541
-0.019373896 0.0041515529 0.70707017
-0.019315584 0.002759397 0.70656747
-0.019257547 0.001375556 0.70606703
-0.019199934 -0 0.70557022
-0.019138822 -0.0013670325 0.70504338
-0.019072115 -0.0027245581 0.70446813
-0.019034654 -0.0040788352 0.70414525
-0.019666199 -0.0056189001 0.70959049
-0.019753804 -0.0070548952 0.7103458
-0.019738736 -0.008459419 0.71021593
-0.019713538 -0.0098567605 0.70999867
-0.019682271 -0.011246979 0.70972908
-0.019642297 -0.012627184 0.70938438
-0.018395474 -0.013139606 0.69863409
-0.018326243 -0.014399141 0.69803715
-0.018728191 -0.016052723 0.7015028
-0.019347927 -0.017965913 0.7068463
-0.019410538 -0.019410521 0.70738614
-0.01937459 -0.02075848 0.70707619
-0.019330168 -0.022091597 0.70669317
-0.019285949 -0.023418635 0.70631188
-0.019238584 -0.024735302 0.70590353
-0.019187212 -0.026039779 0.70546055
-0.019097948 -0.027282774 0.70469093
-0.018006133 -0.027009219 0.69527709
-0.017934505 -0.028182805 0.69465947
-0.017866855 -0.029352665 0.69407618
-0.017799715 -0.030513763 0.6934973
-0.017733011 -0.0316661 0.69292217
-0.017666679 -0.032809526 0.69235027
-0.017600905 -0.033944637 0.69178307
-0.017514721 -0.035029411 0.69103998
-0.01727403 -0.03578192 0.68896472
-0.017182386 -0.036819398 0.68817461
-0.017176744 -0.038034201 0.68812585
-0.017289193 -0.039518148 0.6890955
-0.017266242 -0.040698975 0.68889761
-0.017238159 -0.041864067 0.6886555
-0.017191373 -0.042978406 0.68825203
-0.017144838 -0.044086725 0.68785089
-0.017098617 -0.045189202 0.68745232
-0.017079348 -0.046358228 0.68728614
-0.018244652 0.011227489 0.70943433
-0.018188966 0.0097940862 0.70891726
-0.018133618 0.0083693862 0.70840335
-0.018078607 0.0069533288 0.70789254
-0.018022489 0.0055454075 0.70737135
-0.017964646 0.0041457117 0.70683432
-0.017906109 0.0027548373 0.70629078
-0.01781515 0.0013704598 0.70544624
-0.01772511 2.9802322e-08 0.70461023
-0.017635701 -0.0013566017 0.70377994
-0.017583391 -0.0027050972 0.70329422
-0.018071229 -0.0041702688 0.70782399
-0.018420836 -0.0056679547 0.7110703
-0.018441895 -0.0070930123 0.7112658
-0.018399002 -0.0084918439 0.71086752
-0.018355861 -0.0098839104 0.71046698
-0.018312924 -0.01126942 0.71006823
-0.01827026 -0.012648642 0.70967209
-0.016998975 -0.013076127 0.69786763
-0.016941976 -0.014335513 0.6973384
-0.017256858 -0.015929401 0.70026219
-0.017934689 -0.01793468 0.7065562
-0.01803069 -0.019417644 0.70744759
-0.018000154 -0.020769417 0.70716405
-0.017944308 -0.022085279 0.70664549
-0.017881017 -0.023382813 0.70605785
-0.017808268 -0.024657607 0.70538229
-0.017717671 -0.025895029 0.70454109
-0.017311087 -0.026632428 0.70076585
-0.016627111 -0.026859134 0.69441473
-0.016560301 -0.02802512 0.69379437
-0.016497701 -0.029188216 0.69321311
-0.016426548 -0.03032589 0.69255245
-0.016264079 -0.03127709 0.69104385
-0.016032826 -0.03206566 0.68889654
-0.015808055 -0.032832086 0.68680942
-0.01562374 -0.033651114 0.68509799
-0.015565649 -0.034723341 0.68455857
-0.015519549 -0.035814315 0.68413055
-0.015519762 -0.037008643 0.68413258
-0.015988505 -0.039356321 0.68848497
-0.015965223 -0.040527076 0.68826884
-0.015955862 -0.041730702 0.68818194
-0.01591488 -0.042847723 0.68780136
-0.015874108 -0.043959022 0.68742275
-0.015833599 -0.045064837 0.68704665
-0.015804958 -0.046199113 0.68678069
-0.015911965 -0.04773587 0.6877743
-0.016818529 0.011212349 0.7092061
-0.01676012 0.0097767413 0.70861852
-0.016692219 0.0083461404 0.70793551
-0.016688544 0.0069535673 0.70789862
-0.017265847 0.0057553053 0.71370578
-0.017330648 0.0043326616 0.71435761
-0.017314816 0.0028857887 0.71419835
-0.01728682 0.0014405549 0.71391678
-0.016223688 2.9802322e-08 0.70322251
-0.016153544 -0.0013461113 0.70251691
-0.016180625 -0.0026967525 0.70278925
-0.01665568 -0.0041638911 0.70756793
-0.017005237 -0.0056684017 0.71108425
-0.017045904 -0.0071024597 0.71149337
-0.017009884 -0.0085049272 0.71113098
-0.016970009 -0.0098991394 0.7107299
-0.016929494 -0.011286318 0.71032232
-0.016886096 -0.012664557 0.70988572
-0.01564168 -0.013034731 0.69736791
-0.01559447 -0.014294922 0.6968931
-0.015795264 -0.015795231 0.69891286
-0.016277647 -0.017634124 0.70376527
-0.016528782 -0.019283533 0.70629144
-0.016458126 -0.020572603 0.70558071
-0.016202064 -0.02160272 0.70300496
-0.015953787 -0.022601157 0.70050746
-0.015712943 -0.023569375 0.69808471
-0.015479207 -0.024508715 0.69573355
-0.015252435 -0.025420696 0.69345236
-0.015032155 -0.026306272 0.6912365
-0.014818097 -0.027166486 0.68908334
-0.014617681 -0.028017223 0.68706727
-0.014554563 -0.029109091 0.6864323
-0.014510295 -0.030229747 0.68598706
-0.014466948 -0.03134501 0.68555099
-0.014423859 -0.032453656 0.6851176
-0.014381225 -0.033556163 0.68468869
-0.01433973 -0.034654319 0.68427128
-0.014298424 -0.035746068 0.68385577
-0.014283191 -0.036898226 0.68370253
-0.014702416 -0.039206415 0.68791968
-0.014698011 -0.040419519 0.68787527
-0.01469221 -0.041627914 0.68781698
-0.014656421 -0.042747885 0.68745703
-0.014620858 -0.043862551 0.68709922
-0.014585416 -0.044971675 0.68674266
-0.014555122 -0.046091199 0.68643802
-0.014599204 -0.047447383 0.68688136
-0.015301508 0.011128366 0.70793885
-0.015225136 0.009688735 0.70710075
-0.015291346 0.0083407462 0.70782745
-0.015774639 0.0071702898 0.71313083
-0.015953533 0.0058013201 0.71509397
-0.015954997 0.0043514073 0.71511006
-0.015916727 0.0028939545 0.71469009
-0.015878575 0.0014435053 0.71427143
-0.014788337 5.9604645e-08 0.70230752
-0.014734748 -0.0013394952 0.7017194
-0.014751866 -0.0026821494 0.70190728
-0.01518262 -0.0041407049 0.70663428
-0.015575174 -0.005663693 0.71094203
-0.015633721 -0.007106185 0.71158445
-0.015598184 -0.0085080862 0.71119452
-0.015545781 -0.0098927319 0.71061945
-0.015488204 -0.011264145 0.70998764
-0.015421215 -0.01261735 0.7092526
-0.014313989 -0.013012707 0.69710219
-0.014270061 -0.014270037 0.69662005
-0.01427086 -0.015568197 0.69662887
-0.014469455 -0.017100245 0.69880819
-0.014422718 -0.018356174 0.6982953
-0.014207892 -0.019374371 0.69593787
-0.013999474 -0.020362854 0.69365078
-0.013797035 -0.021322668 0.69142926
-0.013600317 -0.022255063 0.68927056
-0.013517155 -0.023347795 0.68835795
-0.013474649 -0.024499357 0.68789148
-0.013433872 -0.025646478 0.68744397
-0.013393342 -0.026786655 0.6869992
-0.013353662 -0.027921259 0.68656385
-0.013314402 -0.029049575 0.68613303
-0.01327551 -0.030171633 0.6857062
-0.01323712 -0.03128773 0.68528491
-0.013198996 -0.032397538 0.68486655
-0.01316091 -0.033500493 0.68444866
-0.013124036 -0.034599692 0.68404394
-0.013087636 -0.035693526 0.68364453
-0.013065848 -0.036821932 0.68340546
-0.013414918 -0.039025217 0.68723607
-0.01344933 -0.040347993 0.68761367
-0.013442424 -0.041549295 0.68753785
-0.013412376 -0.042675734 0.68720812
-0.013381478 -0.043793917 0.68686908
-0.013350722 -0.044906944 0.68653154
-0.013321966 -0.046021372 0.686216
-0.013338982 -0.047292769 0.68640274
-0.014870469 0.016357541 0.71952724
-0.014808426 0.014808446 0.71877825
-0.01386102 0.012474924 0.70734209
-0.013800956 0.011040777 0.706617
-0.013769782 0.0096388459 0.70624077
-0.014087834 0.0084526837 0.71007997
-0.014453681 0.0072268248 0.71449614
-0.014542727 0.0058171153 0.71557093
-0.014527587 0.0043582618 0.7153883
-0.014492625 0.0028985441 0.71496624
-0.014456988 0.0014457107 0.71453607
-0.013401786 -2.9802322e-08 0.70179862
-0.01335286 -0.0013352633 0.70120806
-0.013344092 -0.002668798 0.70110214
-0.01369667 -0.0041089654 0.70535821
-0.013972777 -0.0055891275 0.70869112
-0.014108656 -0.0070542991 0.71033132
-0.013975137 -0.008385092 0.70871961
-0.01375354 -0.0096274614 0.70604467
-0.013538861 -0.010831088 0.7034533
-0.013273643 -0.011946261 0.70025182
-0.012958462 -0.012958437 0.69644725
-0.012888382 -0.014177203 0.69560134
-0.012743271 -0.015291899 0.69384968
-0.012558716 -0.016326308 0.6916219
-0.012452945 -0.01743409 0.69034505
-0.012411665 -0.018617481 0.68984681
-0.01237361 -0.019797772 0.68938744
-0.012336007 -0.020971209 0.68893355
-0.01229911 -0.022138387 0.68848813
-0.012262477 -0.023298711 0.68804598
-0.012226061 -0.02445212 0.68760639
-0.012189861 -0.025598705 0.68716931
-0.012154257 -0.026739359 0.68673968
-0.012118903 -0.027873427 0.68631285
-0.012086192 -0.029006839 0.68591797
-0.012062946 -0.030157357 0.68563741
-0.012403469 -0.032249004 0.68974787
-0.012389184 -0.033450782 0.68957543
-0.012367885 -0.03463006 0.6893183
-0.011946118 -0.03464371 0.68422717
-0.011901396 -0.035704136 0.68368733
-0.011887593 -0.036851525 0.68352067
-0.01201203 -0.038438499 0.68502283
-0.012211753 -0.04029876 0.68743366
-0.01220399 -0.041493565 0.68733996
-0.012179863 -0.04262951 0.68704873
-0.012153789 -0.043753624 0.68673396
-0.012127871 -0.044873118 0.6864211
-0.012100502 -0.045981914 0.68609071
-0.012102062 -0.047198057 0.68610954
-0.013522546 0.022537559 0.72139317
-0.013479646 0.020968378 0.7208178
-0.01344632 0.019422442 0.72037083
-0.013413101 0.017884165 0.71992522
-0.013380044 0.016353369 0.71948195
-0.013347151 0.014830202 0.71904069
-0.012405143 0.012405157 0.70640624
-0.012358521 0.010985345 0.70578086
-0.012397078 0.0096422136 0.70629811
-0.012690372 0.0084602535 0.71023178
-0.012987082 0.0072150528 0.71421134
-0.013091303 0.005818367 0.71560919
-0.013079914 0.0043599904 0.71545649
-0.013033903 0.0028964281 0.71483934
-0.012982122 0.001442492 0.71414483
-0.012052404 2.9802322e-08 0.70167518
-0.011997105 -0.0013329685 0.70093346
-0.011970515 -0.0026600957 0.70057684
-0.012095196 -0.004031688 0.70224911
-0.012175724 -0.0054114461 0.70332921
-0.012014112 -0.0066744983 0.70116162
-0.011832016 -0.0078879893 0.69871926
-0.01165527 -0.0090652108 0.69634873
-0.011483811 -0.010207832 0.69404906
-0.0113607 -0.011360705 0.69239783
-0.011320151 -0.012577921 0.691854
-0.01128498 -0.013792723 0.69138223
-0.011250592 -0.01500079 0.69092107
-0.011216494 -0.016201586 0.69046372
-0.011182643 -0.017395169 0.69000965
-0.011148994 -0.018581629 0.68955839
-0.011115508 -0.019760907 0.68910927
-0.011082262 -0.020933151 0.68866336
-0.011049527 -0.022099078 0.68822432
-0.011018731 -0.023261726 0.68781126
-0.0109968 -0.024437338 0.68751711
-0.010994325 -0.025653422 0.68748391
-0.011293742 -0.027606934 0.69149983
-0.011274523 -0.028812677 0.69124198
-0.011250269 -0.030000687 0.69091672
-0.011221807 -0.031171679 0.69053501
-0.011191727 -0.032331616 0.69013155
-0.01116125 -0.033483714 0.68972278
-0.011131017 -0.034629822 0.68931729
-0.011098269 -0.035761088 0.68887806
-0.010780266 -0.03593421 0.68461293
-0.010805074 -0.037217468 0.68494564
-0.010894967 -0.038737655 0.68615127
-0.010980776 -0.040262848 0.68730223
-0.010971838 -0.04144913 0.68718231
-0.010958765 -0.042617381 0.68700695
-0.010935466 -0.043741822 0.6866945
-0.010912151 -0.044861078 0.68638182
-0.010888102 -0.04597199 0.68605924
-0.010882001 -0.04715535 0.6859774
-0.012209309 0.0305233 0.72424901
-0.012154429 0.028866768 0.72342092
-0.012122044 0.027274609 0.72293234
-0.012091672 0.025694817 0.72247404
-0.012061452 0.024122953 0.722018
-0.012031383 0.022558838 0.72156429
-0.012001463 0.021002591 0.72111279
-0.011971743 0.019454092 0.72066438
-0.011942117 0.017913193 0.72021735
-0.011912639 0.016379893 0.71977258
-0.011883154 0.014853984 0.71932769
-0.010988522 0.012362123 0.70582873
-0.010949653 0.010949701 0.70524228
-0.010982748 0.0096099377 0.70574158
-0.011216334 0.0084122419 0.70926619
-0.011404731 0.0071280003 0.71210885
-0.011526505 0.0057632923 0.71394628
-0.011434098 0.0042878091 0.71255201
-0.011238963 0.0028097332 0.7096076
-0.011050421 0.0013813376 0.70676273
-0.010668267 2.9802322e-08 0.70099646
-0.010608379 -0.0013260543 0.70009285
-0.010531373 -0.0026328564 0.69893092
-0.010373849 -0.0038901865 0.69655401
-0.010239983 -0.0051199794 0.69453418
-0.010199031 -0.0063743591 0.69391626
-0.010167099 -0.0076253116 0.69343448
-0.01013581 -0.0088688135 0.69296229
-0.010104677 -0.010104656 0.6924926
-0.010073771 -0.011332989 0.69202626
-0.010043053 -0.012553781 0.69156271
-0.010012485 -0.013767153 0.69110149
-0.0099821398 -0.014973164 0.69064355
-0.0099519417 -0.016171902 0.69018793
-0.0099234842 -0.017366081 0.6897586
-0.0099028032 -0.018567741 0.68944651
-0.0098981839 -0.019796342 0.68937683
-0.010521925 -0.022359043 0.69878834
-0.010504193 -0.023634434 0.69852078
-0.010483632 -0.024898618 0.69821054
-0.010453826 -0.02613458 0.69776082
-0.010213796 -0.026811182 0.694139
-0.010048971 -0.02763465 0.691652
-0.010021293 -0.028811187 0.69123435
-0.009993731 -0.029981196 0.69081849
-0.0099664638 -0.031145185 0.6904071
-0.00993938 -0.032302976 0.68999839
-0.0099132564 -0.03345722 0.68960428
-0.0098872343 -0.034605324 0.68921161
-0.0098615587 -0.035748154 0.68882418
-0.009737337 -0.036514997 0.68694985
-0.0097074127 -0.037616193 0.68649828
-0.0097039565 -0.038815826 0.68644619
-0.0097546605 -0.040237933 0.68721122
-0.0097451201 -0.041416764 0.68706727
-0.0097394865 -0.042610228 0.68698221
-0.009681548 -0.045987338 0.68610805
-0.0096715437 -0.047148734 0.68595707
-0.0097464863 -0.04873246 0.68708789
-0.010739657 0.036821663 0.72522354
-0.010749957 0.035321265 0.72540116
-0.010732264 0.03373 0.72509599
-0.010705058 0.032115221 0.72462684
-0.010678034 0.030508697 0.72416091
-0.0106511 0.02891016 0.72369641
-0.010624303 0.02731967 0.7232343
-0.010597639 0.025737137 0.72277451
-0.010571109 0.024162531 0.72231698
-0.010544712 0.022595853 0.72186172
-0.010514989 0.021029979 0.72134924
-0.010480871 0.019464523 0.72076088
-0.010441951 0.017900497 0.72008973
-0.010338317 0.016245902 0.71830267
-0.010148139 0.01449734 0.7150231
-0.0095990198 0.012341619 0.70555395
-0.0095649706 0.010931402 0.70496678
-0.0095551638 0.0095551908 0.70479763
-0.0096551469 0.0082758367 0.70652187
-0.0096940128 0.0069242716 0.70719206
-0.0095444405 0.005453974 0.70461273
-0.0093888557 0.00402385 0.70192975
-0.0092384014 0.0026395619 0.69933528
-0.0090927612 0.0012989938 0.69682378
-0.0090474058 2.9802322e-08 0.69604164
-0.0090185897 -0.0012883544 0.69554472
-0.0089903874 -0.0025686622 0.69505847
-0.0089623621 -0.0038409829 0.69457513
-0.0089345109 -0.005105406 0.6940949
-0.0089068646 -0.006362021 0.69361818
-0.0088793561 -0.0076108575 0.69314378
-0.0088520171 -0.008852005 0.69267237
-0.0088248784 -0.010085553 0.6922043
-0.0087981923 -0.011311948 0.69174421
-0.0087723313 -0.012531906 0.69129825
-0.0087468103 -0.01374495 0.69085807
-0.008725849 -0.01495856 0.69049662
-0.0091784392 -0.017045647 0.69830126
-0.0092814807 -0.018562943 0.70007813
-0.0092772329 -0.019879758 0.70000488
-0.0092546064 -0.021153361 0.69961476
-0.0092301276 -0.022415996 0.69919258
-0.0092038624 -0.023667067 0.69873971
-0.0091772964 -0.024909794 0.69828159
-0.0091413911 -0.026118219 0.69766241
-0.0089780763 -0.026934206 0.69484615
-0.0087872269 -0.027616978 0.69155502
-0.0087631028 -0.028793007 0.69113904
-0.0087399585 -0.02996555 0.69073993
-0.0087169996 -0.031132132 0.69034404
-0.008694564 -0.032294065 0.68995714
-0.008672893 -0.0334526 0.68958342
-0.0086513301 -0.034605324 0.68921161
-0.0086294757 -0.035750687 0.68883479
-0.0085668946 -0.036715239 0.68775553
-0.0085063437 -0.03767094 0.68671143
-0.0084893024 -0.038808227 0.68641752
-0.0085300896 -0.040213287 0.68712091
-0.0085267406 -0.041415572 0.68706316
-0.0085273981 -0.042636961 0.68707442
-0.010255884 -0.052744538 0.71688116
-0.010230046 -0.054073095 0.71643561
-0.0084788259 -0.046027929 0.68623692
-0.0084674917 -0.047176003 0.68604147
-0.0085006952 -0.048575401 0.68661404
-0.0094022006 0.045443982 0.72918248
-0.009276568 0.043290704 0.72665489
-0.0091862343 0.041338056 0.72483748
-0.0091103651 0.039478242 0.72331113
-0.0090452647 0.037688643 0.72200143
-0.0090869768 0.036347926 0.72284061
-0.0092150224 0.035324275 0.72541678
-0.0092144525 0.033786356 0.72540522
-0.009191094 0.032168865 0.72493529
-0.0091678137 0.030559391 0.72446686
-0.0091446517 0.028958082 0.72400093
-0.0091157025 0.027347118 0.72341853
-0.0090870559 0.025746703 0.72284222
-0.0090423226 0.02411285 0.72194225
-0.0088984426 0.022246122 0.71904761
-0.0087340437 0.020379484 0.71574014
-0.008575609 0.018580496 0.71255273
-0.0084565412 0.016913086 0.71015728
-0.0084216977 0.015439808 0.70945626
-0.0083881179 0.01398018 0.70878071
-0.0082056457 0.012308508 0.7051096
-0.0081542302 0.010872304 0.70407522
-0.008076678 0.0094228089 0.70251495
-0.0079467613 0.0079467893 0.69990122
-0.007865008 0.0065542161 0.69825649
-0.0078374222 0.0052249432 0.69770151
-0.0078124288 0.0039062202 0.69719869
-0.0077878274 0.0025959611 0.69670373
-0.0077633802 0.0012939274 0.69621193
-0.0077390862 2.9802322e-08 0.69572312
-0.007714944 -0.0012857914 0.69523746
-0.0076909517 -0.0025636256 0.69475478
-0.0076670516 -0.0038335025 0.69427395
-0.0076440289 -0.0050959885 0.6938107
-0.0076265521 -0.0063554347 0.69345909
-0.0076191938 -0.0076191723 0.6933111
-0.0081097297 -0.0094613433 0.70317996
-0.0080949618 -0.010793239 0.70288277
-0.0080792764 -0.012118906 0.70256728
-0.0075207958 -0.012534648 0.69133151
-0.0075061466 -0.013761252 0.69103676
-0.0075412532 -0.015082508 0.69174308
-0.0078582782 -0.017026275 0.69812113
-0.0079526417 -0.018556178 0.7000196
-0.0079484582 -0.019871145 0.69993538
-0.0079266084 -0.021137595 0.69949579
-0.00790371 -0.022393823 0.69903517
-0.007880914 -0.023642719 0.69857645
-0.0078578042 -0.024883032 0.69811159
-0.007832828 -0.026109427 0.69760907
-0.0077393162 -0.027087599 0.69572771
-0.0075335959 -0.027623206 0.691589
-0.0075109331 -0.028791875 0.69113308
-0.0074920659 -0.029968262 0.69075352
-0.0074732937 -0.031138718 0.6903758
-0.0074546146 -0.032303303 0.69
-0.0074351011 -0.033457935 0.68960744
-0.0074137645 -0.034597576 0.68917823
-0.0073877033 -0.035707176 0.68865383
-0.007300931 -0.036504656 0.68690819
-0.0072612627 -0.037516505 0.68611008
-0.0072404328 -0.038615644 0.685691
-0.0073042307 -0.040173262 0.68697453
-0.007316689 -0.041461259 0.68722522
-0.0073173568 -0.042684585 0.68723863
-0.0087844618 -0.052706748 0.7167545
-0.0087599531 -0.05401969 0.71626139
-0.0072782976 -0.046095878 0.68645287
-0.0072675906 -0.047239333 0.68623739
-0.0072833574 -0.048555702 0.68655455
-0.0078824824 0.052024424 0.73032475
-0.0077945315 0.049885005 0.72820139
-0.007725317 0.047896951 0.72653043
-0.0076648882 0.045989364 0.72507149
-0.0076104286 0.044140488 0.72375673
-0.0075613414 0.042343527 0.72257167
-0.0075144102 0.040577859 0.72143865
-0.0074713021 0.038850814 0.72039795
-0.0074422737 0.037211388 0.71969712
-0.0075492831 0.036236554 0.72228062
-0.0076703704 0.035283715 0.72520387
-0.0076870336 0.033822954 0.7256062
-0.0076562748 0.032156348 0.72486359
-0.0075899479 0.030359834 0.72326231
-0.0074464846 0.028296649 0.71979874
-0.0073083751 0.026310146 0.71646452
-0.0071752653 0.024395913 0.71325099
-0.0071206247 0.022786021 0.71193182
-0.0070918202 0.021275491 0.71123642
-0.0070632189 0.01977703 0.7105459
-0.0070348759 0.018290669 0.7098617
-0.0070075225 0.016818106 0.70920128
-0.0069807461 0.015357643 0.70855486
-0.0069549526 0.013909966 0.70793217
-0.0066232351 0.011921823 0.69992375
-0.0066016414 0.010562629 0.69940251
-0.0065802136 0.0092122853 0.6988852
-0.0065592211 0.0078710914 0.69837832
-0.0065384116 0.0065384507 0.69787592
-0.0065177334 0.0052142143 0.69737673
-0.0064972588 0.0038983822 0.69688249
-0.0064770812 0.0025908649 0.69639528
-0.0064571006 0.0012914538 0.69591296
-0.0064376006 -0 0.6954422
-0.0064183366 -0.0012836158 0.69497705
-0.0064033153 -0.002561301 0.69461441
-0.0066288705 -0.0039773285 0.70005983
-0.0067928545 -0.0054342747 0.70401883
-0.0068092546 -0.0068092644 0.70441467
-0.0067939167 -0.0081526935 0.7040444
-0.0067752912 -0.0094853938 0.7035948
-0.0067553748 -0.010808587 0.70311391
-0.0067353137 -0.012123555 0.70262969
-0.0063155382 -0.012631059 0.69249535
-0.0063296887 -0.013925284 0.69283694
-0.0063380939 -0.015211374 0.69303989
-0.0064993002 -0.016898155 0.69693178
-0.0066148378 -0.018521547 0.69972104
-0.0066173319 -0.019851983 0.6997813
-0.0065980065 -0.021113604 0.69931471
-0.0065772738 -0.022362709 0.69881427
-0.0065547419 -0.023597032 0.6982702
-0.0065301787 -0.024814665 0.6976772
-0.006502925 -0.026011676 0.69701928
-0.0064281924 -0.026998371 0.69521505
-0.0062834914 -0.027647346 0.69172168
-0.0062568118 -0.028781325 0.69107759
-0.0062352768 -0.02992934 0.69055772
-0.0062092706 -0.031046361 0.68992984
-0.0061645019 -0.032055408 0.68884897
-0.0061044605 -0.032964081 0.68739951
-0.0060455562 -0.03385511 0.6859774
-0.0059877783 -0.034729064 0.68458247
-0.0059556551 -0.035733908 0.68380696
-0.0059370934 -0.036809951 0.68335891
-0.0059267036 -0.037930906 0.68310803
-0.0060034827 -0.039622962 0.68496168
-0.0061071855 -0.041528881 0.68746531
-0.0061072069 -0.042750448 0.68746579
-0.0060976902 -0.043903351 0.68723607
-0.0072864592 -0.053919762 0.71593547
-0.007266528 -0.055225581 0.71545428
-0.0060680229 -0.047330558 0.6865198
-0.0060756411 -0.048605114 0.68670374
-0.0064473613 0.061249942 0.73459107
-0.006354101 0.058775485 0.73177671
-0.0062907734 0.056616992 0.72986567
-0.0062376121 0.054579109 0.72826135
-0.0061920653 0.05263257 0.72688681
-0.0061491919 0.050730854 0.72559309
-0.0061103175 0.048882544 0.72441995
-0.0060731787 0.047067136 0.72329915
-0.0060388227 0.045291185 0.72226232
-0.0060050092 0.043536335 0.72124195
-0.0059740618 0.04181844 0.72030801
-0.0059435586 0.040119052 0.71938753
-0.0059138434 0.038439989 0.71849072
-0.0059256433 0.037035316 0.71884686
-0.0060018199 0.036010951 0.72114569
-0.0059823156 0.034398317 0.72055709
-0.0058709024 0.032290012 0.71719491
-0.0057818331 0.030354619 0.71450698
-0.0057572364 0.028786182 0.71376473
-0.005733747 0.027235329 0.71305591
-0.0057111294 0.025700092 0.71237338
-0.0056886892 0.024176925 0.71169615
-0.005666425 0.022665709 0.71102422
-0.0056443335 0.021166265 0.71035761
-0.0056229602 0.019680351 0.70971262
-0.0056018834 0.01820612 0.70907652
-0.0055814348 0.016744345 0.7084595
-0.0055615576 0.015294284 0.70785964
-0.0053063561 0.013265878 0.70015824
-0.0052874009 0.01189664 0.69958621
-0.0052706986 0.010541409 0.69908214
-0.0052541015 0.0091946721 0.69858134
-0.0052377861 0.0078566968 0.69808888
-0.0052246926 0.0065309107 0.69769382
-0.005218396 0.0052183867 0.69750381
-0.005560067 0.0041700602 0.70781457
-0.0055497657 0.002774924 0.70750374
-0.0055386852 0.0013846755 0.70716935
-0.0051510157 2.9802322e-08 0.69547045
-0.0051406897 -0.0012851655 0.69515884
-0.005160138 -0.0025800467 0.69574571
-0.0053135375 -0.0039851367 0.70037496
-0.0054287435 -0.0054287314 0.70385158
-0.0054432219 -0.0068040192 0.70428848
-0.0054301433 -0.0081452131 0.70389384
-0.0054145106 -0.0094753802 0.70342207
-0.0053984639 -0.010796905 0.70293778
-0.0053823041 -0.012110174 0.70245022
-0.0053663859 -0.013415962 0.70196974
-0.0051130601 -0.014060885 0.69432497
-0.0051029418 -0.015308797 0.69401962
-0.0051496034 -0.01673615 0.69542778
-0.0052577984 -0.018402308 0.69869292
-0.0052689603 -0.019758612 0.69902968
-0.0052396222 -0.020958483 0.69814432
-0.0051915552 -0.02206412 0.69669378
-0.0051383143 -0.0231224 0.69508713
-0.0050861724 -0.024159312 0.69351357
-0.0050350972 -0.025175482 0.69197226
-0.0049850014 -0.026171237 0.69046044
-0.00493591 -0.027147472 0.68897903
-0.004887776 -0.028104722 0.68752646
-0.0048434394 -0.029060632 0.68618846
-0.0048239394 -0.030149609 0.68560004
-0.0048103994 -0.031267613 0.68519145
-0.0047991211 -0.032394052 0.68485105
-0.0047883247 -0.033518255 0.68452525
-0.0047777737 -0.034638822 0.68420684
-0.0047669914 -0.035752416 0.68388146
-0.0047564036 -0.036862105 0.68356192
-0.004748052 -0.037984401 0.68330991
-0.0047637727 -0.039301127 0.68378437
-0.0048953337 -0.041610301 0.68775451
-0.0048946096 -0.042827815 0.6877327
-0.0048900461 -0.044010401 0.68759495
-0.0058161411 -0.053799301 0.71554232
-0.0049299924 -0.046834916 0.68880045
-0.0048677986 -0.047461033 0.68692362
-0.0048697772 -0.04869777 0.68698329
-0.0048143715 0.065796435 0.73374015
-0.0047626146 0.063501567 0.73165756
-0.0047245375 0.06141901 0.73012549
-0.0046901018 0.059407979 0.72873986
-0.0046593477 0.057465315 0.72750241
-0.004629591 0.055555105 0.72630507
-0.0046027303 0.05369851 0.72522432
-0.0045764409 0.051866323 0.72416651
-0.0045517613 0.050069422 0.7231735
-0.0045280745 0.048299491 0.72222042
-0.0045047686 0.04654932 0.72128266
-0.004482897 0.044828981 0.7204026
-0.0044615227 0.043128073 0.71954256
-0.0044408999 0.041448385 0.71871281
-0.004420917 0.039788306 0.71790874
-0.0044014477 0.0381459 0.71712536
-0.0043827756 0.036523163 0.71637404
-0.0043651932 0.034921587 0.71566653
-0.0043477151 0.033332527 0.71496332
-0.0043303762 0.031756133 0.71426564
-0.0043131574 0.030192137 0.7135728
-0.0042960928 0.028640658 0.71288615
-0.0042791623 0.027101368 0.71220499
-0.0042625391 0.02557528 0.71153611
-0.0042476021 0.024069786 0.71093506
-0.0042372942 0.022598952 0.71052027
-0.0042356928 0.021178454 0.71045589
-0.0043344456 0.020227432 0.71442938
-0.004325435 0.018743575 0.7140668
-0.0041731549 0.016692638 0.70793957
-0.0041585714 0.01524812 0.70735276
-0.0041449624 0.013816565 0.70680523
-0.0039591193 0.011877388 0.69932747
-0.0039472161 0.010525912 0.69884849
-0.003988523 0.00930655 0.7005105
-0.0041125673 0.008225143 0.70550174
-0.0041818442 0.0069697499 0.70828915
-0.0041916473 0.0055888891 0.70868367
-0.0041808207 0.0041808188 0.70824796
-0.0041680657 0.0027787387 0.70773476
-0.004155355 0.0013851225 0.7072233
-0.0041427384 -0 0.7067157
-0.0039044295 -0.0013014376 0.69712692
-0.0039075762 -0.0026050508 0.69725347
-0.003963877 -0.0039638579 0.6995188
-0.004060219 -0.0054136217 0.70339537
-0.0040761428 -0.0067935586 0.70403606
-0.004067935 -0.0081358254 0.70370579
-0.0040539186 -0.0094591379 0.70314187
-0.0040394189 -0.010771781 0.7025584
-0.0040227547 -0.012068242 0.70188791
-0.0040037194 -0.013345689 0.70112193
-0.0038382544 -0.01407361 0.69446421
-0.0038261386 -0.015304565 0.69397676
-0.0038191439 -0.016549587 0.69369519
-0.0038359805 -0.017901212 0.69437265
-0.0038180668 -0.019090325 0.69365191
-0.0037796637 -0.020158172 0.69210672
-0.0037420392 -0.021204889 0.69059283
-0.003705156 -0.022230923 0.68910873
-0.0036771859 -0.023288816 0.68798327
-0.0036643243 -0.024428815 0.68746585
-0.0036545738 -0.025582016 0.68707347
-0.0036461498 -0.026738405 0.68673444
-0.0036379804 -0.027891189 0.68640578
-0.0036298602 -0.029038876 0.68607908
-0.0036217635 -0.030181348 0.68575323
-0.0036135525 -0.031317443 0.6854229
-0.0036054659 -0.032449186 0.68509752
-0.0035975273 -0.033576906 0.68477809
-0.00358971 -0.034700513 0.6844635
-0.0035819761 -0.035819739 0.68415236
-0.0035743485 -0.036934882 0.6838454
-0.0035670709 -0.038048744 0.68355262
-0.0035739075 -0.039312959 0.6838277
-0.003679717 -0.041703433 0.68808514
-0.003678743 -0.042918652 0.68804598
-0.0036789118 -0.044146925 0.68805277
-0.0036743213 -0.045316607 0.68786806
-0.0036693288 -0.046478182 0.68766719
-0.0036640796 -0.047633022 0.68745595
-0.003662792 -0.048837185 0.68740416
-0.0031621752 0.066405684 0.73087889
-0.0031385254 0.064339817 0.72945154
-0.00311924 0.062384784 0.72828752
-0.0031010616 0.0604707 0.72719038
-0.0030835865 0.058588147 0.72613567
-0.0030672003 0.056743234 0.72514665
-0.003051081 0.054919481 0.72417378
-0.0030358464 0.053127348 0.72325426
-0.0030210782 0.051358342 0.722363
-0.0030066615 0.049609929 0.72149283
-0.0029929227 0.047886759 0.72066367
-0.0029794623 0.046181679 0.71985126
-0.0029663376 0.044495046 0.71905905
-0.0029539557 0.042832375 0.71831173
-0.0029420129 0.04118821 0.71759093
-0.0029301662 0.039557219 0.71687597
-0.0029184269 0.037939578 0.71616739
-0.002906769 0.036334634 0.71546388
-0.0028952041 0.034742475 0.71476579
-0.0028837428 0.033163041 0.71407402
-0.0028727043 0.03159979 0.71340781
-0.0028632237 0.030063868 0.71283561
-0.002862351 0.028623521 0.71278298
-0.002932033 0.027854353 0.71698856
-0.0029265261 0.026338756 0.71665621
-0.0029186229 0.024808288 0.71617925
-0.0029092515 0.023274004 0.7156136
-0.0028988998 0.021741778 0.71498889
-0.0028885133 0.020219594 0.71436197
-0.00287776 0.018705487 0.71371293
-0.002775315 0.016651928 0.70752978
-0.0027666306 0.0152165 0.70700568
-0.0027619465 0.013809741 0.70672297
-0.0026424038 0.011890799 0.69950795
-0.0026376899 0.010550767 0.69922346
-0.0026771978 0.0093702376 0.70160788
-0.002736788 0.0082103908 0.70520449
-0.0027835856 0.0069589615 0.70802903
-0.0027907733 0.0055815279 0.70846283
-0.002784132 0.0041762292 0.70806199
-0.0027756253 0.0027756393 0.70754856
-0.0027671703 0.0013835728 0.70703828
-0.0027585695 2.9802322e-08 0.70651919
-0.0026268123 -0.0013133883 0.69856691
-0.0026214023 -0.0026213825 0.6982404
-0.0026256016 -0.0039383769 0.69849384
-0.0026755075 -0.005351007 0.7015059
-0.002697964 -0.0067449212 0.70286131
-0.002684105 -0.0080523193 0.70202482
-0.0026556621 -0.0092948079 0.70030808
-0.0026278056 -0.01051119 0.69862688
-0.0026005276 -0.011702389 0.69698048
-0.0025618738 -0.012809366 0.69464755
-0.0025422769 -0.013982505 0.6934647
-0.0025220164 -0.01513207 0.69224185
-0.0024968889 -0.016229779 0.69072533
-0.0024826524 -0.017378539 0.68986607
-0.0024746868 -0.018560141 0.68938529
-0.002468551 -0.01974839 0.68901491
-0.0024628821 -0.020934492 0.68867284
-0.0024572997 -0.022115707 0.6883359
-0.0024517339 -0.023291498 0.68799996
-0.0024462021 -0.024462044 0.68766618
-0.0024406866 -0.025627196 0.68733323
-0.0024351361 -0.026786476 0.68699825
-0.0024296532 -0.027940989 0.68666726
-0.0024242881 -0.029091448 0.68634349
-0.0024191232 -0.030239046 0.68603176
-0.0024153565 -0.031399608 0.68580443
-0.0024968081 -0.033706874 0.69072044
-0.0024920269 -0.034888357 0.69043189
-0.0024872017 -0.036064446 0.69014072
-0.0024823598 -0.037235349 0.68984842
-0.0023915011 -0.037068278 0.68436462
-0.0023883451 -0.038213521 0.68417412
-0.0023948718 -0.039515346 0.68456805
-0.0024587517 -0.041798741 0.68842351
-0.002459561 -0.043042332 0.68847239
-0.0024621142 -0.04431805 0.68862653
-0.0024588648 -0.045488983 0.68843037
-0.0024555111 -0.046654701 0.68822795
-0.0024526771 -0.047827184 0.68805695
-0.0024510249 -0.049020499 0.68795723
-0.0024677096 -0.050588012 0.68896413
-0.0015586825 0.065464705 0.72817439
-0.0015503095 0.063562721 0.72716367
-0.0015423065 0.061692268 0.72619766
-0.0015346839 0.05985266 0.72527748
-0.0015271363 0.058031231 0.72436637
-0.0015200016 0.056240052 0.7235052
-0.0015130584 0.054470092 0.72266704
-0.001506198 0.05271697 0.72183895
-0.0014997101 0.050990164 0.72105581
-0.001493387 0.049281776 0.72029251
-0.0014872826 0.047593057 0.71955568
-0.0014812277 0.045918077 0.71882474
-0.0014752282 0.044256836 0.71810055
-0.001469271 0.042608857 0.71738148
-0.0014634418 0.040976375 0.71667784
-0.0014577748 0.039359957 0.71599376
-0.0014523215 0.037760347 0.71533549
-0.0014469571 0.03617397 0.71468794
-0.0014416979 0.034600765 0.71405309
-0.0014365659 0.03304106 0.71343362
-0.0014315116 0.031493247 0.71282351
-0.0014394523 0.030228496 0.71378207
-0.0014597469 0.029194951 0.71623182
-0.0014655095 0.027844697 0.71692741
-0.0014605506 0.02628994 0.71632886
-0.0014553142 0.024740368 0.71569675
-0.001450079 0.023201317 0.71506476
-0.0014448873 0.021673322 0.71443808
-0.0014397445 0.020156443 0.71381724
-0.0013902392 0.018073112 0.70784146
-0.0013857537 0.01662907 0.70730001
-0.0013827262 0.015210003 0.70693457
-0.0014149391 0.014149398 0.710823
-0.0014162655 0.012746394 0.71098316
-0.0013396259 0.010717034 0.70173186
-0.0013392851 0.009375006 0.70169079
-0.0013626039 0.0081756413 0.70450556
-0.0013875356 0.0069377124 0.70751512
-0.0013930817 0.0055723488 0.7081846
-0.0013895164 0.00416857 0.70775425
-0.0013841639 0.0027683377 0.70710814
-0.0013782016 0.0013782084 0.70638841
-0.0013708882 2.9802322e-08 0.70550561
-0.0013143949 -0.0013144016 0.69868624
-0.001309644 -0.0026192665 0.69811279
-0.0013060161 -0.0039180219 0.69767487
-0.0013081057 -0.0052323937 0.69792706
-0.0013014618 -0.0065073073 0.69712514
-0.0012880786 -0.0077284575 0.69550955
-0.0012749725 -0.0089248121 0.69392753
-0.0012628091 -0.010102451 0.69245934
-0.0012574806 -0.011317313 0.69181609
-0.0012538324 -0.012538314 0.69137567
-0.0012508173 -0.013758987 0.69101179
-0.0012479333 -0.01497519 0.69066364
-0.001245067 -0.01618582 0.69031763
-0.0012422093 -0.017390907 0.68997264
-0.0012393692 -0.01859054 0.68962985
-0.0012365376 -0.0197846 0.68928808
-0.0012337234 -0.020973295 0.68894833
-0.0012309045 -0.022156268 0.68860805
-0.0012281288 -0.023334444 0.68827301
-0.001225681 -0.024513632 0.68797755
-0.0012252143 -0.025729507 0.68792129
-0.0013025058 -0.028655142 0.69725114
-0.001263406 -0.029058307 0.69253135
-0.0012600021 -0.030240029 0.69212043
-0.0012575488 -0.031438679 0.69182432
-0.0012550914 -0.032632351 0.69152772
-0.0012526752 -0.033822209 0.69123602
-0.0012503627 -0.035010129 0.69095695
-0.0012480946 -0.036194742 0.69068313
-0.0012459062 -0.037377179 0.6904189
-0.0012416899 -0.038492382 0.68990999
-0.0012271398 -0.039268434 0.68815356
-0.0012263256 -0.040468723 0.68805534
-0.0012316854 -0.0418773 0.68870234
-0.0012352145 -0.043232501 0.68912834
-0.0012365464 -0.044515669 0.68928915
-0.0012351969 -0.045702279 0.68912625
-0.0012338372 -0.046885818 0.6889621
-0.0012326468 -0.048073202 0.6888184
-0.0012318077 -0.049272299 0.68871713
-0.0012375946 -0.050741374 0.68941563
0 0.066761017 0.72743791
0 0.064860344 0.72643757
0 0.063022226 0.72557253
0 0.061201125 0.72471547
0 0.059404582 0.72389042
0 0.057631731 0.72309756
0 0.055876106 0.72231781
0 0.054141253 0.72156435
0 0.052420646 0.72081703
0 0.050716341 0.72008359
0 0.049028069 0.71936452
0 0.047354907 0.71865726
0 0.045701444 0.71798122
0 0.044060975 0.71731251
0 0.042434335 0.71665478
0 0.040822536 0.71601439
0 0.039224327 0.71538752
0 0.037638307 0.71476871
0 0.036065072 0.71416217
0 0.034504414 0.71356851
0 0.032956034 0.71298742
0 0.031417668 0.71240878
0 0.030086547 0.71296597
0 0.028890073 0.71439171
0 0.027640313 0.7156291
0 0.026198536 0.71571589
0 0.024668247 0.71518463
0 0.023146331 0.71465015
0 0.021631062 0.71409792
0 0.01950112 0.70816708
0 0.018054694 0.70767045
0 0.016625494 0.70726407
0 0.015589744 0.71110165
0 0.014196515 0.71139175
0 0.01273936 0.71088839
0 0.010780603 0.70269072
0 0.0094087124 0.70227236
0 0.0081157982 0.70330119
0 0.0068521202 0.70544946
0 0.0055046976 0.70614326
0 0.004086256 0.70444238
0 0.0026935041 0.70259118
0 0.0013317764 0.70078111
0 -0 0.69877934
0 -0.0013023317 0.69723576
0 -0.0025784969 0.69565094
0 -0.0038367808 0.69440675
0 -0.0050971806 0.69384629
0 -0.0063540339 0.69342542
0 -0.0076069534 0.69306558
0 -0.0088540912 0.69270849
0 -0.010095417 0.69235301
0 -0.011330932 0.69199872
0 -0.012560755 0.69164652
0 -0.013784856 0.69129544
0 -0.015003324 0.69094658
0 -0.016216159 0.69059873
0 -0.01742357 0.69025415
0 -0.018639177 0.69002146
0 -0.021341026 0.70103049
0 -0.022642434 0.70080024
0 -0.023933113 0.70052403
0 -0.025218159 0.70024079
0 -0.026497245 0.69995004
0 -0.027774274 0.69967484
0 -0.028927505 0.69874567
0 -0.029221386 0.69338733
0 -0.030354053 0.69269401
0 -0.031560898 0.69241446
0 -0.032764047 0.69213927
0 -0.033964008 0.69186997
0 -0.035161197 0.69160819
0 -0.036356002 0.69135445
0 -0.037546933 0.69110203
0 -0.038692594 0.69068956
0 -0.039455324 0.68885851
0 -0.040601432 0.6885407
0 -0.041924119 0.68886852
0 -0.043460816 0.6899159
0 -0.044752479 0.69008315
0 -0.045963705 0.68997914
0 -0.047168523 0.68986011
0 -0.048372984 0.68974626
0 -0.049579561 0.68964428
0 -0.051010579 0.69020838
0.0015406447 0.066247761 0.72599697
0.0015339251 0.064424872 0.72518593
0.0015273175 0.062620044 0.7243883
0.0015209796 0.060839206 0.72362328
0.0015147866 0.059076667 0.72287571
0.0015086437 0.057328463 0.72213417
0.0015025897 0.055595815 0.72140336
0.0014968223 0.053885609 0.72070718
0.0014911121 0.052188963 0.72001791
0.0014854578 0.050505579 0.71933538
0.0014799723 0.048839122 0.71867323
0.0014746398 0.047188461 0.7180295
0.0014693642 0.045550287 0.71739268
0.0014641571 0.043924719 0.71676415
0.0014590726 0.042313099 0.7161504
0.0014541388 0.040715903 0.71555483
0.0014492564 0.039129943 0.71496552
0.0014444067 0.037554592 0.71438003
0.0014396372 0.035990983 0.71380436
0.0014368511 0.034484446 0.71346802
0.0014305274 0.032902122 0.71270472
0.0014260303 0.031372666 0.7121619
0.0014216021 0.029853672 0.71162724
0.0014189781 0.028379589 0.71131057
0.0014280581 0.027133107 0.71240664
0.0014380821 0.025885522 0.71361661
0.0014461139 0.024583966 0.71458614
0.001444707 0.023115337 0.71441633
0.0013971654 0.0209575 0.70867753
0.0013924621 0.019494474 0.70810986
0.0013885559 0.018051237 0.7076382
0.0014022738 0.016827285 0.7092942
0.0014191577 0.015610725 0.71133226
0.0014162944 0.014162958 0.71098661
0.0014069866 0.012662858 0.70986307
0.0013465929 0.010772765 0.70257294
0.0013415033 0.009390533 0.70195854
0.0013385628 0.0080313683 0.70160359
0.001335045 0.0066752434 0.70117891
0.0013202982 0.0052811801 0.69939888
0.0013058835 0.0039176643 0.6976589
0.0012961797 0.0025923848 0.69648749
0.0012916746 0.0012916923 0.69594371
0.0012883508 2.9802322e-08 0.69554245
0.0012853103 -0.0012852848 0.69517541
0.0012822652 -0.00256446 0.69480789
0.0012792344 -0.0038376749 0.69444203
0.001276218 -0.0051048696 0.69407791
0.0012732157 -0.0063660741 0.69371551
0.0012702276 -0.0076213181 0.69335479
0.0012672581 -0.0088708103 0.69299632
0.0012642979 -0.010114372 0.69263899
0.0012616628 -0.011354983 0.69232094
0.0012587332 -0.012587339 0.69196731
0.0012558943 -0.013814837 0.69162458
0.0012533122 -0.015039742 0.69131291
0.0012510425 -0.016263545 0.69103897
0.0012909787 -0.018073708 0.69585967
0.001333426 -0.020001352 0.70098352
0.0013399565 -0.021439284 0.70177174
0.0013384699 -0.022753954 0.70159233
0.0013354913 -0.024038851 0.70123285
0.001332245 -0.025312632 0.70084095
0.0013287197 -0.026574373 0.70041537
0.0013251976 -0.027829111 0.69999027
0.0013209407 -0.029060692 0.69947636
0.0012880882 -0.029626012 0.69551075
0.0012705714 -0.030493677 0.69339627
0.0012684193 -0.031710446 0.69313651
0.0012662698 -0.032923013 0.69287705
0.0012639116 -0.034125596 0.69259238
0.0012611684 -0.035312682 0.69226122
0.0012581225 -0.036485553 0.69189358
0.0012547922 -0.03764376 0.6914916
0.0012483682 -0.038699389 0.69071615
0.0012319519 -0.039422423 0.68873441
0.0012279378 -0.04052192 0.68824995
0.0012292758 -0.041795373 0.68841147
0.0012491805 -0.043721318 0.6908142
0.0012505382 -0.045019358 0.69097805
0.0012510651 -0.046289384 0.69104171
0.0012504122 -0.047515661 0.69096285
0.0012497646 -0.048740804 0.69088471
0.0012491625 -0.049966484 0.69081199
0.0012528377 -0.051366329 0.69125569
0.0030895085 0.067969233 0.72649306
0.0030646168 0.065889299 0.72499073
0.0030520994 0.064094096 0.72423524
0.0030402159 0.062324435 0.72351801
0.0030284377 0.06056878 0.72280717
0.0030167506 0.058826655 0.72210175
0.0030053742 0.057102144 0.72141516
0.0029944058 0.055396557 0.72075313
0.002983517 0.053703368 0.72009593
0.0029727328 0.052022845 0.71944499
0.0029622281 0.050357878 0.71881104
0.0029520858 0.048709422 0.7181989
0.0029420252 0.047072411 0.71759164
0.0029320207 0.045446306 0.71698785
0.0029221699 0.04383257 0.71639329
0.0029126168 0.04223296 0.71581674
0.0029032354 0.040645331 0.71525049
0.0028939382 0.039068162 0.71468937
0.0028848681 0.037503272 0.71414196
0.0028971473 0.036214352 0.71488309
0.0029486162 0.035383403 0.71798944
0.0029513461 0.033940494 0.71815419
0.0028569147 0.031426072 0.7124548
0.0028415534 0.029836327 0.71152771
0.0028332239 0.028332293 0.71102488
0.0028253107 0.026840478 0.71054733
0.0028242543 0.025418341 0.71048355
0.0028435765 0.024170429 0.71164978
0.002859642 0.022877127 0.71261942
0.0027940047 0.020955056 0.70865786
0.0027863199 0.019504279 0.70819402
0.0027788773 0.018062711 0.70774484
0.0027782996 0.01666984 0.70770997
0.0027669058 0.015218019 0.70702225
0.0027575844 0.013787955 0.7064597
0.0027503704 0.012376666 0.70602429
0.0026470739 0.010588318 0.69978976
0.0026284717 0.0091996491 0.69866705
0.0026194656 0.0078584254 0.69812346
0.0026126704 0.0065317154 0.69771332
0.0026063111 0.0052126646 0.69732958
0.0026000994 0.0039001703 0.69695467
0.0025939271 0.0025939345 0.69658208
0.0025877838 0.0012938976 0.69621134
0.0025816599 -0 0.69584173
0.0025755174 -0.0012877584 0.69547099
0.002569404 -0.0025694072 0.69510204
0.0025633385 -0.0038449764 0.69473588
0.0025584314 -0.0051168799 0.69443977
0.0027166742 -0.0067916512 0.70399058
0.0027395282 -0.0082185864 0.70536995
0.0027402737 -0.0095909536 0.70541489
0.0027357321 -0.010942906 0.70514077
0.0027307763 -0.012288451 0.70484173
