# .PCD v0.7 - Point Cloud Data file format
VERSION 0.7
FIELDS x y z
SIZE 4 4 4
TYPE F F F
COUNT 1 1 1
WIDTH 170
HEIGHT 1
VIEWPOINT 0 0 0 1 0 0 0
POINTS 170
DATA ascii
-0.015275453 0.009165287 0.66295213
-0.014214347 0.0091377795 0.66258359
-0.019441154 0.0040928721 0.66353816
-0.013273153 0.01327315 0.66327178
-0.010294941 0.018530905 0.66429567
-0.017701482 0.0020825267 0.66571641
-0.0083962576 0.015743017 0.66671449
-0.022179186 2.9802322e-08 0.66751349
-0.028456241 0.0021079183 0.66724592
-0.0095287086 0.0021175146 0.66782665
-0.0095110023 0.0073974431 0.66758919
-0.027642099 -0 0.66835928
-0.012790608 -0 0.66868836
-0.012790608 -0 0.66868836
-0.013915786 0.0010704696 0.66923887
-0.016099777 0.028979629 0.66958576
-0.018356301 -0.0010797679 0.67036605
-0.018356301 -0.0010797679 0.67036605
-0.0054151844 0.018411666 0.67075884
-0.0054605603 0.021842241 0.67185432
-0.0054605603 0.021842241 0.67185432
-0.010955831 -0.0032867491 0.67227328
-0.036575984 0.0077585578 0.67381603
-0.0088684326 0.025496721 0.67383909
-0.0099656051 0.026574969 0.67368639
-0.026773741 -0.0044623017 0.67468625
-0.026747551 -0.0033434331 0.67455459
-0.0044548674 -0.0022274256 0.67446226
-0.0055614007 0.0066736937 0.67428887
-0.0056288433 0.0045031011 0.67591703
-0.02359291 0.030333757 0.67563981
-0.02359291 0.030333757 0.67563981
-0.0033812607 0.011270881 0.67607617
-0.038326923 0.012399912 0.67609739
0.0011377451 0.019341707 0.67736274
-0.0022920992 0.010314465 0.67836517
-0.037071582 0.017377317 0.67986643
-0.013876213 0.033534199 0.6796087
-0.024352826 -0.0069579482 0.68000793
-0.035990488 0.010448873 0.68016785
-0.03498897 0.022159666 0.6808095
-0.0034817525 0.027854055 0.68011963
-0.029305907 0.026961476 0.68152624
-0.0224228 -0.0070808828 0.68248117
-0.033190217 0.022521943 0.68311101
-0.02611161 0.02729851 0.68329519
-0.026419707 0.026419729 0.68498564
-0.019147823 0.027525038 0.68448389
-0.019147823 0.027525038 0.68448389
-0.020423414 -0.0072082281 0.68504387
0.0012126347 0.012126356 0.68640268
-0.031648561 0.020693302 0.6869601
-0.028026259 0.024370641 0.68711472
-0.0012385916 -0.0074315667 0.68953604
-0.018742897 -0.0099961758 0.69085592
-0.031221317 0.016235083 0.69077462
0.0012522463 0.0025044978 0.69118428
0.0012522463 0.0025044978 0.69118428
0.0088197589 0.012599677 0.69211608
-0.017644763 0.021425784 0.69216126
-0.026684245 0.011436105 0.6934092
-0.012765087 -0.010212064 0.69411302
-0.012765087 -0.010212064 0.69411302
-0.02816348 0.017922223 0.69455355
-0.02816348 0.017922223 0.69455355
0.0013491182 -0.014840275 0.7028777
0.0080922591 0.0013487041 0.70282847
0.0080922591 0.0013487041 0.70282847
0.012120182 0.0094268322 0.70258427
-0.0096599786 -0.013799965 0.70660514
-0.0096599786 -0.013799965 0.70660514
0.015410024 -0.021013618 0.70912969
0.014228362 -0.017074019 0.71177626
0.0099327248 -0.014189601 0.71130848
0.0099327248 -0.014189601 0.71130848
0.014381892 -0.0071909428 0.7136296
0.018784394 0.0043348372 0.71444607
0.018939095 -0.0063129961 0.73053735
0.0221154 -0.0031593144 0.73070794
0.024603423 -0 0.7380178
0.028087819 -0.021065861 0.75193101
0.034033637 -0.016121179 0.75624704
-0.012249026 0.014801502 0.66324043
-0.015630713 0.0031261444 0.665811
-0.012457502 0.021282315 0.66533756
-0.017443491 0.0010572821 0.66764736
-0.0089626573 0.00052691996 0.66729933
-0.01496346 -0.0026718676 0.66904259
-0.0069284788 0.01119376 0.6687119
-0.0071068867 0.015283465 0.66874403
-0.0096093751 0.023489594 0.66890854
-0.014000885 -0.0043079555 0.6700291
-0.024870548 -0.0010813177 0.67055261
-0.018561881 0.029480666 0.67182577
-0.025552342 -0.0033328831 0.67413086
-0.008948369 0.026845127 0.67504525
-0.030524433 -0.0028254986 0.67649233
-0.038705982 0.018784687 0.67744315
-0.024555851 0.029695898 0.67789435
-0.01251827 0.02958867 0.67739642
-0.034501657 0.0069003105 0.67884868
0.0023108493 0.019062996 0.67949688
-0.035322629 0.024959764 0.67907143
-0.032988377 0.027230244 0.6789242
-0.0011912494 -0.0059562325 0.68382126
-0.034945622 0.018955082 0.68302977
-0.02297765 0.02828069 0.68226552
-0.021652492 -0.008420378 0.68522954
-0.031251263 0.0048078895 0.68511558
-0.031251263 0.0048078895 0.68511558
-0.033698469 0.018653616 0.68530208
-0.031745426 0.006717369 0.68740988
0.0012126347 0.012126356 0.68640268
0.0028496988 0.013019791 0.68737888
0.006126957 0.015930116 0.68794256
-0.018885795 0.026804954 0.68709934
0.00062851701 0.0068981126 0.69145173
-0.018945236 -0.011367112 0.69248426
-0.027297352 0.010792658 0.69328296
-0.024819389 0.012728065 0.69366604
-0.021005979 0.017823875 0.69370526
-0.020961303 0.019055098 0.6933682
-0.018601703 -0.012830824 0.69490671
0.0012807811 -0.0089654624 0.69462866
-0.026818408 0.015324861 0.69418037
-0.026879475 0.021119118 0.69453144
0.010414152 0.015621245 0.69716215
0 -0.013155669 0.69882804
0.0065834797 -0.010533541 0.698964
-0.012729848 -0.012729838 0.70176911
0.003317202 -0.011281028 0.70022166
-0.019907575 0.013271749 0.70022857
0.010807759 -0.0013509393 0.70310122
0.0067692194 0.00270769 0.70344818
0.010797557 0.0067484677 0.70294732
0.011062207 -0.012444973 0.70694059
0.018875923 -0.016779378 0.70881253
0.014821529 -0.0047804913 0.71316421
0.012993287 -0.020211786 0.71429461
0.018976388 0.0029194355 0.71622884
0.018976388 0.0029194355 0.71622884
0.02680314 -0.0016751885 0.74223888
0.03129914 -0.0069553554 0.7499215
0.030289229 -0.021380603 0.75509727
0.032192942 -0.019673437 0.7559154
-0.009152784 0.013741371 0.66566205
-0.014013576 -0.0043134592 0.67019558
-0.014112289 0.027431518 0.66861355
-0.010850159 -0.0047316775 0.67437112
-0.0059699151 0.0058620009 0.67440188
-0.028128268 0.03037855 0.67584008
-0.021920402 0.030512996 0.67398149
-0.0081561524 -0.0069909692 0.68067259
-0.030743033 0.003547281 0.68275601
-0.035172842 0.0098207667 0.68157202
-0.036004324 0.020905763 0.68022174
0.0055021085 0.015584335 0.68757582
0.002203116 0.0097893728 0.69027674
-0.025319383 0.024703518 0.68912363
0.0098521076 0.011165723 0.69859058
0.0073556476 0.0060053021 0.70159268
0.017771352 -0.017771814 0.70884871
0.01045859 -0.0090640932 0.70835304
0.014743789 0.0011437176 0.71437979
0.024261337 -0.0032348037 0.73526496
0.021461559 -0.014857978 0.73930472
0.027690096 -0.019036919 0.74893039
0.031418152 -0.013969919 0.75071955
0.030932723 2.9802322e-08 0.7596665
0.036464766 -0.014585882 0.76010907
