# .PCD v0.7 - Point Cloud Data file format
VERSION 0.7
FIELDS x y z
SIZE 4 4 4
TYPE F F F
COUNT 1 1 1
WIDTH 1331
HEIGHT 1
VIEWPOINT 0 0 0 1 0 0 0
POINTS 1331
DATA ascii
-0.016198583 0.039873421 0.69043565
-0.016252611 0.038756251 0.69093728
-0.016307469 0.037632644 0.69144672
-0.016363531 0.036503255 0.69196731
-0.016420875 0.035368025 0.69249976
-0.016478622 0.034224838 0.69303596
-0.016536778 0.033073574 0.69357598
-0.016595345 0.031914145 0.69411975
-0.016654635 0.030747026 0.69467032
-0.016716084 0.029574603 0.69524091
-0.016780229 0.028397352 0.69583648
-0.016845811 0.027212471 0.69644547
-0.016912922 0.026019901 0.69706863
-0.017744677 0.025934547 0.70479178
-0.017932056 0.024829 0.7065317
-0.018004961 0.023544967 0.70720869
-0.018055554 0.022222221 0.7076785
-0.018108755 0.020894766 0.70817244
-0.01815271 0.019549102 0.70858061
-0.018194828 0.018194854 0.70897168
-0.01823714 0.016834289 0.70936459
-0.018279575 0.015467346 0.70975858
-0.018322283 0.014094114 0.71015513
-0.018365191 0.012714386 0.71055353
-0.0184083 0.011328191 0.71095383
-0.018451612 0.0099354982 0.71135604
-0.018495053 0.0085361898 0.71175939
-0.018540526 0.0071310103 0.71218163
-0.018607199 0.0057253242 0.71280074
-0.019380048 0.0029815733 0.71997702
-0.018815849 0.0014474094 0.71473813
-0.01836646 -0 0.71056539
-0.017944235 -0.0013802946 0.70664489
-0.017985389 -0.0027669668 0.70702696
-0.018044375 -0.0041640699 0.70757467
-0.018099178 -0.0055689514 0.70808351
-0.018154388 -0.0069824457 0.70859623
-0.018209863 -0.0084045529 0.70911127
-0.018267894 -0.0098365247 0.70965016
-0.018479845 -0.011372179 0.71161819
-0.018976867 -0.013137788 0.71623325
-0.019108845 -0.014699072 0.71745872
-0.0191919 -0.016239285 0.71823001
-0.019259244 -0.017777741 0.71885526
-0.019318631 -0.01931861 0.71940666
-0.019372817 -0.020863026 0.71990979
-0.019441521 -0.022432506 0.7205478
-0.014374036 0.05749616 0.68461639
-0.014327067 0.056114376 0.6841439
-0.014334701 0.054949701 0.68422073
-0.014367895 0.053879648 0.68455458
-0.014406019 0.052822083 0.68493819
-0.014444296 0.051758766 0.68532312
-0.014482827 0.050689906 0.68571073
-0.014522172 0.04961744 0.6861065
-0.014563002 0.048543334 0.68651724
-0.014604062 0.047463238 0.68693024
-0.014645354 0.046376973 0.68734562
-0.01468688 0.045284599 0.68776333
-0.014729007 0.044187009 0.68818712
-0.014772789 0.043087333 0.68862754
-0.014817095 0.041981786 0.68907326
-0.014861722 0.040869743 0.68952215
-0.014906671 0.039751112 0.68997425
-0.014952644 0.038627714 0.69043672
-0.015000034 0.037500113 0.69091344
-0.015048051 0.036366135 0.69139647
-0.015096432 0.035225034 0.69188315
-0.015145509 0.034077376 0.69237679
-0.015197122 0.032927126 0.69289601
-0.015249645 0.03177011 0.69342434
-0.0153036 0.030607194 0.6939671
-0.015357938 0.029436052 0.69451374
-0.015412663 0.028256536 0.69506419
-0.01546778 0.027068645 0.69561863
-0.015523292 0.025872201 0.69617701
-0.015579205 0.024667084 0.69673944
-0.015649136 0.02347368 0.69744295
-0.015876215 0.022491336 0.69972712
-0.016117329 0.021489769 0.70215261
-0.016365815 0.020457238 0.70465219
-0.01662215 0.01939252 0.70723069
-0.016776305 0.01817435 0.70878136
-0.016841831 0.016841859 0.70944047
-0.01688979 0.015482306 0.70992297
-0.016938848 0.014115691 0.71041644
-0.016978577 0.012733966 0.71081603
-0.017018493 0.011345685 0.71121758
-0.017058596 0.0099508762 0.71162093
-0.01709882 0.008549422 0.71202558
-0.017139304 0.0071414113 0.71243286
-0.017179981 0.0057266653 0.71284199
-0.017220851 0.0043052435 0.71325314
-0.017261915 0.002876997 0.7136662
-0.01724535 0.0014371276 0.71349961
-0.016869426 -0 0.70971805
-0.016450852 -0.0013709068 0.70550758
-0.016473209 -0.0027455091 0.70573246
-0.01655753 -0.0041393638 0.70658064
-0.016644245 -0.0055480897 0.70745289
-0.016734559 -0.0069727302 0.70836145
-0.016784949 -0.0083924532 0.70886827
-0.016839653 -0.0098231137 0.70941865
-0.0168928 -0.01126188 0.70995325
-0.016944906 -0.012708664 0.71047735
-0.016997265 -0.014164358 0.71100402
-0.017050017 -0.015629143 0.71153462
-0.017126422 -0.017126411 0.71230328
-0.01760646 -0.019073665 0.71713209
-0.017823968 -0.0207946 0.71932006
-0.017910251 -0.022387832 0.72018802
-0.017978752 -0.023971677 0.72087705
-0.018038251 -0.02555418 0.72147554
-0.01808943 -0.02713415 0.72199041
-0.018146824 -0.028732449 0.72256774
-0.013147827 0.057372332 0.68430507
-0.013119711 0.056056976 0.6839965
-0.013131024 0.054911554 0.68412066
-0.013162406 0.05384621 0.68446499
-0.01319567 0.052782685 0.68483007
-0.013229148 0.051713973 0.68519741
-0.01326275 0.0506396 0.68556619
-0.013297541 0.049563587 0.6859479
-0.013333166 0.048484236 0.6863389
-0.013368981 0.047399104 0.68673193
-0.013404991 0.04630819 0.68712711
-0.013441195 0.045211315 0.68752438
-0.01347826 0.044110715 0.68793112
-0.01351663 0.043007493 0.68835217
-0.013555218 0.041897953 0.68877566
-0.013594029 0.040782094 0.68920153
-0.013632963 0.03965953 0.68962878
-0.013672807 0.038532495 0.69006598
-0.01371382 0.037401348 0.69051605
-0.013755474 0.036264449 0.69097316
-0.013797433 0.035120726 0.69143367
-0.013839848 0.033970565 0.69189906
-0.013883333 0.032815158 0.69237626
-0.013927802 0.03165406 0.69286424
-0.013972914 0.030486405 0.69335926
-0.014018472 0.029311359 0.69385928
-0.014065365 0.02813074 0.69437385
-0.014114136 0.026945174 0.69490904
-0.014164559 0.025753766 0.69546235
-0.014215343 0.024553776 0.69601965
-0.014266492 0.023345172 0.69658095
-0.014318011 0.022127837 0.6971463
-0.014369093 0.020900518 0.69770682
-0.014420323 0.019664079 0.69826901
-0.014473893 0.018421352 0.69885689
-0.014543617 0.017187923 0.69962204
-0.01476195 0.016103953 0.70201796
-0.014989348 0.014989346 0.70451331
-0.015223923 0.01383993 0.70708752
-0.015465893 0.012653917 0.70974278
-0.015587179 0.011336148 0.71107376
-0.015642295 0.0099541843 0.71167862
-0.015689746 0.0085580647 0.71219927
-0.015735542 0.0071525276 0.71270186
-0.015772881 0.005735606 0.71311164
-0.015810462 0.004311949 0.71352398
-0.015847433 0.0028813779 0.71392971
-0.015788518 0.0014353395 0.71328318
-0.015387193 2.9802322e-08 0.70887923
-0.014998877 -0.0013635159 0.70461792
-0.014985176 -0.0027245581 0.70446754
-0.015045638 -0.0041033626 0.70513105
-0.016039897 -0.0058326721 0.71604174
-0.016067272 -0.0073032975 0.71634215
-0.016072204 -0.0087666512 0.71639633
-0.015923359 -0.010133028 0.71476293
-0.015472654 -0.01125282 0.70981699
-0.015488267 -0.012672216 0.7099883
-0.015552613 -0.014138758 0.71069443
-0.015608121 -0.015608102 0.71130359
-0.015659278 -0.01708284 0.71186495
-0.015708122 -0.018564135 0.71240091
-0.015757211 -0.020054609 0.71293962
-0.015806604 -0.02155447 0.71348166
-0.015863352 -0.023073941 0.71410435
-0.016181346 -0.025007546 0.71759397
-0.016510706 -0.027017504 0.72120827
-0.016600126 -0.028672934 0.72218955
-0.016668903 -0.030307084 0.72294426
-0.016727921 -0.031935096 0.72359192
-0.01677601 -0.033551991 0.7241196
-0.016826231 -0.035182089 0.72467071
-0.012099111 0.059285671 0.68607396
-0.011942136 0.057322264 0.68417907
-0.01192165 0.056031764 0.68393177
-0.01193627 0.054906875 0.68410826
-0.011965 0.053842515 0.68445504
-0.011993827 0.05277285 0.68480307
-0.012022794 0.051697999 0.68515271
-0.012052151 0.050619036 0.68550706
-0.012082703 0.049539089 0.68587589
-0.012113538 0.048454165 0.68624806
-0.012144571 0.047363847 0.68662268
-0.012175722 0.046267748 0.68699872
-0.012207205 0.045166701 0.68737876
-0.012239454 0.044062048 0.68776804
-0.012272568 0.042953998 0.68816781
-0.012305949 0.041840255 0.68857074
-0.012339512 0.040720433 0.68897581
-0.012373302 0.039594591 0.68938375
-0.012407943 0.038464636 0.68980187
-0.012443669 0.037331045 0.69023311
-0.012479646 0.036190987 0.69066745
-0.012515787 0.035044193 0.6911037
-0.012552137 0.033890754 0.69154251
-0.012589476 0.032732636 0.69199318
-0.012627633 0.031569093 0.69245374
-0.012666484 0.030399561 0.69292277
-0.012705667 0.029223055 0.69339573
-0.012745421 0.028039932 0.69387561
-0.012786037 0.026850671 0.69436592
-0.01282748 0.025654972 0.69486618
-0.012869574 0.024452209 0.69537425
-0.012912233 0.023241997 0.69588923
-0.012956529 0.022026122 0.69642389
-0.013003222 0.02080521 0.69698751
-0.013050301 0.019575477 0.69755584
-0.013096884 0.01833564 0.69811809
-0.013143701 0.017086804 0.69868326
-0.013190852 0.015829027 0.69925243
-0.013238345 0.01456219 0.6998257
-0.013288263 0.013288289 0.70042825
-0.013338969 0.012005091 0.70104039
-0.01340882 0.010727048 0.70188355
-0.0136152 0.0095306337 0.70437473
-0.013828034 0.0082968473 0.70694387
-0.014047681 0.0070238113 0.70959532
-0.014274421 0.0057097971 0.71233225
-0.014365363 0.0043096244 0.71343005
-0.014414228 0.0028828681 0.71401983
-0.014280993 0.0014281273 0.71241164
-0.013919545 -2.9802322e-08 0.70804852
-0.013569951 -0.0013569593 0.70382857
-0.013555181 -0.0027110279 0.70365024
-0.013604593 -0.0040813684 0.70424676
-0.01461128 -0.0058445036 0.71639854
-0.014646756 -0.0073233545 0.71682668
-0.014677938 -0.0088067353 0.71720308
-0.014648422 -0.010253906 0.71684682
-0.014386001 -0.011508763 0.71367913
-0.014017363 -0.012615621 0.70922935
-0.014010298 -0.01401028 0.709144
-0.014079045 -0.015486926 0.70997381
-0.014195113 -0.017034143 0.71137494
-0.014290683 -0.018577874 0.71252853
-0.014308868 -0.020032406 0.71274805
-0.014348871 -0.021523297 0.71323097
-0.014397147 -0.023035407 0.71381366
-0.014443107 -0.024553269 0.71436846
-0.014488758 -0.026079744 0.71491957
-0.014534697 -0.027615905 0.71547401
-0.014582459 -0.029164881 0.71605062
-0.014748901 -0.03097266 0.71805978
-0.015155332 -0.033341706 0.72296584
-0.015260565 -0.035099268 0.72423607
-0.015328829 -0.036789179 0.72506011
-0.015383937 -0.038459837 0.72572529
-0.015431489 -0.040121853 0.72629935
-0.01547644 -0.041786373 0.72684193
-0.01554749 -0.043532938 0.72769952
-0.010823061 0.058925599 0.68518686
-0.010744819 0.057305723 0.68413746
-0.010732247 0.056046158 0.68396884
-0.010748919 0.054938942 0.68419242
-0.010773545 0.053867757 0.68452275
-0.010798283 0.052791625 0.68485457
-0.010823136 0.051710546 0.68518788
-0.010848743 0.05062747 0.68553126
-0.010875114 0.049542189 0.68588501
-0.010901576 0.048451424 0.68623996
-0.010928166 0.047355413 0.68659657
-0.010954926 0.046254128 0.68695551
-0.010982086 0.045148581 0.68731976
-0.011010002 0.044040024 0.68769419
-0.01103845 0.042927325 0.68807578
-0.011067084 0.041808993 0.68845975
-0.011095867 0.040684849 0.68884587
-0.011124998 0.03955555 0.68923658
-0.0111548 0.038422108 0.68963623
-0.011185122 0.037283778 0.69004297
-0.011215931 0.036140233 0.69045615
-0.01124695 0.034990549 0.69087219
-0.011278223 0.033834696 0.69129169
-0.011310244 0.032674044 0.69172108
-0.011343187 0.031508893 0.69216293
-0.011376363 0.030336976 0.69260794
-0.011409734 0.029158205 0.69305551
-0.011443344 0.027972639 0.69350624
-0.01147791 0.026781797 0.69396985
-0.011513195 0.025584906 0.69444317
-0.011548953 0.024381131 0.6949228
-0.011585235 0.023170471 0.69540936
-0.011622133 0.021952927 0.69590425
-0.011659702 0.020728379 0.69640815
-0.011697953 0.01949659 0.69692117
-0.011737028 0.018257618 0.69744527
-0.011777119 0.017011404 0.69798303
-0.011817976 0.015757322 0.69853097
-0.011860332 0.014495969 0.69909906
-0.011902992 0.013225555 0.69967121
-0.01194596 0.011945993 0.70024753
-0.01198924 0.010657161 0.70082796
-0.012032834 0.0093588829 0.70141268
-0.012078938 0.0080526769 0.70203108
-0.012125492 0.0067364275 0.70265543
-0.012172453 0.005409956 0.70328534
-0.012243366 0.00408113 0.70423639
-0.012434591 0.0027632415 0.70680124
-0.012568828 0.0013965666 0.70860159
-0.012429994 2.9802322e-08 0.70673954
-0.012157122 -0.0013507605 0.7030797
-0.012161234 -0.0027025044 0.70313489
-0.012207855 -0.0040692687 0.70376015
-0.013169645 -0.0058531463 0.71665996
-0.013203173 -0.0073350668 0.71710968
-0.013235023 -0.0088233352 0.71753681
-0.013220755 -0.010282785 0.71734548
-0.013047825 -0.011598051 0.71502608
-0.012740002 -0.012739986 0.71089745
-0.012526286 -0.013918102 0.70803106
-0.012570949 -0.015364468 0.70863008
-0.013430728 -0.017907649 0.72016168
-0.013459804 -0.019441932 0.72055161
-0.013483192 -0.020973831 0.72086537
-0.013492906 -0.022488177 0.72099566
-0.013377983 -0.023783058 0.71945429
-0.013016109 -0.024585992 0.71460068
-0.013004472 -0.026008934 0.71444458
-0.013058777 -0.027568519 0.71517301
-0.013105348 -0.029122949 0.7157976
-0.01314888 -0.030680686 0.71638143
-0.01319092 -0.032244444 0.71694529
-0.013233231 -0.033818245 0.71751279
-0.013275814 -0.035402149 0.71808392
-0.013334631 -0.037040621 0.71887279
-0.013717038 -0.039626986 0.72400177
-0.013885505 -0.041656494 0.72626126
-0.013953906 -0.043412149 0.72717869
-0.014008096 -0.045137197 0.72790551
-0.014054748 -0.046849161 0.72853124
-0.01409618 -0.048553467 0.72908694
-0.0096068997 0.058842301 0.6849817
-0.0095540695 0.057324439 0.68418449
-0.0095499335 0.056105882 0.68412215
-0.0095653459 0.055000752 0.68435466
-0.0095861936 0.053922355 0.68466926
-0.009607099 0.0528391 0.68498468
-0.0096282298 0.051751763 0.68530351
-0.0096503906 0.050664574 0.68563789
-0.0096727218 0.049572706 0.68597484
-0.0096951565 0.048475772 0.68631333
-0.009717661 0.047373623 0.68665296
-0.0097403051 0.046266466 0.68699461
-0.0097635686 0.045156509 0.68734562
-0.0097874263 0.044043452 0.68770564
-0.0098115746 0.042925656 0.68807006
-0.0098358067 0.041802198 0.68843561
-0.0098601943 0.040673316 0.68880361
-0.0098850196 0.039540082 0.68917817
-0.0099103935 0.038402796 0.68956101
-0.0099361828 0.037260711 0.68995017
-0.0099622486 0.036113173 0.6903435
-0.0099885957 0.034960091 0.690741
-0.010015155 0.033801168 0.69114178
-0.010042364 0.032637686 0.69155234
-0.010069829 0.031468242 0.69196677
-0.010097886 0.030293673 0.69239008
-0.01012621 0.029112875 0.69281745
-0.010154842 0.027925819 0.69324946
-0.010184047 0.02673313 0.69369018
-0.01021402 0.025535047 0.6941424
-0.010244248 0.024330109 0.6945985
-0.010274691 0.023118109 0.69505787
-0.010305545 0.021899313 0.69552344
-0.010337085 0.020674199 0.69599932
-0.010369245 0.01944232 0.69648457
-0.010761649 0.018832922 0.70240551
-0.010788422 0.017531216 0.70280951
-0.010808599 0.01621294 0.70311391
-0.01082257 0.014881074 0.70332468
-0.010560941 0.013201177 0.69937706
-0.010580074 0.011902601 0.69966578
-0.01061016 0.010610193 0.70011973
-0.010647754 0.009316802 0.70068699
-0.010685861 0.0080144107 0.701262
-0.010724408 0.0067027807 0.70184356
-0.010763608 0.0053818226 0.70243508
-0.010803306 0.0040512681 0.70303404
-0.010845202 0.0027112961 0.70366621
-0.010887467 0.0013609231 0.70430398
-0.010909515 -2.9802322e-08 0.70463663
-0.010773829 -0.0013467371 0.70258927
-0.010792024 -0.0026980042 0.70286381
-0.010852019 -0.0040695071 0.70376915
-0.011673952 -0.0058369637 0.71617109
-0.011722346 -0.0073264539 0.7169013
-0.011761479 -0.0088210702 0.71749175
-0.011741905 -0.010274142 0.7171964
-0.011573921 -0.011573911 0.71466172
-0.011332618 -0.012749195 0.71102077
-0.011103921 -0.013879895 0.70756996
-0.011118755 -0.015288264 0.70779383
-0.011959227 -0.017938823 0.72047555
-0.011988988 -0.019482076 0.72092462
-0.012018899 -0.021033049 0.72137594
-0.01202904 -0.022554427 0.72152889
-0.011957117 -0.023914188 0.72044373
-0.011742301 -0.024952352 0.71720237
-0.011514616 -0.025907844 0.71376693
-0.01150023 -0.027313024 0.71354985
-0.011558665 -0.02889663 0.71443152
-0.012165068 -0.031933308 0.72358149
-0.011728725 -0.032253981 0.7169975
-0.011747859 -0.033775061 0.71728623
-0.011783815 -0.035351425 0.71782881
-0.011824417 -0.036951274 0.71844143
-0.011862666 -0.038553655 0.71901858
-0.011901163 -0.040166408 0.71959949
-0.011939912 -0.041789681 0.72018409
-0.011983665 -0.043440759 0.72084433
-0.01222601 -0.045847535 0.72450095
-0.0124778 -0.048351467 0.72830021
-0.0084084785 0.058859378 0.68502378
-0.0083715506 0.057404935 0.68438697
-0.0083698509 0.056197613 0.68435764
-0.0083837276 0.05509308 0.68459696
-0.0084010726 0.054006934 0.68489605
-0.0084184613 0.05291605 0.68519592
-0.0084364181 0.051823735 0.68550557
-0.0084549524 0.050729722 0.68582523
-0.0084735686 0.04963088 0.6861462
-0.008492237 0.048527092 0.68646812
-0.0085110171 0.047418535 0.68679202
-0.0085299704 0.046305597 0.68711883
-0.0085495496 0.045190483 0.68745643
-0.0085695507 0.044071972 0.68780136
-0.0085896757 0.042948395 0.68814838
-0.0086098956 0.041819483 0.68849713
-0.0086302413 0.040685445 0.68884796
-0.008651115 0.03954795 0.68920791
-0.0086723678 0.038406253 0.68957436
-0.0086939111 0.037259609 0.68994594
-0.0087156873 0.036107868 0.69032145
-0.0087376041 0.034950465 0.69069934
-0.0087599149 0.033788294 0.69108409
-0.0087827211 0.032621562 0.6914773
-0.008805614 0.031448632 0.69187212
-0.0088290432 0.030271024 0.69227618
-0.0088527584 0.029087663 0.69268513
-0.0088766022 0.027897894 0.69309628
-0.0089010624 0.026703179 0.6935181
-0.008925789 0.025502294 0.69394445
-0.0092292177 0.025050759 0.69917691
-0.0089979041 0.02313751 0.69518805
-0.0090020001 0.02186203 0.69525868
-0.0090282299 0.020635962 0.69571102
-0.0090549169 0.019403398 0.69617116
-0.0093889646 0.018777966 0.70193166
-0.0094219521 0.017497897 0.70250046
-0.0094515337 0.016202629 0.70301068
-0.0094815614 0.014899611 0.70352846
-0.0095114466 0.013587803 0.70404375
-0.0095386012 0.012263924 0.704512
-0.0095617371 0.010927737 0.70491105
-0.0095790969 0.0095791221 0.70521039
-0.0095906928 0.008220613 0.7054103
-0.0093640238 0.0066885948 0.70150155
-0.0093787909 0.0053593218 0.70175624
-0.0094118891 0.0040336549 0.70232701
-0.0094459178 0.0026988685 0.70291376
-0.0094801942 0.0013543367 0.70350492
-0.0094982972 -0 0.70381701
-0.0093758628 -0.0013394058 0.70170569
-0.0093956375 -0.0026844442 0.70204669
-0.0094476053 -0.0040489435 0.70294291
-0.0097584194 -0.0055762529 0.70830268
-0.0099082449 -0.0070773065 0.71088636
-0.010062868 -0.0086252689 0.71355265
-0.010123514 -0.010123491 0.71459848
-0.01001889 -0.011450142 0.7127943
-0.0098656043 -0.012684345 0.71015102
-0.009686253 -0.013837487 0.70705819
-0.0096986517 -0.015240729 0.70727205
-0.010475365 -0.017957777 0.72066599
-0.010505407 -0.019510031 0.72118402
-0.010533798 -0.02106756 0.72167361
-0.010528599 -0.022561282 0.7215839
-0.010433082 -0.023847044 0.71993679
-0.010248063 -0.024888128 0.71674627
-0.010069492 -0.025892973 0.71366692
-0.0099918079 -0.02712062 0.71232736
-0.010032983 -0.028665632 0.71303731
-0.010720297 -0.032160878 0.72488958
-0.010744353 -0.033767939 0.72530448
-0.010763657 -0.035366297 0.72563732
-0.010749386 -0.036855012 0.72539127
-0.010623653 -0.037941605 0.72322315
-0.010490771 -0.038965702 0.72093165
-0.010404965 -0.040133417 0.7194519
-0.010431517 -0.041726053 0.71990979
-0.010467745 -0.043366373 0.72053462
-0.010502912 -0.045012444 0.72114098
-0.010537403 -0.046665639 0.72173578
-0.01057212 -0.048329651 0.72233444
-0.010607992 -0.050009102 0.72295308
-0.0072144256 0.05891782 0.68516779
-0.0071895709 0.057516605 0.68466771
-0.0071899183 0.056321055 0.68467474
-0.0072023626 0.05521813 0.68492514
-0.0072164233 0.054123163 0.68520796
-0.0072305389 0.053023964 0.68549198
-0.0072454652 0.051925868 0.68579227
-0.0072605545 0.050823927 0.68609583
-0.0072757066 0.049717367 0.68640065
-0.0072909226 0.048606157 0.68670678
-0.0073062531 0.047490656 0.68701524
-0.0073218285 0.046371609 0.68732858
-0.007337986 0.045250922 0.68765366
-0.0073543196 0.044125944 0.6879822
-0.0073707523 0.042996079 0.68831283
-0.0073872581 0.041861147 0.68864489
-0.0074038911 0.040721416 0.68897951
-0.0074209948 0.039578676 0.68932366
-0.0074384436 0.038431972 0.68967474
-0.0074561345 0.037280709 0.69003057
-0.0074739098 0.036123902 0.6903882
-0.0074918238 0.034961849 0.69074857
-0.0075101485 0.033795685 0.69111729
-0.007528726 0.032624453 0.69149101
-0.0075476416 0.031448543 0.69187158
-0.0075667077 0.030266851 0.69225514
-0.0075860638 0.029079884 0.6926446
-0.0076057129 0.027887613 0.69303989
-0.0076257433 0.026690125 0.69344282
-0.0078934757 0.026311576 0.69882929
-0.0079165855 0.025069207 0.69929415
-0.0079354187 0.023806274 0.69967306
-0.0079057179 0.022399545 0.69907552
-0.0077312514 0.02061668 0.69556552
-0.0077518914 0.019379765 0.69598079
-0.00778091 0.018155485 0.69656456
-0.0080530308 0.017448246 0.70203924
-0.0080776801 0.016155392 0.70253515
-0.0081030792 0.014855653 0.70304608
-0.0081288284 0.013548046 0.70356411
-0.0081547406 0.012232095 0.70408547
-0.008180852 0.010907829 0.70461082
-0.0082060974 0.0095737875 0.70511872
-0.0082330918 0.0082331002 0.70566183
-0.0082016429 0.0068347156 0.70502907
-0.0080435546 0.0053623915 0.70184863
-0.0080405455 0.0040202737 0.70178801
-0.0080678333 0.002689302 0.70233697
-0.0080953389 0.0013492405 0.7028904
-0.008108058 2.9802322e-08 0.70314628
-0.0079886615 -0.0013314188 0.70074421
-0.007827417 -0.0026091039 0.69750023
-0.0078471573 -0.0039235651 0.69789737
-0.0078840135 -0.0052559972 0.69863886
-0.0079949414 -0.0066624284 0.70087057
-0.0081122536 -0.0081122518 0.70323074
-0.0082330275 -0.0096051693 0.70566046
-0.0083538685 -0.011138469 0.70809162
-0.0083276741 -0.012491465 0.70756459
-0.0082776146 -0.013796031 0.70655751
-0.0082982061 -0.0152134 0.70697176
-0.0089096986 -0.017819375 0.7192741
-0.0089713885 -0.019437999 0.72051513
-0.0090122251 -0.021028519 0.72133672
-0.0090059573 -0.02251485 0.7212106
-0.0089040669 -0.023744166 0.7191608
-0.0087543987 -0.024804115 0.71614963
-0.0086023603 -0.025807053 0.7130909
-0.0085252877 -0.026996732 0.71154034
-0.0085565681 -0.028521866 0.71216965
-0.0092050545 -0.032217652 0.72521615
-0.0092286058 -0.033838212 0.72569001
-0.0092468206 -0.035446107 0.72605646
-0.0091917431 -0.036766976 0.72494835
-0.0090881651 -0.037867337 0.72286451
-0.0090285391 -0.039123684 0.72166497
-0.0090520987 -0.04073444 0.72213894
-0.0090741618 -0.04234609 0.72258282
-0.0090898685 -0.043934345 0.72289878
-0.0090947459 -0.045473695 0.72299695
-0.0090317847 -0.046664238 0.72173023
-0.0090452647 -0.048241407 0.72200143
-0.0090785483 -0.049932003 0.72267103
-0.0060255951 0.059050888 0.6854955
-0.0060070949 0.05766812 0.68504882
-0.0060087154 0.056481928 0.68508798
-0.0060193953 0.055378437 0.68534583
-0.0060304264 0.054273844 0.68561214
-0.0060416036 0.053166121 0.68588197
-0.0060534342 0.052059531 0.6861676
-0.0060653538 0.050949007 0.68645537
-0.0060773198 0.049834043 0.68674421
-0.0060893334 0.048714697 0.68703425
-0.0061013945 0.047590882 0.68732548
-0.0061138482 0.046465278 0.68762606
-0.0061267409 0.045337915 0.68793738
-0.0061396887 0.044205785 0.68824995
-0.0061526913 0.043068856 0.68856388
-0.0061658146 0.041927546 0.68888068
-0.0061790599 0.040781796 0.68920046
-0.0061927815 0.039633811 0.68953174
-0.0062066531 0.038481265 0.6898666
-0.0062206537 0.037323922 0.69020462
-0.0062347623 0.036161661 0.6905452
-0.0062489803 0.034994304 0.69088852
-0.0062635564 0.033823252 0.69124037
-0.0062783598 0.032647461 0.69159776
-0.0062934156 0.03146708 0.69196129
-0.0063086124 0.030281365 0.6923281
-0.0063239518 0.029090196 0.69269848
-0.0063395975 0.027894258 0.69307613
-0.0063554831 0.026693016 0.69345969
-0.0065757553 0.026302993 0.69877756
-0.0065930234 0.025053501 0.69919437
-0.0066106846 0.023798466 0.69962078
-0.0066266204 0.022530526 0.70000553
-0.006554198 0.020973474 0.69825709
-0.0064562606 0.019368798 0.69589269
-0.0064732679 0.018125176 0.69630325
-0.0065057985 0.016915083 0.6970886
-0.0067180204 0.016123235 0.7022121
-0.0067387363 0.014825225 0.70271224
-0.0067576608 0.013515323 0.70316911
-0.0067766653 0.012198001 0.70362794
-0.0067972927 0.010875702 0.70412588
-0.0068066935 0.009529382 0.70435286
-0.0067545078 0.0081054568 0.70309299
-0.0066902363 0.0066902637 0.70154136
-0.0066637546 0.0053310096 0.70090204
-0.0066842902 0.0040105879 0.70139784
-0.0067055742 0.0026822388 0.70191169
-0.0067269946 0.001345396 0.70242882
-0.0067341388 2.9802322e-08 0.70260131
-0.0066260644 -0.0013251901 0.69999206
-0.0065067001 -0.0026026666 0.69711041
-0.0065252241 -0.0039151013 0.69755763
-0.006545851 -0.0052366853 0.69805562
-0.0065669566 -0.0065669417 0.69856513
-0.0065882485 -0.0079059005 0.69907916
-0.0066097793 -0.0092536509 0.69959891
-0.0066316538 -0.01061064 0.70012707
-0.0066615571 -0.011990786 0.70084894
-0.0067548491 -0.013509661 0.70310122
-0.0068532783 -0.015077204 0.70547754
-0.006907749 -0.016578615 0.70679259
-0.0070806923 -0.018409789 0.71096778
-0.0071982159 -0.020154983 0.71380508
-0.0073196753 -0.021959007 0.71673739
-0.0073171165 -0.023414761 0.71667558
-0.0072406651 -0.024618238 0.7148298
-0.0071395864 -0.025702536 0.71238959
-0.0070850817 -0.026923299 0.71107376
-0.0071084755 -0.028433889 0.71163851
-0.0076782349 -0.032248557 0.72539371
-0.0077018235 -0.033888012 0.72596323
-0.0076913219 -0.035380065 0.72570968
-0.0076082619 -0.036519647 0.72370446
-0.0075276615 -0.037638307 0.7217586
-0.0074642082 -0.038813859 0.72022665
-0.0074896934 -0.040444344 0.72084194
-0.0075322962 -0.042180866 0.72187042
-0.0075745936 -0.043932617 0.72289163
-0.0076084621 -0.045650721 0.72370923
-0.0076232515 -0.047264159 0.72406638
-0.0075795176 -0.048508912 0.72301054
-0.0075037652 -0.049524814 0.72118163
-0.0048362766 0.059244424 0.68597233
-0.0048217471 0.057861 0.68553388
-0.0048246426 0.05668956 0.6856212
-0.0048328629 0.055577934 0.68586928
-0.0048411284 0.054462701 0.68611872
-0.0048495065 0.053344637 0.68637156
-0.0048584403 0.052228272 0.68664116
-0.0048674238 0.051107973 0.6869123
-0.0048764404 0.049983531 0.68718439
-0.004885491 0.048854947 0.68745744
-0.0048946096 0.047722459 0.68773264
-0.0049040909 0.046588868 0.6880188
-0.0049138521 0.045453131 0.68831336
-0.0049236701 0.044313043 0.6886096
-0.0049335095 0.043168217 0.68890661
-0.0049434239 0.042019099 0.68920577
-0.0049535544 0.040866882 0.68951148
-0.0049639572 0.039711684 0.68982542
-0.0049745995 0.038553178 0.69014657
-0.0049852696 0.037389517 0.69046855
-0.0049960571 0.036221445 0.69079411
-0.005006928 0.035048515 0.69112217
-0.0050180275 0.03387168 0.69145715
-0.0050294306 0.0326913 0.69180131
-0.0050408863 0.031505555 0.69214696
-0.0050524115 0.030314505 0.69249475
-0.0050640828 0.029118508 0.69284695
-0.0050760116 0.027918071 0.69320703
-0.0050881091 0.026712626 0.69357198
-0.0051654503 0.025827259 0.69590604
-0.0052186111 0.024788439 0.69751024
-0.0052656466 0.023695409 0.69892967
-0.0052935025 0.022497386 0.69977033
-0.0052916687 0.021166712 0.69971496
-0.0051711774 0.019391924 0.69607884
-0.0051780166 0.01812309 0.69628525
-0.0051915939 0.016872704 0.69669497
-0.0052838232 0.015851498 0.69947821
-0.0053850566 0.014808953 0.70253325
-0.0053990721 0.01349771 0.7029562
-0.0054056658 0.012162775 0.70315516
-0.0053709275 0.01074186 0.70210683
-0.0053201271 0.0093102455 0.70057374
-0.0052941679 0.0079412758 0.69979042
-0.0053083827 0.0066355169 0.70021933
-0.0053235302 0.0053235292 0.7006765
-0.0053389287 0.0040042102 0.70114118
-0.0053622662 0.0026811361 0.70184541
-0.0055165701 0.0013791621 0.70650202
-0.005386455 2.9802322e-08 0.70257545
-0.0052761207 -0.0013189912 0.69924581
-0.0051961746 -0.0025980473 0.69683313
-0.0052117035 -0.0039087534 0.69730186
-0.0052276012 -0.0052275658 0.69778156
-0.0052437736 -0.006554693 0.69826967
-0.0052603055 -0.0078904629 0.69876856
-0.0052769422 -0.0092346668 0.69927061
-0.0052939663 -0.010587901 0.69978428
-0.0053112227 -0.011950225 0.7003051
-0.0053285919 -0.013321429 0.70082921
-0.0053460752 -0.014701694 0.70135677
-0.005363632 -0.0160909 0.70188665
-0.0053814081 -0.017489582 0.7024231
-0.0054083792 -0.018929332 0.70323706
-0.0054931319 -0.020599216 0.70579469
-0.0055814795 -0.022325933 0.70846081
-0.0056647155 -0.024075001 0.71097267
-0.0056545064 -0.025445282 0.71066463
-0.0056559099 -0.026865572 0.71070695
-0.0056754951 -0.028377473 0.71129793
-0.0060696774 -0.031865776 0.72319347
-0.0061316942 -0.033724278 0.72506499
-0.0061123865 -0.035146236 0.72448236
-0.0060489671 -0.036293775 0.72256851
-0.0059891986 -0.037432462 0.72076476
-0.005933308 -0.0385665 0.71907818
-0.0059285499 -0.040017724 0.71893454
-0.0059572901 -0.041701019 0.71980184
-0.0059871348 -0.043406695 0.72070253
-0.0060189478 -0.045142084 0.72166258
-0.006052339 -0.046905637 0.72267026
-0.0060540787 -0.048432618 0.72272277
-0.0059830882 -0.049360484 0.72058046
-0.005980025 -0.050830185 0.72048795
-0.0062505719 -0.054692507 0.72865242
-0.003686158 0.061435968 0.6883443
-0.0036421751 0.059488863 0.68657458
-0.003632162 0.058114618 0.68617165
-0.0036348978 0.056946784 0.68628174
-0.0036406105 0.05582273 0.68651164
-0.0036463412 0.0546951 0.68674219
-0.0036521025 0.053564191 0.68697399
-0.0036583317 0.052436143 0.68722463
-0.0036646335 0.051304877 0.68747818
-0.0036709569 0.050169796 0.68773264
-0.0036773155 0.0490309 0.68798852
-0.0036837091 0.047888219 0.68824577
-0.0036903732 0.046744734 0.68851393
-0.003697258 0.04559955 0.68879092
-0.0037041949 0.044450343 0.68907005
-0.0037111579 0.043296874 0.68935019
-0.0037181871 0.042139471 0.68963301
-0.003725376 0.040979147 0.68992233
-0.0037327665 0.039816231 0.69021964
-0.0037402937 0.038649738 0.69052249
-0.0037478781 0.037478805 0.69082773
-0.0037555071 0.036303252 0.69113469
-0.0037632622 0.035123765 0.69144672
-0.0037711996 0.033940792 0.69176608
-0.0037792937 0.032753885 0.69209182
-0.0037875192 0.031562656 0.69242275
-0.0037958494 0.030366808 0.69275796
-0.0038042164 0.029165685 0.69309461
-0.0038126344 0.027959317 0.69343328
-0.0038214119 0.026749909 0.6937865
-0.0038302296 0.025534868 0.69414133
-0.0038390744 0.024314135 0.69449723
-0.0038482724 0.023089647 0.69486725
-0.0038596287 0.021871239 0.69532424
-0.0038776472 0.020680815 0.69604921
-0.0038762339 0.019381166 0.69599235
-0.0038854955 0.018132359 0.696365
-0.0038953251 0.016879767 0.69676054
-0.0039055997 0.015622407 0.69717395
-0.0040023667 0.014675349 0.70106757
-0.0040040119 0.013346732 0.70113373
-0.0039663506 0.011899054 0.69961834
-0.0039471113 0.010525644 0.69884425
-0.0039567449 0.0092324018 0.69923186
-0.0039674221 0.0079348683 0.69966149
-0.0039785216 0.0066308975 0.70010811
-0.003993887 0.0053251982 0.70072639
-0.0041252617 0.0041252673 0.70601249
-0.0041370825 0.0027580559 0.70648807
-0.0041300179 0.0013767183 0.70620382
-0.0040368377 2.9802322e-08 0.70245457
-0.0039387448 -0.0013128817 0.69850755
-0.0039045026 -0.0026029944 0.69712985
-0.0039116377 -0.0039116442 0.6974169
-0.0042063291 -0.0056084096 0.70927435
-0.0042150714 -0.0070250928 0.70962614
-0.0042225155 -0.0084450245 0.70992565
-0.0042273616 -0.0098638237 0.71012068
-0.0039692046 -0.010584503 0.69973326
-0.0039768824 -0.011930645 0.70004213
-0.003988462 -0.013294846 0.70050806
-0.0040012454 -0.014671236 0.70102239
-0.0040143891 -0.016057521 0.70155126
-0.00402762 -0.017452985 0.70208365
-0.0040408438 -0.018857241 0.70261574
-0.0040541235 -0.020270586 0.70315003
-0.0040674433 -0.021692991 0.703686
-0.004080818 -0.023124635 0.70422423
-0.0040950216 -0.024570107 0.70479572
-0.0041256044 -0.026128829 0.70602632
-0.0041920687 -0.027947098 0.7087006
-0.0042533386 -0.029773384 0.7111659
-0.0043315999 -0.031765074 0.71431488
-0.0044049257 -0.033771068 0.71726525
-0.0044807578 -0.035846025 0.72031653
-0.0044670673 -0.037225515 0.71976566
-0.0044297846 -0.038391441 0.71826553
-0.0044114687 -0.03970319 0.71752858
-0.0044307071 -0.041353256 0.71830261
-0.0044504558 -0.043021053 0.71909726
-0.0044717812 -0.044717789 0.71995533
-0.0044935253 -0.046433091 0.72083026
-0.0045104213 -0.048111141 0.72151005
-0.0044755829 -0.04923141 0.72010833
-0.0044602244 -0.050549209 0.71949041
-0.0046078372 -0.053758085 0.72542977
-0.0046412372 -0.055694818 0.72677368
-0.0024671052 0.061677665 0.68892771
-0.0024407122 0.059797466 0.68733478
-0.0024347692 0.058434486 0.68697608
-0.0024365617 0.057259202 0.68708432
-0.0024400351 0.056120813 0.68729389
-0.0024435185 0.054979205 0.68750411
-0.0024470119 0.05383426 0.68771499
-0.0024506534 0.052689046 0.68793476
-0.0024545484 0.051545531 0.68816984
-0.002458456 0.05039835 0.68840569
-0.0024623759 0.049247563 0.68864226
-0.0024663084 0.048093021 0.68887961
-0.0024703851 0.046937317 0.68912572
-0.0024746517 0.045781076 0.68938315
-0.002478986 0.044621766 0.68964481
-0.0024833267 0.043458253 0.68990678
-0.0024877093 0.042291045 0.6901713
-0.0024921966 0.041121274 0.69044214
-0.0024968081 0.03994894 0.69072044
-0.0025015175 0.038773566 0.69100469
-0.002506281 0.037594229 0.69129217
-0.0025110899 0.036410838 0.69158244
-0.002515981 0.035223722 0.69187766
-0.0025209733 0.034033149 0.69217896
-0.0025260772 0.03283903 0.692487
-0.0025312481 0.031640589 0.69279909
-0.0025364682 0.030437648 0.69311416
-0.0025417653 0.029230326 0.69343388
-0.0025471596 0.028018802 0.69375944
-0.0025526423 0.026802808 0.69409037
-0.0025582523 0.025582552 0.69442892
-0.0025639532 0.024357617 0.69477302
-0.0025696796 0.023127109 0.69511867
-0.0025754315 0.021891177 0.6954658
-0.0025813724 0.020650983 0.69582438
-0.0025874081 0.019405574 0.69618863
-0.0025934624 0.018154234 0.69655406
-0.0025995451 0.016897023 0.69692117
-0.0026058126 0.015634865 0.69729948
-0.0026121696 0.014366925 0.69768316
-0.0026188635 0.013094306 0.69808722
-0.0026251851 0.011813372 0.69846869
-0.0026318762 0.010527521 0.69887251
-0.0026386012 0.0092351139 0.69927835
-0.002645361 0.00793612 0.69968641
-0.0027338271 0.0068345964 0.70502585
-0.0027414628 0.0054829717 0.70548666
-0.0027487823 0.0041231811 0.70592844
-0.0027559004 0.00275594 0.70635808
-0.0027455026 0.0013727844 0.70573056
-0.0026784772 2.9802322e-08 0.70168513
-0.0026411384 -0.0013205707 0.69943154
-0.0026419316 -0.0026418865 0.69947946
-0.0027953759 -0.0041930377 0.70874059
-0.0028036877 -0.0056073666 0.70924228
-0.0028118896 -0.0070297122 0.70973736
-0.0028200597 -0.0084601641 0.71023041
-0.0028259426 -0.0098907948 0.71058547
-0.0028152044 -0.011260778 0.70993733
-0.0027637589 -0.012436897 0.70683235
-0.0026926328 -0.013463169 0.70253956
-0.0026640405 -0.014652193 0.70081383
-0.0026717838 -0.016030669 0.70128113
-0.0026801093 -0.017420709 0.70178366
-0.0026887574 -0.018821269 0.70230561
-0.0026971891 -0.020228922 0.70281458
-0.0027060746 -0.021648556 0.70335078
-0.0027150186 -0.023077667 0.70389062
-0.0027240219 -0.024516165 0.70443404
-0.0027330208 -0.025963664 0.70497715
-0.0027420793 -0.027420759 0.70552391
-0.0027511981 -0.02888757 0.70607424
-0.0027605421 -0.030365914 0.70663822
-0.0027706677 -0.031862646 0.70724934
-0.002798697 -0.033584386 0.7089411
-0.0028445541 -0.035556912 0.71170878
-0.0028919752 -0.03759563 0.71457088
-0.0029226614 -0.03945592 0.71642298
-0.0029348561 -0.041087955 0.71715891
-0.0029476408 -0.042740762 0.71793061
-0.0029605119 -0.044407666 0.71870744
-0.0029729235 -0.046080291 0.71945655
-0.0029860297 -0.04777649 0.72024757
-0.0029753675 -0.049093574 0.71960407
-0.0029638326 -0.050385147 0.71890789
-0.0030341232 -0.053097159 0.72315025
-0.0030563411 -0.055014133 0.72449124
-0.0030761748 -0.056909233 0.72568834
-0.0012421827 0.062109113 0.68996942
-0.001228689 0.060205787 0.6883406
-0.0012257287 0.058835 0.68798327
-0.0012263473 0.057638347 0.68805802
-0.0012278943 0.05648315 0.68824476
-0.001229441 0.055324882 0.68843144
-0.001230996 0.054163873 0.68861914
-0.0012325549 0.052999884 0.68880725
-0.0012342405 0.0518381 0.68901074
-0.0012360273 0.050677121 0.68922645
-0.0012378196 0.049512804 0.68944275
-0.0012396123 0.04834488 0.68965924
-0.0012414105 0.047173589 0.68987626
-0.0012433295 0.046003193 0.69010788
-0.0012453302 0.044831872 0.6903494
-0.001247342 0.043656945 0.69059229
-0.0012493602 0.042478263 0.69083583
-0.0012514164 0.04129675 0.69108409
-0.0012535565 0.040113837 0.69134241
-0.0012557446 0.038928121 0.69160652
-0.0012579767 0.037739307 0.69187599
-0.0012602216 0.036546439 0.69214696
-0.0012625017 0.035350055 0.69242227
-0.0012648455 0.034150839 0.69270515
-0.0012672304 0.032948017 0.69299299
-0.0012696522 0.031741321 0.69328535
-0.0012721204 0.03053093 0.69358325
-0.0012746216 0.029316306 0.69388521
-0.001277175 0.028097868 0.69419342
-0.0013242684 0.02780965 0.69987804
-0.0013266752 0.026533514 0.70016861
-0.0013290754 0.025252432 0.70045835
-0.0013313772 0.023964822 0.70073617
-0.0013322552 0.022648335 0.7008422
-0.0012935066 0.020696104 0.69616485
-0.0012961894 0.019442886 0.69648862
-0.0012991213 0.018187732 0.69684255
-0.0013020617 0.016926825 0.6971975
-0.0013050154 0.015660197 0.69755405
-0.001308022 0.014388263 0.69791698
-0.0013111215 0.013111234 0.69829118
-0.0013142159 0.011827946 0.69866461
-0.00131735 0.010538816 0.69904298
-0.001320544 0.0092437863 0.69942856
-0.0013237991 0.0079428256 0.69982147
-0.001335784 0.0066789389 0.70126814
-0.0013500146 0.0054000914 0.70298588
-0.0013645464 0.0040936172 0.70474005
-0.0013743476 0.002748698 0.7059232
-0.0013630582 0.0013630688 0.70456046
-0.0013329298 2.9802322e-08 0.70092356
-0.0013268575 -0.0013268292 0.7001906
-0.0013299962 -0.0026599765 0.70056951
-0.0013959977 -0.0041879714 0.70853657
-0.0014001831 -0.0056007206 0.70904177
-0.0014043141 -0.0070215464 0.70954049
-0.0014082696 -0.008449614 0.71001792
-0.0014105622 -0.0098739266 0.71029466
-0.0014043765 -0.011235029 0.709548
-0.0013786664 -0.012407988 0.7064445
-0.0013513849 -0.013513833 0.70315135
-0.0013363028 -0.01469928 0.70133078
-0.0013384081 -0.016060919 0.70158494
-0.0014373444 -0.01868546 0.71352756
-0.0014407892 -0.020171016 0.71394348
-0.0014437466 -0.021656185 0.71430039
-0.0014428353 -0.023085356 0.71419036
-0.001425574 -0.024234742 0.71210682
-0.0013609974 -0.024497926 0.70431167
-0.0013637751 -0.025911719 0.70464706
-0.0013682377 -0.027364731 0.70518565
-0.0013728109 -0.028829008 0.70573771
-0.0013773766 -0.030302256 0.70628881
-0.0013819783 -0.031785488 0.70684433
-0.0013866109 -0.033278674 0.70740354
-0.0013912689 -0.034781724 0.70796573
-0.0013960258 -0.036296666 0.70853996
-0.0014008718 -0.037823498 0.70912492
-0.0014064057 -0.039379358 0.70979291
-0.0014243525 -0.041306168 0.71195936
-0.0014481209 -0.04344362 0.71482843
-0.0014727084 -0.045653939 0.71779639
-0.0014829536 -0.047454506 0.71903312
-0.0014785301 -0.048791468 0.71849918
-0.0014790336 -0.050287127 0.71855986
-0.0015029797 -0.052604258 0.72145051
-0.0015151036 -0.054543704 0.72291398
-0.0015234738 -0.0563685 0.72392428
0 0.062803805 0.69164652
0 0.060737997 0.68965173
0 0.059336066 0.68924344
0 0.058123499 0.68930399
0 0.056934267 0.68942839
0 0.055750161 0.68957222
0 0.054569453 0.68973184
0 0.053386003 0.68989122
0 0.052200228 0.69005156
0 0.051015556 0.69022292
0 0.049834847 0.69041461
0 0.048651218 0.69060743
0 0.047464639 0.69080067
0 0.046275586 0.69099659
0 0.045088381 0.69120932
0 0.043900639 0.69143254
0 0.042708904 0.6916548
0 0.041513711 0.6918776
0 0.040315837 0.69210446
0 0.039117932 0.69234586
0 0.037917793 0.69259405
0 0.036713958 0.69284415
0 0.035506457 0.69309628
0 0.034296691 0.69335705
0 0.033084244 0.69362545
0 0.031868011 0.69389707
0 0.030648708 0.69417584
0 0.029425114 0.69445622
0 0.02819851 0.6947456
0 0.027912319 0.70046818
0 0.026650667 0.70087546
0 0.025326371 0.70092797
0 0.023965061 0.70073801
0 0.022497237 0.69976914
0 0.020856887 0.69737798
0 0.019494832 0.6969071
0 0.018233299 0.69723582
0 0.016966879 0.69756943
0 0.015695661 0.69791043
0 0.014419347 0.69825768
0 0.01313743 0.69860768
0 0.011850446 0.6989665
0 0.01055783 0.69933045
0 0.0092594922 0.69969857
0 0.0079549849 0.70006657
0 0.0066450536 0.70045042
0 0.0053287446 0.70083237
0 0.004006207 0.70122164
0 0.0026775599 0.70163161
0 0.0013416409 0.70197475
0 -0 0.70016921
0 -0.0013253391 0.70000857
0 -0.0026596785 0.70055044
0 -0.0041487217 0.70695847
0 -0.0055693686 0.70809567
0 -0.0069955289 0.70891184
0 -0.0084290802 0.70960557
0 -0.0098489523 0.70986438
0 -0.01118803 0.70883906
0 -0.012360364 0.70580584
0 -0.013565719 0.70377803
0 -0.0149436 0.70401108
0 -0.017183602 0.71287835
0 -0.018671155 0.71339488
0 -0.0201675 0.71391308
0 -0.021670312 0.71441418
0 -0.023103684 0.71432865
0 -0.024311632 0.7126528
0 -0.02528438 0.70958567
0 -0.026150852 0.70616627
0 -0.027339518 0.70503366
0 -0.028786361 0.70549256
0 -0.030250967 0.70600724
0 -0.031758934 0.70670503
0 -0.033215672 0.7070868
0 -0.034710556 0.70762217
0 -0.036220402 0.70818597
0 -0.037740588 0.70875418
0 -0.039271116 0.70932627
0 -0.040811867 0.70990163
0 -0.042364329 0.7104857
0 -0.043929994 0.71108353
0 -0.045506895 0.71168631
0 -0.047139287 0.71245551
0 -0.049309015 0.71508741
0 -0.052295297 0.72038472
0 -0.054187894 0.72172081
0 -0.055979729 0.72265589
0 -0.057807833 0.72365701
0.0012868049 0.064340234 0.69535583
0.0012549101 0.061490595 0.69150579
0.0012499848 0.059999287 0.69091123
0.0012498141 0.058741271 0.69089067
0.0012504932 0.057522744 0.69097263
0.0012511776 0.056302994 0.6910553
0.0012518718 0.055082351 0.69113904
0.001252779 0.053869516 0.69124854
0.0012538278 0.052660763 0.69137514
0.0012548874 0.051450402 0.69150305
0.0012559488 0.050238013 0.69163114
0.0012571621 0.04902932 0.69177759
0.001258519 0.047823757 0.69194138
0.0012598834 0.04661569 0.69210613
0.0012612508 0.04540506 0.69227117
0.0012627586 0.044196546 0.69245321
0.0012643853 0.042989105 0.6926496
0.0012660254 0.041778833 0.69284755
0.0012676788 0.040565729 0.69304711
0.0012693878 0.039351046 0.6932534
0.0012712128 0.038136393 0.6934737
0.0012731132 0.036920309 0.69370311
0.0012750239 0.035700709 0.69393373
0.0012769263 0.034477055 0.69416332
0.0012789096 0.033251673 0.69440281
0.0012809699 0.032024264 0.69465148
0.0012830796 0.030793905 0.69490612
0.0012852199 0.029560059 0.6951645
0.0012874247 0.028323352 0.6954307
0.0013106567 0.027523786 0.69823503
0.0013240413 0.026480824 0.69985068
0.0013155295 0.024995059 0.69882321
0.0013033365 0.02346006 0.6973514
0.0013000838 0.022101462 0.69695878
0.0013015935 0.020825505 0.69714099
0.0013041436 0.019562185 0.69744879
0.0013067233 0.018294126 0.69776022
0.0013094416 0.017022759 0.69808829
0.0013576631 0.016291946 0.70390916
0.0013596447 0.014956117 0.70414841
0.0013180295 0.013180286 0.69912499
0.001320223 0.011882007 0.69938982
0.0013229927 0.010583937 0.69972408
0.0013258803 0.0092811584 0.70007265
0.0013289127 0.0079734623 0.70043868
0.0013321684 0.0066608489 0.70083177
0.001334809 0.0053392351 0.70115048
0.0013378927 0.0040136874 0.70152271
0.0013409908 0.0026820004 0.70189667
0.0013414981 0.0013414919 0.70195788
0.0013204889 -0 0.69942188
0.0013006824 -0.0013006628 0.69703102
0.0013134062 -0.0026268065 0.69856691
0.0013261739 -0.0039785206 0.70010811
0.001340065 -0.0053602457 0.70178497
0.0013538069 -0.0067689717 0.70344365
0.0013678283 -0.0082069635 0.70513624
0.0013818959 -0.0096732676 0.70683432
0.0013784695 -0.011027753 0.70642078
0.0013631277 -0.012268126 0.70456886
0.0013604539 -0.013604522 0.70424604
0.0013643749 -0.015008122 0.70471942
0.0014291388 -0.017149687 0.71253711
0.0014342829 -0.018645674 0.71315801
0.0014387548 -0.020142585 0.71369785
0.0014430151 -0.021645218 0.71421206
0.001441076 -0.023057193 0.71397799
0.0014253868 -0.024231553 0.71208417
0.0014011937 -0.025221497 0.70916378
0.0013797613 -0.026215434 0.70657665
0.0013739346 -0.027478635 0.70587337
0.0013754738 -0.028884947 0.70605916
0.0014740392 -0.032428861 0.71795702
0.0014780395 -0.033994853 0.71843994
0.0014783666 -0.035480797 0.71847939
0.0014685506 -0.036713749 0.71729451
0.0014558447 -0.037851959 0.71576071
0.0014434467 -0.038973063 0.71426415
0.0014012671 -0.039235473 0.70917273
0.0014046376 -0.0407345 0.70957953
0.0014092406 -0.042277217 0.71013516
0.0014140293 -0.043834925 0.71071315
0.0014188506 -0.045403183 0.71129513
0.0014237165 -0.046982646 0.71188259
0.0014286335 -0.048573524 0.71247613
0.0014337088 -0.050179809 0.71308869
0.0014388561 -0.05179882 0.71371007
0.0015049782 -0.055684179 0.72169167
0.0015122879 -0.057466924 0.722574
0.002564464 0.062829375 0.69480389
0.0025419607 0.061007082 0.69344562
0.002538488 0.059654504 0.69323605
0.002536996 0.058350921 0.69314605
0.0025361627 0.057063669 0.69309574
0.0025354226 0.055779308 0.69305104
0.0025358109 0.054519981 0.69307446
0.0025362461 0.053261161 0.69310075
0.0025368107 0.052004635 0.69313484
0.0025382098 0.050764203 0.6932193
0.0025396198 0.049522609 0.69330436
0.0025413658 0.048285961 0.6934098
0.0025432352 0.04704985 0.69352263
0.0025451167 0.0458121 0.69363618
0.0025472997 0.044577748 0.69376791
0.0025494958 0.043341398 0.69390047
0.0025519487 0.042107165 0.69404846
0.0025547442 0.040875942 0.69421721
0.0025575557 0.039642155 0.6943869
0.0025604391 0.038406581 0.69456095
0.0025635937 0.037172109 0.69475132
0.002566908 0.035936713 0.69495136
0.0025702973 0.034699023 0.69515592
0.0025737241 0.033458441 0.69536275
0.0025773228 0.032216549 0.69557995
0.0025810751 0.030972928 0.69580638
0.002585002 0.029727548 0.69604337
0.0025889408 0.028478384 0.69628114
0.0025928915 0.027225405 0.69651961
0.0025982524 0.025982559 0.69684315
0.0026013744 0.024713069 0.69703156
0.0026059593 0.023453623 0.6973083
0.0026105798 0.022189975 0.69758719
0.0026152169 0.020921767 0.69786704
0.0027214086 0.020410568 0.70427632
0.0027247698 0.019073397 0.7044791
0.0027279248 0.017731488 0.70466959
0.0027310338 0.016386211 0.70485729
0.0027341822 0.015038013 0.70504725
0.0027385782 0.013692886 0.70531255
0.0026505166 0.011927336 0.6999976
0.0026551853 0.010620743 0.7002793
0.0026601553 0.0093105733 0.70057929
0.0027475324 0.0082426071 0.70585304
0.0027607395 0.0069018602 0.70665014
0.0027656506 0.0055312812 0.70694655
0.0027705131 0.004155755 0.70724005
0.0027593693 0.002759397 0.70656747
0.0026849555 0.0013425052 0.70207608
0.0026287003 2.9802322e-08 0.69868088
0.0025959618 -0.0012979805 0.69670492
0.0026022804 -0.0026022792 0.69708622
0.0026086494 -0.0039129555 0.69747072
0.0026150891 -0.0052301586 0.69785935
0.0026223913 -0.0065559745 0.69830012
0.0026318661 -0.0078955889 0.69887197
0.0026517606 -0.0092811584 0.70007265
0.0026786735 -0.01071465 0.70169699
0.002700774 -0.012153476 0.70303094
0.0027107825 -0.013553917 0.70363498
0.0027222186 -0.01497215 0.7043252
0.0027957247 -0.016774327 0.70876169
0.0028272532 -0.018377155 0.71066463
0.0028561044 -0.019992709 0.71240592
0.0028729537 -0.021547139 0.71342289
0.0028677017 -0.022941619 0.71310586
0.0028359063 -0.024105161 0.71118683
0.0027933309 -0.025139987 0.70861721
0.002787896 -0.026484996 0.70828915
0.0027932187 -0.027932167 0.70861042
0.0029358356 -0.030826271 0.7172181
0.0029448054 -0.03239283 0.71775949
0.0029527883 -0.033957034 0.71824133
0.0029505191 -0.035406232 0.71810442
0.0029300302 -0.036625385 0.71686774
0.002906295 -0.037781805 0.71543521
0.00288933 -0.039005935 0.71441126
0.0028968093 -0.040555298 0.71486264
0.0029056876 -0.042132437 0.71539849
0.0029135204 -0.043702751 0.71587121
0.0029198492 -0.045257658 0.71625322
0.0029240879 -0.046785384 0.71650904
0.0028446475 -0.046936661 0.71171445
0.0028518031 -0.04848063 0.71214628
0.0028613375 -0.050073385 0.71272171
0.0028712563 -0.051682621 0.71332043
0.0029984626 -0.055471539 0.72099793
0.0030118085 -0.057224333 0.72180343
0.0039419769 0.06044367 0.6986376
0.0038995948 0.058493942 0.69693232
0.003884366 0.056970745 0.69631958
0.0038757585 0.055552572 0.69597322
0.0038698879 0.054178476 0.695737
0.0038657833 0.052832395 0.6955719
0.0038631044 0.051508069 0.69546407
0.0038617877 0.050203264 0.69541109
0.0038606864 0.048902005 0.6953668
0.0038610438 0.047619551 0.69538116
0.0038617162 0.046340585 0.69540823
0.0038626892 0.045064747 0.69544733
0.0038648373 0.043801516 0.69553387
0.0038673179 0.04254052 0.69563359
0.0038702041 0.041282177 0.69574976
0.0038730945 0.040021986 0.69586611
0.003875989 0.038759917 0.69598252
0.0038789602 0.037496656 0.69610208
0.0038823406 0.036235213 0.6962381
0.0038861039 0.034974962 0.6963895
0.0038904112 0.033716887 0.69656289
0.003894743 0.032456189 0.69673717
0.0038993615 0.031194925 0.69692296
0.0039042393 0.029932499 0.69711924
0.0039093345 0.028668463 0.69732428
0.003914576 0.027402043 0.69753516
0.0039199931 0.026133329 0.69775307
0.0039256029 0.02486217 0.69797879
0.0039313915 0.023588359 0.69821173
0.0040767803 0.023101747 0.70406175
0.0040988703 0.021860629 0.70495057
0.004109195 0.020545989 0.70536602
0.0041176029 0.019215494 0.70570433
0.0041242498 0.017871797 0.70597172
0.0041291672 0.016516685 0.70616955
0.004133916 0.015157729 0.7063607
0.004138676 0.013795584 0.70655221
0.0041422118 0.012426645 0.70669448
0.0039992188 0.010664582 0.70094091
0.0040061814 0.0093477964 0.70122105
0.0040144357 0.0080288649 0.70155317
