# .PCD v0.7 - Point Cloud Data file format
VERSION 0.7
FIELDS x y z
SIZE 4 4 4
TYPE F F F
COUNT 1 1 1
WIDTH 145
HEIGHT 1
VIEWPOINT 0 0 0 1 0 0 0
POINTS 145
DATA ascii
0.0069465963 0.0019847453 0.65981448
0.011015144 0.0010013878 0.66090167
-0.005980975 0.0079746544 0.66035271
0.012061326 0.0010051131 0.66135234
0.016174596 0.0050545931 0.66205263
-0.0091294181 0.014201313 0.66247123
0.017387396 0.0030683875 0.66348618
-0.0091781029 0.013257235 0.6631242
-0.0081898486 0.021498382 0.66360009
-0.0081898486 0.021498382 0.66360009
0.020595862 0.0082383454 0.66433179
0.022953335 0.014606655 0.66596627
0 -0.0031337738 0.66611844
0.0010459275 -0.0031377375 0.66627938
-0.0062637627 -0 0.66604191
0.021969173 0.016738445 0.66630638
0 0.030504078 0.666996
-0.0031617759 -0.0010538995 0.66724479
-0.0031617759 -0.0010538995 0.66724479
-0.010580524 0.014812768 0.66774297
0.0074391896 -0.0042509735 0.66830903
0.016012821 -0.0021350086 0.66888601
0.021297494 0.019167751 0.66856647
0.018283293 2.9802322e-08 0.66984761
0.021427186 0.016070426 0.66934925
0.010739322 0.030070096 0.66965985
0.010739322 0.030070096 0.66965985
0.010739322 0.030070096 0.66965985
0.0064775473 0.030228585 0.67034292
-0.0043621142 0.026172698 0.67166317
0.023108084 0.0077027082 0.67285293
0.018811572 0.022131264 0.67359877
-0.0099875024 0.028852791 0.67398012
0.020124761 0.01118046 0.6749844
0.020003881 0.018892556 0.67417377
-0.011238243 0.025847971 0.67568231
-0.010188795 -0.0045283437 0.67667991
-0.0022690634 -0.003403604 0.67697489
-0.012537652 0.026215106 0.67760921
0.002291298 0.027495563 0.67831683
0.010428816 0.026651442 0.6798991
0.01675198 0.0083760321 0.6844635
-0.0012083165 0.019333065 0.6858815
-0.0012080268 0.020536453 0.68584651
0.01698382 0.016983837 0.68646252
0.012192 0.017068833 0.68719518
0.0048776385 0.020729989 0.68722051
-0.0036846986 -0.011054099 0.68828559
-0.012396256 -0.0049585104 0.68966085
-0.0074738027 -0.0074737966 0.69038606
0.012473777 -0.0074842274 0.69059658
0.0062897927 -0.0075477064 0.69187379
0.0062895422 -0.0062895417 0.69186771
0.0075855115 -0.011378258 0.69263345
0.011406613 -0.0063370168 0.69301367
0.010346859 0.012933552 0.69614685
0.0090947337 0.014291704 0.69685787
0.001331112 0.01597333 0.70070422
-0.0067337737 -0.012120754 0.70259249
-0.016209496 -0.0040523708 0.7030797
0.0027180344 0.014949232 0.70407265
0.0041137193 -0.015083611 0.70554805
-0.021108732 -0.005629003 0.70989472
0.008429802 0.0084298253 0.70961928
-0.015559261 -0.014144748 0.71076739
-0.0087264767 -0.014544129 0.71558791
-0.001454011 0.011632115 0.71553946
0 0.011645287 0.71573865
0.020830248 -0.020830244 0.71962708
0.020870194 -0.019379437 0.71997154
-0.01657052 -0.025776356 0.76227355
0 0.001019448 0.6630798
-0.0066419076 0.0066419095 0.66334075
-0.0092096319 0.012789398 0.6635471
-0.0083377799 2.9802322e-08 0.66583216
-0.0020724724 0.0010362267 0.66510957
0.0123817 2.9802322e-08 0.66457504
0.012686314 -0.0010571778 0.66763926
-0.01317195 0.0052685589 0.66721851
-0.01317195 0.0052685589 0.66721851
-0.0089406464 0.0068345591 0.66696531
0.020041846 0.0073838234 0.66735446
0.0021242744 -0.0074349046 0.66823602
-0.011149362 0.0053095967 0.66820925
0.018819023 0.02521199 0.66861594
0.0096253464 0.032084525 0.66912282
0.020668283 0.019035235 0.67133439
-0.0093900124 0.027065672 0.67337465
-0.0093900124 0.027065672 0.67337465
0.0010966135 0.028511971 0.67239773
0.0011183373 0.027958453 0.67502004
-0.013701663 0.0022836328 0.67785281
0.024971602 0.021566391 0.67704016
0.0153012 0.024940282 0.67686826
0.0090353349 0.028235435 0.67635745
0.018449368 0.019602478 0.67921448
0.006918788 0.027675152 0.67922002
-0.0071170474 0.017199874 0.6832087
-0.0071316776 0.020800844 0.68350303
0.010984131 0.017086446 0.68734717
0.0067224978 0.019557446 0.68757427
0.012806575 0.021344662 0.68725479
0.0048655178 0.024935409 0.68685472
0.0066891862 0.024932213 0.68684101
-0.011047224 -0.008592248 0.68819338
0.01002469 -0.010024697 0.69128567
0.012473777 -0.0074842274 0.69059658
-0.0012478974 0.017470598 0.69065928
0.0051867892 0.016857088 0.69655001
0.0093245711 0.011988759 0.70082122
-0.015078878 -0.012337267 0.70549583
0.008429802 0.0084298253 0.70961928
-0.0028144177 0.012664884 0.70988989
-0.011406744 -0.012832582 0.71213925
-0.001454011 0.011632115 0.71553946
0.017071433 -0.020782188 0.71921277
0.0044451421 0.008890301 0.71888345
0.017205372 -0.016457334 0.72062278
0.016691687 -0.025796235 0.7231943
-0.013887587 -0.022567272 0.74957228
-0.017561631 -0.021073937 0.75201243
-0.01657052 -0.025776356 0.76227355
-0.0064114216 -0.0017031021 0.66643494
0.018461348 0.0011826009 0.66982299
-0.011351509 0.017813142 0.6699912
-0.011351509 0.017813142 0.6699912
0.020124761 0.01118046 0.6749844
0.0060817609 0.029294301 0.67348444
-0.0045311144 -0.0022655129 0.67676318
0.0060543995 0.027676769 0.67922813
0.018903529 0.0096564498 0.68264091
0.019445248 -0.0048612952 0.68672776
0.013999616 0.017958716 0.68699092
-0.0025040684 -0.013772368 0.69115865
-0.0025040684 -0.013772368 0.69115865
-0.012578402 -0.0088048577 0.69185942
-0.011047224 -0.008592248 0.68819338
0.012473777 -0.0074842274 0.69059658
0.0040716054 -0.013572007 0.70385355
-0.0020061419 0.01474306 0.70181054
-0.01442313 -0.013052315 0.70585376
0.017852586 -0.025291175 0.71960795
-0.022542102 -0.01040405 0.74933803
-0.0035282501 -0.024697721 0.7529735
-0.023319593 -0.014350504 0.75655735
