# .PCD v0.7 - Point Cloud Data file format
VERSION 0.7
FIELDS x y z
SIZE 4 4 4
TYPE F F F
COUNT 1 1 1
WIDTH 1330
HEIGHT 1
VIEWPOINT 0 0 0 1 0 0 0
POINTS 1330
DATA ascii
-0.053164393 0.037604094 0.69654942
-0.05321702 0.036343366 0.69670433
-0.053238101 0.035059243 0.69676638
-0.053244468 0.033764809 0.69678515
-0.053848431 0.03283447 0.69856328
-0.046136037 0.027006477 0.67585677
-0.045915373 0.025757432 0.67520708
-0.0459284 0.024644524 0.67524546
-0.046038974 0.023580939 0.67557102
-0.046246264 0.022559196 0.67618132
-0.046559732 0.021576494 0.67710423
-0.046967894 0.020620048 0.67830586
-0.047467735 0.019681752 0.6797775
-0.048093978 0.01876837 0.68162131
-0.048970498 0.017916054 0.68420184
-0.051959414 0.038969576 0.69682622
-0.052060813 0.037744105 0.69713217
-0.052134238 0.036493987 0.69735372
-0.052711584 0.035580367 0.69909602
-0.052826382 0.034337163 0.69944251
-0.044726871 0.02795428 0.67500007
-0.044568244 0.026740968 0.67452133
-0.044565246 0.02562502 0.67451227
-0.044647992 0.024556398 0.67476195
-0.04481123 0.023525894 0.67525458
-0.045058485 0.022529274 0.67600071
-0.045373417 0.021552384 0.67695117
-0.045748878 0.020587027 0.67808425
-0.04618641 0.01962927 0.67940456
-0.046711534 0.018684626 0.68098927
-0.047373712 0.017765135 0.68298757
-0.048410103 0.016943574 0.68611515
-0.050670091 0.040276229 0.69685608
-0.050816014 0.039089233 0.69730771
-0.050939985 0.037878484 0.69769144
-0.051596712 0.03704381 0.69972414
-0.051692169 0.035786927 0.70001954
-0.043424379 0.028949589 0.67442954
-0.043287333 0.027748287 0.67400533
-0.043273509 0.026629835 0.67396259
-0.043337304 0.025557876 0.67416
-0.043464351 0.024518341 0.67455328
-0.043669123 0.023514152 0.67518711
-0.043926042 0.022526205 0.67598224
-0.044224501 0.021545291 0.67690599
-0.044561304 0.020566791 0.67794847
-0.044947065 0.019592315 0.67914248
-0.045398343 0.018624932 0.68053925
-0.045941953 0.017670006 0.68222177
-0.046674427 0.016754925 0.68448895
-0.048033521 0.016011208 0.68869549
-0.049080167 0.042622238 0.69593263
-0.04929271 0.041509688 0.69660783
-0.049483906 0.040368468 0.6972152
-0.049690429 0.039229333 0.69787121
-0.050353672 0.0384278 0.69997811
-0.04270367 0.031465888 0.67567706
-0.042186026 0.029974341 0.67403275
-0.042066008 0.02878204 0.67365146
-0.04204578 0.027661711 0.6735872
-0.042091887 0.026584357 0.67373371
-0.042192228 0.025537431 0.67405248
-0.042364284 0.024526685 0.67459899
-0.042574786 0.023528218 0.6752677
-0.042815417 0.02253446 0.67603207
-0.043088287 0.021544129 0.6768989
-0.043392878 0.020554543 0.67786646
-0.043737415 0.019566745 0.67896086
-0.044132859 0.018582284 0.68021709
-0.044598393 0.017604649 0.68169588
-0.045186922 0.016647816 0.68356538
-0.046003535 0.01573807 0.68615943
-0.047564927 0.043708324 0.69520301
-0.047830898 0.042659998 0.69607067
-0.048067134 0.041571587 0.69684142
-0.048746195 0.04084146 0.6990568
-0.049024086 0.039749295 0.69996345
-0.04131452 0.032381684 0.67481136
-0.040994007 0.031022519 0.67376566
-0.040890221 0.02983883 0.6734271
-0.040868513 0.028718412 0.67335629
-0.040905703 0.027638972 0.67347765
-0.040986557 0.026585907 0.6737414
-0.041123167 0.025563061 0.67418706
-0.041301247 0.024557531 0.67476803
-0.041502707 0.023555577 0.67542529
-0.041724142 0.022553593 0.6761477
-0.041968904 0.021551639 0.67694628
-0.042241801 0.020550072 0.67783654
-0.042550351 0.019550174 0.6788432
-0.042902637 0.018552512 0.6799925
-0.043312248 0.017559052 0.68132883
-0.04380605 0.016575277 0.68293989
-0.044421781 0.015607655 0.68494862
-0.045377731 0.014717132 0.68806732
-0.045956172 0.044679612 0.69411922
-0.046279557 0.043708473 0.69520354
-0.046566758 0.042686224 0.69616652
-0.047344007 0.042083561 0.69877273
-0.047613777 0.041000783 0.69967729
-0.040083144 0.033402652 0.6744265
-0.03987157 0.032118797 0.67371708
-0.039767753 0.030930489 0.67336893
-0.039735291 0.029801488 0.67326009
-0.039764088 0.028718531 0.67335671
-0.039832339 0.027661353 0.67358553
-0.039941464 0.02662763 0.67395145
-0.040090725 0.025613546 0.67445195
-0.040254313 0.02459988 0.67500043
-0.040433612 0.023586303 0.67560166
-0.040636949 0.022576094 0.67628348
-0.040862352 0.021566272 0.67703927
-0.041111879 0.020555973 0.67787588
-0.041390479 0.019545496 0.67881012
-0.041705389 0.018535733 0.67986602
-0.042066537 0.017527729 0.681077
-0.042489488 0.016523689 0.68249524
-0.042999964 0.015527785 0.68420684
-0.043679543 0.014559865 0.68648553
-0.044900924 0.013719738 0.6905809
-0.04421439 0.045477688 0.69251472
-0.044617649 0.044617683 0.69390553
-0.044969726 0.04368493 0.6951198
-0.04584825 0.043228358 0.69814968
-0.039407011 0.036029279 0.67593467
-0.038975216 0.034520924 0.67444545
-0.038788009 0.033246875 0.67379981
-0.038692001 0.032059073 0.67346871
-0.038652647 0.030922145 0.67333293
-0.038662355 0.02982524 0.67336649
-0.038717993 0.028761983 0.67355835
-0.038810663 0.027721912 0.67387795
-0.038929306 0.026694357 0.67428714
-0.039059967 0.025667995 0.67473775
-0.039210457 0.02464658 0.67525679
-0.039377153 0.023626328 0.67583168
-0.039559938 0.022605717 0.67646211
-0.039761189 0.02158466 0.67715621
-0.039989073 0.020565838 0.67794216
-0.040243007 0.019546658 0.67881793
-0.040527042 0.018526703 0.67979753
-0.040848568 0.01750654 0.68090641
-0.041218359 0.01648736 0.68218184
-0.041653316 0.01547125 0.68368191
-0.042199071 0.014468253 0.68556416
-0.042955052 0.013500184 0.68817145
-0.042350639 0.046087474 0.69038284
-0.042795379 0.045312732 0.69196177
-0.043245602 0.044517547 0.69356024
-0.044259649 0.044259667 0.69716048
-0.038212251 0.037088364 0.67569023
-0.037918877 0.03568837 0.6746487
-0.037742499 0.034412324 0.67402244
-0.037650604 0.033221155 0.67369622
-0.037608173 0.032077551 0.67354554
-0.037603863 0.030967921 0.67353022
-0.037646763 0.029895961 0.67368257
-0.037719965 0.028844714 0.67394245
-0.037810743 0.02780202 0.67426479
-0.037916806 0.02676484 0.67464131
-0.038038157 0.025731713 0.67507219
-0.03817163 0.024699301 0.67554605
-0.038319711 0.023668081 0.67607176
-0.038489122 0.022640675 0.67667323
-0.0386751 0.021612585 0.67733347
-0.03888002 0.02058351 0.67806107
-0.039107312 0.019553661 0.678868
-0.039362568 0.018523574 0.67977422
-0.039651103 0.017493159 0.68079859
-0.039979313 0.016462088 0.6819638
-0.040359411 0.015431553 0.68331337
-0.040819027 0.01440677 0.68494511
-0.041392669 0.013391793 0.68698174
-0.042275168 0.012433857 0.69011486
-0.04083655 0.047023892 0.68940073
-0.040518507 0.045429885 0.68823743
-0.038542069 0.042045891 0.68100774
-0.037642963 0.039924383 0.67771894
-0.037188198 0.038315147 0.67605543
-0.03693033 0.036930352 0.67511219
-0.0367622 0.035648227 0.67449719
-0.036648348 0.034427255 0.67408073
-0.036598634 0.033271521 0.67389888
-0.036587071 0.032152295 0.67385662
-0.036611605 0.031064391 0.67394632
-0.036665924 0.029999435 0.67414504
-0.036731701 0.028940141 0.67438561
-0.036814842 0.027890086 0.67468971
-0.036908578 0.026842624 0.67503262
-0.037012942 0.02579692 0.67541438
-0.037136409 0.024757624 0.67586601
-0.037272576 0.023718923 0.67636406
-0.037422318 0.022680193 0.67691183
-0.037590023 0.021642774 0.67752528
-0.037778761 0.020606607 0.67821568
-0.037987147 0.019569188 0.67897791
-0.038218088 0.018530011 0.67982268
-0.03847637 0.017489254 0.68076748
-0.038768813 0.016447395 0.6818372
-0.039104771 0.01540494 0.68306607
-0.039498646 0.01436314 0.68450683
-0.039974675 0.013324916 0.68624806
-0.040600572 0.012303233 0.6885376
-0.041693006 0.011370838 0.69253355
-0.038180716 0.045339614 0.68405044
-0.037222862 0.043038934 0.68043715
-0.036627799 0.0412063 0.67819244
-0.03624643 0.039644569 0.67675388
-0.035985891 0.038235039 0.675771
-0.035813648 0.036932856 0.67512131
-0.035699699 0.035699725 0.67469144
-0.035627518 0.034514159 0.67441922
-0.035609946 0.033384323 0.67435288
-0.03561759 0.032278448 0.67438173
-0.035646021 0.031190306 0.67448896
-0.035692248 0.030115366 0.67466336
-0.035749398 0.029046416 0.67487895
-0.035816651 0.027981758 0.67513263
-0.03589968 0.026924789 0.67544585
-0.035995908 0.025872082 0.67580885
-0.036102731 0.024820656 0.67621177
-0.036223996 0.023772001 0.67666924
-0.036362596 0.022726655 0.67719209
-0.036514971 0.021680802 0.67776686
-0.036682658 0.020634025 0.67839938
-0.03687096 0.019587725 0.67910969
-0.037082214 0.018541127 0.67990661
-0.03731693 0.017492354 0.68079197
-0.037579644 0.016441137 0.68178296
-0.037877794 0.015387893 0.6829077
-0.038221005 0.014332891 0.68420243
-0.038625162 0.013277411 0.68572688
-0.039126839 0.012227148 0.68761933
-0.039821453 0.011199802 0.69023961
-0.036380071 0.044594944 0.68168485
-0.035792444 0.04272005 0.67939669
-0.03538236 0.041089207 0.67779988
-0.035119113 0.039650619 0.67677486
-0.034924064 0.038303792 0.67601538
-0.034793768 0.037038565 0.67550796
-0.034714378 0.035834193 0.67519885
-0.034668345 0.034668356 0.67501956
-0.034657191 0.033539236 0.67497611
-0.034664776 0.032428354 0.67500567
-0.034685761 0.031329095 0.67508739
-0.034717735 0.030238032 0.67521185
-0.034763001 0.029156089 0.67538816
-0.034822676 0.028082818 0.67562056
-0.034892838 0.027013808 0.67589372
-0.034974068 0.025948524 0.67621005
-0.035072803 0.024890393 0.6765945
-0.035181854 0.023832887 0.67701912
-0.03530281 0.022776037 0.67749012
-0.035441499 0.021722257 0.67803013
-0.035596218 0.020668775 0.67863262
-0.035766538 0.019613951 0.67929584
-0.035954811 0.01855734 0.68002892
-0.036166068 0.017499715 0.68085158
-0.036403064 0.016440123 0.68177438
-0.03666988 0.01537773 0.68281335
-0.036973096 0.014312148 0.68399405
-0.037324257 0.013244122 0.68536139
-0.037747122 0.012176514 0.68700802
-0.038278177 0.011113048 0.68907589
-0.039089832 0.010087699 0.69223642
-0.03516851 0.044546813 0.68153191
-0.034662616 0.042750537 0.67949635
-0.034329854 0.041195869 0.67815745
-0.03410276 0.039786547 0.67724371
-0.033944737 0.038470685 0.67660785
-0.033841036 0.037225157 0.67619061
-0.033776671 0.036028475 0.67593157
-0.033739828 0.034864515 0.67578334
-0.033718985 0.033718973 0.67569947
-0.033712115 0.032588392 0.67567182
-0.033719528 0.03147158 0.67570162
-0.033744197 0.030369788 0.67580092
-0.033779409 0.029275507 0.6759426
-0.033824239 0.028186858 0.67612296
-0.033885811 0.027108669 0.67637074
-0.033958446 0.026034832 0.67666298
-0.034041397 0.024963707 0.67699677
-0.034138948 0.02389729 0.67738926
-0.034249995 0.022833347 0.67783606
-0.034373097 0.021769613 0.67833143
-0.034510221 0.020706147 0.67888314
-0.034665845 0.019643992 0.67950934
-0.034838472 0.018580496 0.68020391
-0.035029415 0.017514706 0.68097222
-0.035241753 0.016446173 0.68182659
-0.035479613 0.015374541 0.68278366
-0.035749737 0.01429987 0.68387061
-0.036059525 0.01322186 0.68511713
-0.036422003 0.012140691 0.68657559
-0.036862493 0.011058748 0.688348
-0.037434235 0.0099825263 0.69064844
-0.038401917 0.0089604259 0.69454217
-0.034212768 0.044830531 0.68243325
-0.033699598 0.042996049 0.68029726
-0.033390056 0.041449755 0.67900878
-0.033185523 0.04005149 0.67815745
-0.033041451 0.038738281 0.67755771
-0.032939706 0.037483126 0.67713422
-0.032864075 0.036263824 0.67681944
-0.032809291 0.035072029 0.6765914
-0.032776315 0.033906549 0.67645407
-0.032760009 0.032760054 0.67638624
-0.032757133 0.031627595 0.67637426
-0.032766934 0.030507177 0.67641509
-0.032792527 0.0294002 0.6765216
-0.032830883 0.028302521 0.67668122
-0.032878339 0.027209729 0.67687875
-0.032938521 0.026123673 0.67712933
-0.033013523 0.025044769 0.67744148
-0.033098757 0.023968071 0.67779624
-0.03319449 0.022892743 0.67819476
-0.033307061 0.021821856 0.67866337
-0.033432044 0.02075094 0.67918354
-0.03357004 0.01967904 0.67975795
-0.033724412 0.018606573 0.68040055
-0.033898219 0.017533571 0.68112397
-0.034091346 0.016457915 0.6819278
-0.034306299 0.015378714 0.68282253
-0.034547299 0.014295459 0.68382573
-0.034821283 0.013208091 0.68496615
-0.035137225 0.012116283 0.6862812
-0.035509553 0.011020213 0.68783104
-0.035967749 0.0099221766 0.68973827
-0.036599122 0.0088342726 0.6923663
-0.033752698 0.045807242 0.68553585
-0.032925252 0.043508381 0.68196863
-0.032569893 0.041875601 0.68043667
-0.032341342 0.040426672 0.67945135
-0.032173008 0.039067209 0.67872566
-0.032047424 0.037770182 0.67818427
-0.03195354 0.036518335 0.6777795
-0.031884424 0.035300642 0.67748153
-0.031835284 0.034109265 0.6772697
-0.03180344 0.032939315 0.67713237
-0.031791385 0.031791389 0.67708051
-0.03179232 0.030656874 0.67708451
-0.031805728 0.029533893 0.67714226
-0.031832576 0.028421968 0.67725801
-0.031871997 0.027318865 0.67742801
-0.03192177 0.026221454 0.67764258
-0.031982213 0.025128901 0.67790318
-0.032057669 0.024043262 0.67822844
-0.032145049 0.022960752 0.67860514
-0.032241989 0.021878541 0.67902309
-0.032352746 0.020798236 0.67950052
-0.032479323 0.019719601 0.6800462
-0.032619141 0.018639505 0.68064904
-0.032773744 0.017557383 0.68131554
-0.032946657 0.016473323 0.68206096
-0.033141151 0.015386969 0.68289942
-0.033357956 0.014296293 0.68383408
-0.033601969 0.013200819 0.68488604
-0.033879992 0.012100041 0.68608463
-0.034202166 0.0109936 0.68747354
-0.034586377 0.0098818243 0.68912995
-0.035073768 0.0087684691 0.69123113
-0.035813291 0.0076743066 0.69441932
-0.032472108 0.044498831 0.68519998
-0.031847753 0.04246369 0.68240863
-0.031530391 0.040872753 0.68098974
-0.031317152 0.0394364 0.68003643
-0.031160606 0.038085192 0.67933655
-0.031044297 0.036793262 0.67881656
-0.030958142 0.035544574 0.67843139
-0.030895241 0.034328073 0.67815012
-0.030851655 0.033136964 0.67795527
-0.030824082 0.031965733 0.67783201
-0.030812744 0.03081274 0.67778134
-0.030817401 0.02967605 0.67780215
-0.030834315 0.028550297 0.67787778
-0.030862818 0.027433604 0.67800522
-0.030902466 0.026324302 0.67818248
-0.030954568 0.025222272 0.67841542
-0.031017097 0.024124414 0.67869496
-0.031091107 0.02303049 0.67902583
-0.031180074 0.021941543 0.67942357
-0.031278729 0.020852506 0.67986459
-0.031389136 0.019763559 0.68035829
-0.031514928 0.018675506 0.68092066
-0.031656042 0.017586738 0.68155152
-0.031812225 0.016495258 0.68224978
-0.03198554 0.01540044 0.68302464
-0.032179512 0.014302015 0.68389183
-0.032397203 0.013198853 0.68486506
-0.032643843 0.012090325 0.68596768
-0.032926831 0.010975629 0.68723285
-0.033257037 0.0098539889 0.68870914
-0.033659745 0.0087266266 0.69050956
-0.034176834 0.0075948536 0.69282138
-0.035034232 0.0064878166 0.69665462
-0.031295106 0.043331712 0.68531913
-0.030764913 0.04141432 0.68285763
-0.030482566 0.039861828 0.68154669
-0.030284332 0.038437843 0.68062639
-0.030139148 0.037094355 0.67995232
-0.030031946 0.035807312 0.67945462
-0.029953184 0.034561366 0.67908895
-0.029896487 0.033346087 0.67882574
-0.029858148 0.032154948 0.6786477
-0.029835075 0.030982614 0.67854059
-0.029825618 0.029825658 0.67849672
-0.029832218 0.028684825 0.67852736
-0.029852327 0.027556002 0.67862076
-0.029882444 0.026434511 0.67876053
-0.029922331 0.025318891 0.67894572
-0.029976441 0.024211735 0.67919695
-0.030041033 0.023108512 0.67949677
-0.030115338 0.022007376 0.67984176
-0.030203637 0.020910203 0.68025172
-0.030303633 0.019813925 0.68071598
-0.030415142 0.018716991 0.68123376
-0.030539963 0.017619222 0.68181318
-0.030680703 0.016520411 0.68246663
-0.030838003 0.015419006 0.6831969
-0.031012779 0.014313638 0.68400836
-0.031207973 0.013203382 0.68491459
-0.031426396 0.012087107 0.68592864
-0.031675972 0.010964751 0.68708736
-0.031963207 0.0098348558 0.68842089
-0.03230264 0.0086968839 0.68999678
-0.032718409 0.0075504184 0.69192708
-0.033284236 0.0064008534 0.69455409
-0.030127246 0.042178154 0.68549192
-0.029686887 0.04037419 0.6833657
-0.029426524 0.038843036 0.68210858
-0.029243458 0.037431657 0.68122464
-0.02911184 0.036098689 0.68058914
-0.029012568 0.034815103 0.6801098
-0.028938727 0.033568949 0.67975324
-0.028888009 0.032354623 0.67950839
-0.028854618 0.031163007 0.67934722
-0.028835939 0.029989392 0.67925698
-0.028830007 0.028830022 0.67922831
-0.028837088 0.027683616 0.67926252
-0.028859986 0.026551217 0.67937309
-0.028892526 0.025425434 0.67953026
-0.028933041 0.024303764 0.67972583
-0.028987203 0.023189783 0.67998731
-0.029053517 0.022080719 0.68030751
-0.029129704 0.020973414 0.68067539
-0.029216018 0.019866914 0.68109214
-0.029316587 0.018762618 0.6815778
-0.029429317 0.017657578 0.68212211
-0.029554272 0.016550392 0.68272543
-0.029694194 0.015441 0.68340099
-0.029850928 0.01432851 0.68415779
-0.030026959 0.013211846 0.68500775
-0.030222945 0.012089193 0.68595409
-0.030443788 0.010959744 0.68702036
-0.030695623 0.009822607 0.68823636
-0.030987987 0.0086766481 0.68964803
-0.031335291 0.0075204968 0.69132495
-0.031775557 0.0063551366 0.69345069
-0.032441407 0.0051906407 0.6966657
-0.028990626 0.041070074 0.68583637
-0.028603321 0.039329559 0.68388838
-0.028362934 0.03781727 0.6826793
-0.028199408 0.036424249 0.68185687
-0.0280775 0.035096884 0.68124372
-0.027986009 0.033816457 0.68078351
-0.027918268 0.032571346 0.68044281
-0.027869752 0.031353503 0.68019879
-0.027841093 0.030161232 0.68005461
-0.027826322 0.028985769 0.67998034
-0.027824001 0.027824014 0.67996866
-0.027834032 0.0266743 0.68001914
-0.027858859 0.025537282 0.68014401
-0.02789147 0.024405032 0.68030798
-0.027934073 0.023278385 0.68052232
-0.027987793 0.022157043 0.68079251
-0.028054547 0.021040916 0.68112826
-0.028132247 0.019927055 0.68151903
-0.028218588 0.018812418 0.68195331
-0.028318148 0.017698854 0.68245411
-0.02843101 0.016584754 0.68302166
-0.028556796 0.015468299 0.68365437
-0.028696533 0.014348269 0.68435717
-0.028852509 0.013224095 0.68514168
-0.029028066 0.012095064 0.68602467
-0.029224295 0.010959148 0.6870116
-0.029446779 0.0098156035 0.68813062
-0.029701531 0.0086629689 0.68941188
-0.029999852 0.007499963 0.69091237
-0.030362152 0.0063254535 0.6927346
-0.030825896 0.0051376522 0.69506705
-0.031588972 0.0039485991 0.69890499
-0.027848711 0.039956868 0.68618286
-0.027511826 0.038277328 0.6844148
-0.027297569 0.036792397 0.68329036
-0.027146062 0.035407931 0.68249518
-0.027033484 0.034085721 0.68190432
-0.026949523 0.032808125 0.68146372
-0.026887959 0.031564146 0.68114054
-0.026844608 0.030346096 0.68091309
-0.026817402 0.029149383 0.68077028
-0.026806159 0.027971655 0.68071127
-0.026807237 0.026807249 0.68071687
-0.026820283 0.025654167 0.68078542
-0.0268465 0.024512082 0.68092299
-0.026879277 0.023373306 0.681095
-0.026923649 0.022241294 0.68132788
-0.026978271 0.021113425 0.68161458
-0.027044186 0.019989222 0.68196046
-0.02712266 0.01886794 0.68237233
-0.027209926 0.017745644 0.68283033
-0.027308764 0.016622782 0.68334907
-0.027420545 0.015498579 0.68393576
-0.027546344 0.014371991 0.684596
-0.027686531 0.01324141 0.6853317
-0.027842598 0.012105495 0.68615079
-0.028018005 0.010963589 0.68707138
-0.028214052 0.0098136067 0.68810034
-0.028438037 0.0086550713 0.68927586
-0.02869628 0.0074859858 0.69063115
-0.029000346 0.0063044429 0.69222701
-0.029373514 0.0051084757 0.6941855
-0.029877333 0.0038970709 0.69682968
-0.02671759 0.03886199 0.68662012
-0.026414502 0.037220448 0.68495715
-0.02622322 0.035758972 0.68390757
-0.02608319 0.034382373 0.68313932
-0.025979653 0.033065051 0.68257117
-0.025902975 0.031790018 0.68215048
-0.02584736 0.030546933 0.68184531
-0.025809137 0.029328614 0.68163562
-0.025785197 0.028129339 0.68150425
-0.025775459 0.026947081 0.68145084
-0.025779543 0.025779575 0.6814732
-0.025795463 0.024622947 0.68156058
-0.025822826 0.023475319 0.68171072
-0.025855666 0.022329897 0.6818909
-0.025901571 0.021192193 0.68214279
-0.025957597 0.020058155 0.68245018
-0.026023166 0.018925935 0.68280995
-0.026100824 0.01779604 0.683236
-0.026188811 0.016665637 0.6837188
-0.026287425 0.015533477 0.68425989
-0.026398631 0.01439929 0.68487006
-0.02652329 0.013261646 0.68555403
-0.026662983 0.012119532 0.68632048
-0.026819482 0.010971606 0.68717921
-0.026994502 0.0098162293 0.6881395
-0.027191054 0.0086516738 0.68921798
-0.027416227 0.0074771643 0.69045347
-0.027677592 0.0062903762 0.6918875
-0.027987983 0.0050887764 0.69359058
-0.028379073 0.0038698614 0.69573647
-0.028969947 0.002633661 0.69897848
-0.026181774 0.039896071 0.69052088
-0.025584796 0.037768066 0.68708938
-0.025315667 0.036165267 0.6855424
-0.025139658 0.034716696 0.68453074
-0.025010664 0.033347547 0.68378925
-0.024915868 0.032034665 0.68324435
-0.0248463 0.030762136 0.6828444
-0.024796484 0.029519647 0.68255812
-0.024762908 0.028300464 0.68236512
-0.024743091 0.027099609 0.68225121
-0.024735626 0.025913537 0.6822083
-0.02474091 0.024740934 0.68223864
-0.024760218 0.023581147 0.68234968
-0.02478764 0.022426933 0.68250728
-0.024820607 0.021274835 0.68269676
-0.024867639 0.020130962 0.68296713
-0.024924891 0.018990397 0.6832962
-0.024991134 0.017850816 0.68367696
-0.025067028 0.016711384 0.6841132
-0.025154825 0.015572041 0.68461788
-0.02525381 0.014430761 0.68518686
-0.02536433 0.013286084 0.68582219
-0.025487922 0.012137115 0.68653262
-0.025626577 0.010982841 0.68732959
-0.025782775 0.009822011 0.68822742
-0.025956482 0.0086521804 0.68922591
-0.026153808 0.0074725151 0.69036019
-0.026380265 0.0062810183 0.69166189
-0.026644684 0.0050751865 0.69318181
-0.026965583 0.0038522184 0.6950264
-0.027376123 0.002607286 0.69738626
-0.02804715 0.0013355911 0.70124334
-0.024908656 0.038608462 0.6903618
-0.02444808 0.036672145 0.68758196
-0.024208592 0.035102487 0.68613654
-0.024046754 0.033665448 0.6851598
-0.023928434 0.032303393 0.68444562
-0.02384199 0.030994594 0.6839239
-0.023779335 0.029724181 0.68354571
-0.023735153 0.028482169 0.6832791
-0.023706168 0.027262121 0.6831041
-0.023689844 0.026058853 0.68300557
-0.023685079 0.024869323 0.68297684
-0.023692023 0.023692042 0.68301874
-0.023714418 0.022528738 0.68315393
-0.02374083 0.021366745 0.68331337
-0.023775918 0.020209551 0.68352509
-0.023822539 0.019058049 0.68380648
-0.023879841 0.017909914 0.68415236
-0.023946904 0.016762853 0.68455708
-0.024022149 0.01561439 0.68501121
-0.024108902 0.014465362 0.68553489
-0.024207158 0.013313949 0.6861279
-0.024317021 0.012158543 0.68679094
-0.02443991 0.010997981 0.68753266
-0.024577169 0.0098308921 0.68836111
-0.024731632 0.0086560845 0.68929338
-0.024905264 0.0074715912 0.69034135
-0.025103007 0.006275773 0.69153476
-0.025805097 0.005161047 0.69577229
-0.025694231 0.0038541555 0.69510317
-0.025928142 0.0025928319 0.69651496
-0.026369793 0.0013185143 0.6991806
-0.023688102 0.037402272 0.69051987
-0.02330792 0.035575271 0.68810445
-0.023092361 0.034030855 0.68673497
-0.022945646 0.032606989 0.68580288
-0.022840068 0.031254828 0.68513215
-0.022761403 0.029949218 0.6846323
-0.022703245 0.028677821 0.68426287
-0.022663031 0.02743423 0.68400735
-0.022638474 0.02621299 0.68385136
-0.022625517 0.025007159 0.68376905
-0.022623733 0.02381447 0.68375766
-0.022633351 0.022633374 0.68381882
-0.022656653 0.021464229 0.68396688
-0.022682808 0.020295143 0.68413305
-0.022719419 0.019132137 0.68436563
-0.022766033 0.017973214 0.68466175
-0.022822618 0.016816705 0.68502128
-0.022889879 0.015661538 0.68544859
-0.022964804 0.014504135 0.68592459
-0.023050597 0.013345093 0.68646967
-0.023147581 0.012182921 0.68708581
-0.023256356 0.01101619 0.68777692
-0.023378156 0.0098434091 0.68855077
-0.023514466 0.0086632669 0.68941671
-0.023668315 0.0074742436 0.6903941
-0.023840278 0.0062737763 0.69148672
-0.024862712 0.0052342713 0.69798237
-0.024647091 0.0038916767 0.69661248
-0.024548205 0.00258407 0.69598424
-0.024880797 0.0013095438 0.69809729
-0.025391998 2.9802322e-08 0.70134503
-0.022482499 0.036221832 0.69079572
-0.022161774 0.034473866 0.68864495
-0.021968879 0.032953352 0.68735135
-0.021838475 0.031544507 0.68647683
-0.021741986 0.030197233 0.68582976
-0.021670496 0.028894007 0.6853503
-0.021618214 0.027623296 0.68499976
-0.021581663 0.026377589 0.68475461
-0.021559568 0.025152832 0.68460643
-0.021549689 0.02394411 0.68454021
-0.021550654 0.022747934 0.68454665
-0.02156269 0.021562696 0.68462735
-0.021586802 0.02038753 0.68478906
-0.021612836 0.019211411 0.68496364
-0.021650467 0.018042088 0.68521601
-0.02169756 0.016875893 0.68553185
-0.021753557 0.01571089 0.68590736
-0.02181958 0.014546394 0.68635011
-0.021894434 0.013379961 0.6868521
-0.021979069 0.012210637 0.68741965
-0.022074718 0.01103738 0.68806106
-0.022182133 0.0098587573 0.68878144
-0.022302281 0.0086731017 0.68958718
-0.022437979 0.0074793696 0.69049716
-0.022589279 0.0062747896 0.69151187
-0.023645781 0.0052546561 0.69859689
-0.023431666 0.0039052963 0.69716102
-0.023252476 0.0025836229 0.69595933
-0.023465337 0.001303643 0.6973868
-0.023888087 5.9604645e-08 0.70022178
-0.024394378 -0.0013552308 0.7036171
-0.021285655 0.035058737 0.69116628
-0.0210097 0.033368379 0.68920684
-0.020840181 0.031873226 0.68800312
-0.020720948 0.030471981 0.6871565
-0.020633368 0.029129475 0.68653464
-0.020568706 0.027828306 0.68607545
-0.020522041 0.026557982 0.68574417
-0.02049008 0.025311291 0.68551719
-0.020470481 0.024082929 0.68537807
-0.020462893 0.022870302 0.68532419
-0.020465871 0.021669775 0.68534535
-0.020481482 0.020481497 0.68545616
-0.020504661 0.019298524 0.68562067
-0.020530388 0.018115073 0.68580341
-0.020568848 0.016939074 0.68607652
-0.020616444 0.015765518 0.68641448
-0.020671999 0.014591992 0.68680894
-0.020736441 0.013417721 0.68726653
-0.020810518 0.012241513 0.68779254
-0.020894436 0.011061758 0.68838835
-0.0209885 0.0098769367 0.68905628
-0.02109403 0.0086857677 0.68980563
-0.021222869 0.0074904561 0.69072044
-0.021345729 0.006278187 0.69159281
-0.021506052 0.0050602853 0.69273126
-0.022185346 0.0039150417 0.69755465
-0.021984864 0.002586484 0.69613111
-0.022096712 0.0012998283 0.69692528
-0.022835972 -0 0.70217448
-0.022784883 -0.0013402998 0.70181179
-0.020089662 0.033901304 0.69158953
-0.019850582 0.032257229 0.68978584
-0.019701451 0.030783504 0.68866074
-0.019593066 0.02938962 0.68784302
-0.019513911 0.028051257 0.68724585
-0.019455999 0.026752025 0.68680894
-0.019414758 0.02548191 0.68649775
-0.019387135 0.024233967 0.68628937
-0.019370787 0.023002833 0.68616605
-0.019365255 0.021785915 0.68612432
-0.019369572 0.020580173 0.68615693
-0.019388014 0.01938805 0.68629599
-0.019410081 0.01819697 0.68646252
-0.019436274 0.017006755 0.68666011
-0.019475015 0.015823483 0.68695235
-0.01952227 0.014641702 0.68730891
-0.019577887 0.013459802 0.68772852
-0.019640896 0.012275577 0.68820381
-0.019713607 0.011088908 0.68875241
-0.019795733 0.0098978877 0.68937206
-0.02036429 0.0089094043 0.69366145
-0.020184847 0.007569313 0.69230771
-0.020109501 0.0062842369 0.6917392
-0.020239297 0.0050598383 0.69271851
-0.020932686 0.0039249063 0.69794965
-0.020740733 0.0025925934 0.69650149
-0.020755213 0.0012972057 0.69661075
-0.02173603 -0 0.70401049
-0.021555677 -0.0013471842 0.70264977
-0.021697685 -0.00271222 0.70372117
-0.019482596 0.035068661 0.69680858
-0.018895987 0.03275308 0.69208795
-0.018686248 0.031143785 0.69040006
-0.018552488 0.029684007 0.68932366
-0.018454676 0.028297186 0.68853652
-0.018383531 0.026962548 0.68796396
-0.018331997 0.025664806 0.68754929
-0.018295961 0.024394631 0.68725932
-0.018272484 0.023145169 0.68707037
-0.018259106 0.021910936 0.68696272
-0.018255459 0.020689547 0.68693334
-0.018261921 0.019479394 0.68698537
-0.018281778 0.018281788 0.68714511
-0.018302707 0.017082542 0.68731356
-0.018330449 0.015886396 0.68753684
-0.018368565 0.01469487 0.68784356
-0.018415032 0.013504386 0.68821746
-0.018469913 0.012313306 0.68865913
-0.018531643 0.011119008 0.68915594
-0.019283293 0.010284424 0.69520473
-0.019298 0.0090057552 0.69532305
-0.019151641 0.007660687 0.69414526
-0.018982356 0.0063274801 0.69278294
-0.018989135 0.0050637722 0.69283754
-0.019117571 0.0038235188 0.69387108
-0.019423351 0.002589792 0.6963318
-0.019428853 0.0012952685 0.69637609
-0.020602502 -0 0.70582092
-0.020437935 -0.0013625324 0.70449662
-0.020298246 -0.0027064085 0.70337248
-0.020632351 -0.0041264296 0.70606107
-0.018075582 0.033568978 0.69587588
-0.017699011 0.031605393 0.69262898
-0.017514028 0.030024081 0.69103402
-0.017393481 0.028574973 0.68999469
-0.017306108 0.027195305 0.68924135
-0.017242985 0.025864482 0.6886971
-0.017196599 0.024566591 0.68829715
-0.017165469 0.023296028 0.68802869
-0.017145867 0.022044688 0.68785971
-0.017135298 0.020807147 0.68776858
-0.017134029 0.019581765 0.68775761
-0.017142905 0.01836744 0.68783414
-0.017162623 0.017162621 0.6880042
-0.017182386 0.015955091 0.68817461
-0.017211445 0.014752686 0.68842512
-0.017249221 0.013552994 0.6887508
-0.017294541 0.012353241 0.68914157
-0.01734795 0.011152267 0.68960208
-0.018040523 0.010308862 0.69557363
-0.018115094 0.0090575516 0.69621658
-0.018093197 0.0077542365 0.69602776
-0.017931331 0.006404072 0.69463211
-0.017781042 0.0050803423 0.69333637
-0.017854266 0.0038259327 0.6939677
-0.017978782 0.0025683939 0.6950413
-0.018121706 0.0012944341 0.69627362
-0.018285805 -0 0.69768852
-0.019294515 -0.0013781488 0.70638579
-0.019132124 -0.0027331412 0.70498562
-0.019069798 -0.0040863454 0.70444816
-0.01679102 0.032290459 0.69593674
-0.016495051 0.03045243 0.69318855
-0.016331997 0.02889511 0.69167447
-0.016225755 0.027458996 0.69068795
-0.016149415 0.026087552 0.68997908
-0.016093144 0.024758697 0.68945664
-0.01605214 0.023460835 0.68907589
-0.016023725 0.022186697 0.68881202
-0.016007088 0.020932347 0.68865758
-0.015999094 0.019691169 0.68858337
-0.015999945 0.018461496 0.68859124
-0.016011797 0.017243505 0.68870127
-0.016030323 0.016030341 0.68887329
-0.016049346 0.014814794 0.6890499
-0.01607888 0.013605207 0.68932414
-0.016116342 0.0123972 0.68967199
-0.016160564 0.01118812 0.69008267
-0.016214572 0.009978205 0.69058412
-0.016848389 0.0090722144 0.69646943
-0.016894706 0.0077975988 0.69689941
-0.016780604 0.0064540803 0.69584
-0.016642487 0.0051208138 0.69455755
-0.016594857 0.0038295984 0.69411528
-0.016702609 0.0025696456 0.69511575
-0.016824605 0.0012942255 0.69624853
-0.016967431 2.9802322e-08 0.69757473
-0.01806234 -0.0013893843 0.70774144
-0.017970221 -0.0027646422 0.70688611
-0.017818524 -0.0041119456 0.70547748
-0.017896887 -0.0055066943 0.70620513
-0.019921064 -0.0091943443 0.7250005
-0.020019418 -0.010779649 0.72591376
-0.015518497 0.031037003 0.69612879
-0.015282175 0.029290825 0.69375157
-0.015141769 0.02775991 0.69233918
-0.015049137 0.026336014 0.69140738
-0.014981225 0.024968714 0.69072425
-0.014931493 0.023641557 0.69022393
-0.014895754 0.022343636 0.68986446
-0.014871369 0.021067768 0.68961918
-0.01485648 0.01980868 0.6894694
-0.014851188 0.018563986 0.68941617
-0.01485341 0.017329007 0.68943852
-0.014867339 0.016106308 0.68957865
-0.014884694 0.014884681 0.68975323
-0.014903155 0.013661265 0.6899389
-0.014933044 0.012444198 0.69023961
-0.014969554 0.011227131 0.69060683
-0.015012779 0.010008544 0.69104165
-0.015062402 0.0087864101 0.69154084
-0.015123481 0.0075617433 0.69215518
-0.015188763 0.0063286722 0.69281197
-0.015264328 0.0050881207 0.69357204
-0.015339011 0.0038347542 0.6943233
-0.015431316 0.0025718808 0.69525182
-0.015536017 0.0012947023 0.69630504
-0.015653424 2.9802322e-08 0.69748598
-0.016717182 -0.0013931096 0.70818663
-0.016761804 -0.0027936101 0.70863551
-0.016637936 -0.0041594803 0.70738947
-0.016513268 -0.0055043995 0.70613539
-0.016756281 -0.0069817603 0.7085799
-0.018162791 -0.0090813637 0.72272837
-0.01799388 -0.010496438 0.72102922
-0.017828006 -0.011885345 0.71936071
-0.017757321 -0.013317972 0.71864963
-0.014259201 0.02981475 0.6965009
-0.014061122 0.028122276 0.69432724
-0.013943451 0.026619315 0.69303596
-0.01386128 0.025202364 0.69213426
-0.013801369 0.023838729 0.69147682
-0.013757851 0.022512883 0.69099927
-0.013727068 0.021214575 0.69066143
-0.01370659 0.019936889 0.69043672
-0.013695196 0.018675268 0.69031167
-0.013808599 0.017574608 0.6915561
-0.013694755 0.016184717 0.69030684
-0.013709343 0.01495564 0.690467
-0.013725393 0.01372543 0.69064307
-0.013744345 0.012494862 0.69085103
-0.013773468 0.011269212 0.69117063
-0.013808698 0.010042727 0.69155729
-0.01385023 0.0088137984 0.69201297
-0.013898226 0.0075808764 0.69253969
-0.013955517 0.0063434243 0.6931684
-0.014014566 0.0050961971 0.69381642
-0.014084231 0.0038411617 0.69458091
-0.014162669 0.0025750399 0.6954416
-0.01425165 0.0012956262 0.69641805
-0.014351181 2.9802322e-08 0.6975103
-0.015237579 -0.0013852119 0.70723736
-0.015436037 -0.0028065145 0.70941514
-0.015429806 -0.0042080879 0.70934677
-0.01529765 -0.0055627823 0.70789653
-0.01523266 -0.006923914 0.70718336
-0.016447049 -0.0089710951 0.72050971
-0.016295936 -0.010370135 0.71885145
-0.016147505 -0.011743605 0.71722257
-0.016004972 -0.013094962 0.71565849
-0.016442733 -0.014947951 0.72046238
-0.012998941 0.028597683 0.69693583
-0.012834351 0.026952147 0.69494909
-0.012734118 0.02546826 0.69373918
-0.012661961 0.024057776 0.69286811
-0.01260967 0.022697419 0.69223696
-0.012578629 0.021383673 0.69186223
-0.012999962 0.020799935 0.69694817
-0.012864952 0.019297421 0.69531846
-0.012732765 0.017825872 0.69372284
-0.012603221 0.016384184 0.69215906
-0.012522192 0.015026629 0.69118094
-0.012537464 0.013791203 0.69136536
-0.012552229 0.012552232 0.69154358
-0.012571711 0.011314541 0.69177878
-0.012599748 0.010079801 0.69211715
-0.012638656 0.0088470578 0.69258684
-0.012885275 0.0077311993 0.69556379
-0.012788296 0.0063941479 0.69439316
-0.01277795 0.0051111877 0.69426829
-0.012830038 0.0038490295 0.69489706
-0.012896083 0.0025791824 0.69569427
-0.012969829 0.0012969971 0.69658446
-0.013054126 2.9802322e-08 0.69760197
-0.013149022 -0.0013149083 0.69874752
-0.013259663 -0.0026519299 0.70008308
-0.013392282 -0.0040176511 0.70168388
-0.01395594 -0.0055823624 0.70848787
-0.013853504 -0.0069267154 0.70725131
-0.013983968 -0.008390367 0.70882618
-0.014638363 -0.010246843 0.71672541
-0.014506662 -0.011605293 0.71513569
-0.01437731 -0.012939572 0.71357423
-0.014887226 -0.014887214 0.71972954
-0.011736588 0.027385414 0.69743937
-0.011602513 0.02578336 0.69564116
-0.011682396 0.024662822 0.69671255
-0.011751362 0.023502737 0.6976375
-0.011821102 0.022328764 0.69857287
-0.011847525 0.021062285 0.69892728
-0.011740685 0.019567817 0.69749433
-0.011618333 0.018072963 0.69585335
-0.011498548 0.016609013 0.69424677
-0.011381166 0.015174925 0.69267231
-0.011337142 0.0138565 0.69208187
-0.011351298 0.012612551 0.69227177
-0.011364953 0.011364967 0.69245487
-0.011384688 0.010119736 0.69271958
-0.011814181 0.0091888309 0.69848007
-0.011844519 0.0078963339 0.69888699
-0.011882729 0.0066015422 0.69939941
-0.011924005 0.0052995384 0.69995308
-0.01194117 0.003980428 0.70018327
-0.011843218 0.0026318431 0.69886953
-0.011737732 0.0013042092 0.69745469
-0.011759803 -0 0.69775069
-0.011839317 -0.0013154745 0.69881719
-0.011928918 -0.0026508272 0.70001894
-0.012032556 -0.0040108562 0.70140898
-0.012154239 -0.0054018497 0.70304102
-0.012301787 -0.0068343282 0.70501995
-0.012483284 -0.0083221793 0.70745432
-0.012761161 -0.0099253356 0.71118122
-0.012894335 -0.011461616 0.7129674
-0.012796408 -0.012796372 0.71165395
-0.012948098 -0.014386743 0.71368849
-0.013549263 -0.016560197 0.72175145
-0.010471704 0.026179284 0.69803059
-0.010395808 0.024690032 0.69688541
-0.010454534 0.023522705 0.69777149
-0.010516671 0.022347957 0.69870901
-0.01057782 0.021155626 0.69963175
-0.010581726 0.019840777 0.69969064
-0.010472572 0.018326998 0.69804364
-0.010363098 0.016840041 0.69639182
-0.010255888 0.01538384 0.69477421
-0.010150838 0.013957381 0.69318908
-0.01013788 0.012672365 0.69299352
-0.010150615 0.011419475 0.69318569
-0.010163344 0.010163337 0.69337779
-0.010543756 0.0092257857 0.69911778
-0.010567927 0.0079259574 0.69948244
-0.010597419 0.0066233873 0.69992745
-0.010637363 0.0053187013 0.70053011
-0.010662457 0.0039984584 0.70090878
-0.010580719 0.0026451647 0.69967544
-0.010482604 0.0013103485 0.69819504
-0.010467406 5.9604645e-08 0.69796574
-0.010532411 -0.0013165176 0.6989466
-0.010606193 -0.0026515126 0.70005989
-0.010690053 -0.0040087402 0.70132524
-0.010801963 -0.0054009557 0.70301378
-0.010904337 -0.0068151951 0.70455849
-0.011041028 -0.0082807839 0.70662099
-0.011227479 -0.0098240376 0.70943433
-0.011322233 -0.01132223 0.71086407
-0.011239463 -0.01264441 0.70961517
-0.011143761 -0.013929725 0.70817113
-0.011055519 -0.01520133 0.70683968
-0.012169222 -0.018253833 0.7236442
-0.0091970069 0.024963319 0.69862151
-0.0091556367 0.02354306 0.69790804
-0.0092099616 0.02236703 0.69884491
-0.0092650764 0.021177322 0.69979525
-0.0093154283 0.019961655 0.70066357
-0.0092941783 0.018588364 0.70029712
-0.0091956165 0.017077565 0.69859749
-0.0090991566 0.015598565 0.6969341
-0.0090047 0.014150232 0.69530529
-0.00891787 0.012739807 0.69380796
-0.0089241844 0.011473984 0.6939168
-0.0089354627 0.010211974 0.69411129
-0.0089486456 0.0089486539 0.69433862
-0.0092832167 0.0079570413 0.70010805
-0.0093045952 0.0066461265 0.70047677
-0.0093317972 0.0053324699 0.70094585
-0.0093539758 0.0040088594 0.70132828
-0.0092816586 0.0026519299 0.70008123
-0.0091953725 0.0013136268 0.69859326
-0.0091765691 2.9802322e-08 0.69826901
-0.0092268018 -0.0013181269 0.6991353
-0.0092868321 -0.0026533902 0.7001704
-0.0093540838 -0.0040088892 0.70133018
-0.0098452782 -0.0056258738 0.70980048
-0.0098555312 -0.0070396662 0.70997733
-0.009771199 -0.0083752871 0.70852304
-0.0097703356 -0.0097703338 0.70850819
-0.0098006884 -0.011200786 0.70903158
-0.0097236205 -0.012501746 0.70770264
-0.0096405661 -0.013772219 0.7062704
-0.0095695248 -0.015037805 0.70504534
-0.0096955588 -0.016620934 0.70721865
-0.0079127094 0.023738116 0.69921619
-0.0079010446 0.022386283 0.69898146
-0.0079483669 0.02119565 0.69993353
-0.0079962295 0.019990563 0.7008965
-0.0080344407 0.018747032 0.70166528
-0.007994757 0.017321974 0.70086682
-0.007909677 0.015819401 0.69915515
-0.0078264186 0.014348418 0.69748014
-0.0077448939 0.012908161 0.69584
-0.0076875766 0.011531383 0.69468689
-0.007695721 0.010260969 0.69485074
-0.0077055055 0.0089897811 0.69504756
-0.0077250064 0.0077250004 0.69543993
-0.0080067934 0.0066723526 0.70110905
-0.0080254097 0.0053502619 0.70148355
-0.0080402968 0.0040201843 0.701783
-0.0079759778 0.0026586652 0.70048904
-0.0079016434 0.0013169348 0.69899356
-0.007880616 -2.9802322e-08 0.69857055
-0.0079213073 -0.0013202131 0.69938922
-0.0079683568 -0.002656132 0.70033574
-0.0080218893 -0.0040109456 0.70141268
-0.0084678764 -0.0056452155 0.71038526
-0.0085015781 -0.0070846379 0.71106333
-0.0084351907 -0.0084351897 0.70972764
-0.0083671454 -0.0097616911 0.70835876
-0.0083123669 -0.011083156 0.70725673
-0.0082415547 -0.012362301 0.705832
-0.00817197 -0.01361993 0.70443213
-0.0081627872 -0.014965087 0.70424736
-0.0082683899 -0.016536772 0.7063719
-0.0091932826 -0.01991877 0.72497934
-0.0066187941 0.022503912 0.69981658
-0.0066293762 0.021214008 0.70007205
-0.0066693309 0.020008028 0.70103657
-0.0067097954 0.018787444 0.70201355
-0.0067353398 0.017511904 0.70263022
-0.0066860649 0.016046554 0.70144063
-0.0066146613 0.014552265 0.69971681
-0.0065447907 0.013089597 0.69802999
-0.0064763809 0.011657536 0.69637841
-0.0064450516 0.01031211 0.69562209
-0.0064522563 0.0090331733 0.69579601
-0.0064605102 0.0077526569 0.69599527
-0.0066986969 0.0066986978 0.70174563
-0.0067143077 0.0053714514 0.70212251
-0.006720359 0.0040322244 0.7022686
-0.0066636265 0.0026654601 0.70089895
-0.0066013909 0.0013202727 0.69939649
-0.0065813852 -0 0.69891346
-0.0066136038 -0.0013227165 0.69969136
-0.0067151901 -0.0026860535 0.70214379
-0.0066911895 -0.0040147007 0.70156443
-0.0067379782 -0.0053903759 0.70269394
-0.0070285578 -0.0070285797 0.70970923
-0.0069683706 -0.0083620548 0.70825613
-0.0069086552 -0.0096721053 0.70681441
-0.0068499548 -0.010959893 0.70539725
-0.0068246615 -0.012284398 0.70478666
-0.0068092812 -0.013618529 0.70441532
-0.0068172435 -0.0149979 0.70460755
-0.0068643261 -0.016474336 0.70574427
-0.0069680908 -0.018117011 0.70824933
-0.0077422895 -0.021678418 0.72694016
-0.0053194147 0.021277666 0.70055228
-0.0053401184 0.020025462 0.70117706
-0.0053725257 0.018803865 0.70215505
-0.0054053506 0.017567396 0.70314562
-0.0054174229 0.016252309 0.70350993
-0.0053680027 0.014762044 0.70201856
-0.0053104716 0.01327619 0.70028239
-0.0052541806 0.011821926 0.69858372
-0.0051990515 0.01039812 0.69692004
-0.0051874281 0.009077996 0.69656926
-0.0051935338 0.0077902973 0.69675356
-0.0052006077 0.0065007806 0.69696695
-0.0053923274 0.0053923428 0.70275259
-0.0053931014 0.0040448606 0.70277596
-0.0053445539 0.0026723146 0.70131087
-0.0052945111 0.0013236701 0.69980073
-0.0052788863 -0 0.69932926
-0.0053026713 -0.0013256669 0.70004702
-0.0054412191 -0.0027205944 0.70422804
-0.0053900061 -0.004042536 0.70268261
-0.0053945878 -0.0053945482 0.70282084
-0.0054337736 -0.0067921877 0.70400339
-0.0055116694 -0.0082674921 0.70635414
-0.0054655904 -0.0095647573 0.70496356
-0.0054564923 -0.010912985 0.70468903
-0.005486107 -0.012343735 0.70558268
-0.005489639 -0.013724089 0.70568931
-0.0056123566 -0.015433967 0.70939261
-0.0055636726 -0.016690999 0.70792347
-0.0055504083 -0.018038809 0.70752311
-0.0056398446 -0.019739449 0.71022213
-0.0040125814 0.020062923 0.70147854
-0.0040329336 0.018820375 0.70229745
-0.0040575797 0.017582864 0.70328915
-0.004081985 0.016327977 0.70427114
-0.0040826881 0.014969885 0.70429945
-0.004040468 0.013468236 0.70260066
-0.0039970106 0.011991084 0.70085204
-0.0039544934 0.010545313 0.69914132
-0.0039135618 0.00913167 0.69749439
-0.0039143846 0.0078288019 0.69752741
-0.0039192266 0.006532073 0.69772232
-0.0039251149 0.0052334964 0.69795918
-0.0040568057 0.0040568411 0.70325804
-0.0040187072 0.0026791394 0.70172501
-0.003980983 0.0013270378 0.70020711
-0.0039706412 2.9802322e-08 0.69979095
-0.0039868299 -0.0013289154 0.70044237
-0.0041299523 -0.0027532876 0.7062012
-0.0040946519 -0.0040946007 0.70478082
-0.0040586381 -0.0054115057 0.70333177
-0.0040754736 -0.0067924261 0.70400918
-0.0040821605 -0.0081643164 0.70427817
-0.0040542339 -0.0094598532 0.70315456
-0.0040208464 -0.01072228 0.70181113
-0.0043365373 -0.013009578 0.71451354
-0.0042977929 -0.014325976 0.71295452
-0.0042597349 -0.01561901 0.71142322
-0.0042223274 -0.016889274 0.70991814
-0.0041855886 -0.018137544 0.70843983
-0.0042079762 -0.019637197 0.70934063
-0.0046797423 -0.023398668 0.72832304
-0.0027131212 0.02034843 0.70377612
-0.0026918505 0.018842965 0.7024923
-0.0027074555 0.01759845 0.70343423
-0.0027241181 0.016344756 0.70443982
-0.0027395498 0.015067548 0.7053712
-0.0027331712 0.013665855 0.70498621
-0.0027033587 0.012165129 0.70318687
-0.0026741792 0.010696739 0.70142573
-0.002645633 0.0092597306 0.6997028
-0.0026234309 0.0078702867 0.69836283
-0.002625671 0.0065641999 0.69849801
-0.0026290682 0.0052581429 0.69870305
-0.0026348697 0.0039522946 0.69905317
-0.0026808952 0.0026808977 0.7018311
-0.0026592289 0.0013296306 0.70052344
-0.0026554388 2.9802322e-08 0.70029467
-0.002665553 -0.0013327599 0.70090508
-0.0027676993 -0.0027677119 0.70707017
-0.0027526475 -0.0041289628 0.70616174
-0.0027277537 -0.0054554939 0.70465922
-0.0027116074 -0.0067789853 0.70368469
-0.0026958289 -0.0080874562 0.70273244
-0.0026734797 -0.0093571544 0.70138353
-0.0026514977 -0.010605931 0.70005679
-0.0026576221 -0.011959255 0.70042646
-0.0029002668 -0.014501303 0.71507132
-0.0028742726 -0.015808493 0.71350253
-0.0028487286 -0.017092377 0.71196073
-0.0028236462 -0.018353701 0.71044689
-0.0028040383 -0.019628286 0.70926344
-0.0028380142 -0.021285117 0.71131408
-0.003153594 -0.025228739 0.73036098
-0.0013618189 0.01906547 0.70441085
-0.0013549631 0.017614543 0.70358324
-0.0013632721 0.01635927 0.70458627
-0.0013717216 0.015088946 0.70560622
-0.0013786062 0.013786077 0.70643729
-0.0013715862 0.012344301 0.70558989
-0.0013565712 0.010852575 0.70377743
-0.0013418763 0.0093931556 0.70200354
-0.0013275013 0.0079650283 0.70026827
-0.0013198418 0.0065992177 0.6993438
-0.0013210361 0.0052841902 0.69948786
-0.001322892 0.0039686859 0.69971192
-0.0013254505 0.0026509166 0.70002079
-0.0013284605 0.0013284683 0.70038408
-0.001332342 -0 0.70085275
-0.0013369713 -0.001336962 0.70141143
-0.0013785844 -0.0027571619 0.70643461
-0.0013672471 -0.0041017234 0.70506608
-0.0013557455 -0.0054229796 0.70367771
-0.0013444411 -0.0067222118 0.70231313
-0.0013333237 -0.0079999268 0.70097113
-0.0013223885 -0.0092566907 0.69965118
-0.0013215335 -0.010572255 0.69954801
-0.0013299605 -0.011969626 0.70056516
-0.0013398894 -0.013398916 0.70176369
-0.0014543884 -0.015998244 0.71558499
-0.0014415783 -0.017298937 0.71403861
-0.001428845 -0.018574983 0.71250165
-0.0014162309 -0.019827217 0.71097898
-0.0014124486 -0.021186739 0.71052241
-0.0014357882 -0.022972584 0.71333975
0 0.017772526 0.70505047
0 0.016373873 0.70473295
0 0.015102476 0.70575476
0 0.013815254 0.70678926
0 0.012483984 0.70746362
0 0.011013001 0.70619798
0 0.0095305145 0.70437217
0 0.0080801845 0.70258546
0 0.0066611171 0.70083785
0 0.0053122938 0.70033628
0 0.0039880574 0.70049083
0 0.0026627481 0.70073622
0 0.0013340116 0.70105147
0 2.9802322e-08 0.70145744
0 -0.0013416111 0.70197356
0 -0.0027272999 0.70463473
0 -0.0040566921 0.70325351
0 -0.0053639412 0.70189667
0 -0.0066806674 0.70131087
0 -0.007981956 0.70060945
0 -0.0092740059 0.69995004
0 -0.010607034 0.70007265
0 -0.011983901 0.70075655
0 -0.013409019 0.70188606
0 -0.014863253 0.70312983
0 -0.017371565 0.71476942
0 -0.018663943 0.71332753
0 -0.019933373 0.71189445
0 -0.021195829 0.71059585
0 -0.022853136 0.71243846
0 -0.027006894 0.73179072
0.0015577043 0.021807849 0.72805631
0.0015422654 0.020049483 0.72619265
0.0013726375 0.016471684 0.70571673
0.0013741845 0.015116066 0.70590353
0.0013827758 0.013827771 0.70694053
0.0013914695 0.012523234 0.70799005
0.0013951177 0.01116097 0.70843041
0.0013816981 0.0096718967 0.70681047
0.0013664621 0.0081987679 0.70497131
0.0013515531 0.0067577362 0.70317173
0.0013369713 0.0053479075 0.70141143
0.0013363954 0.004009217 0.70134193
0.0013377795 0.0026755929 0.701509
0.0013400237 0.0013400018 0.70177996
0.0013429705 -0 0.70213568
0.0013458575 -0.0013458431 0.70248413
0.0013466816 -0.0026933551 0.70258361
0.0013375528 -0.0040126443 0.70148164
0.0013360922 -0.0053443611 0.70130539
0.001342903 -0.006714493 0.70212746
0.0013436197 -0.0080616772 0.70221394
0.0013364725 -0.0093552768 0.70135128
0.0013638982 -0.010911167 0.70466185
0.0013509699 -0.012158692 0.70310128
0.0013428044 -0.013428032 0.7021156
0.0013521422 -0.014873534 0.70324272
0.0014402578 -0.017283052 0.71387923
0.0014292269 -0.01857993 0.71254778
0.0014183236 -0.019856513 0.71123153
0.0014128909 -0.021193355 0.71057576
0.0014225916 -0.022761464 0.71174675
0.0014452599 -0.024569392 0.71448308
0.0016063708 -0.02891466 0.73393089
0.003105843 0.020188004 0.72747898
0.0030163054 0.018097818 0.72207487
0.0027576829 0.015167236 0.70646572
0.002768052 0.013840258 0.70709151
0.0027854713 0.012534648 0.70814282
0.0028027943 0.011211187 0.70918834
0.0028043778 0.0098153651 0.70928395
0.0027736202 0.008320868 0.70742756
0.0027429236 0.0068573356 0.70557487
0.0027128882 0.005425781 0.70376205
0.0026874887 0.0040312707 0.70222902
0.0026896521 0.0026896596 0.70235968
0.0026929562 0.0013464689 0.70255905
0.0026939062 2.9802322e-08 0.70261633
0.002687894 -0.0013439357 0.70225352
0.0026682548 -0.0026682615 0.70106816
0.0026463682 -0.0039695501 0.69974726
0.0026659006 -0.0053318143 0.70092607
0.0028298437 -0.0070745945 0.71082091
0.0028182298 -0.0084546804 0.71011996
0.0027906389 -0.0097672045 0.70845473
0.002763594 -0.011054367 0.7068224
0.0027370574 -0.012316763 0.70522076
0.0027110151 -0.01355505 0.70364898
0.0027065277 -0.014885902 0.70337808
0.0027271542 -0.016362906 0.70462304
0.002842518 -0.018476337 0.71158588
0.002846092 -0.019922644 0.71180159
0.0028398 -0.021298498 0.71142179
0.0028472464 -0.022777975 0.71187127
0.0028766044 -0.024451137 0.71364319
0.0029249494 -0.02632454 0.71656108
0.0039988817 0.030658096 0.70092732
0.0039488161 0.028957993 0.69891286
0.0039057753 0.027340472 0.69718099
0.0038837004 0.025891334 0.69629282
0.0045142891 0.019561946 0.72166574
0.0044720499 0.017888248 0.71996617
0.0044310838 0.016247302 0.71831781
0.0041605798 0.0138686 0.70743358
0.0041820118 0.012546062 0.70829594
0.0042085196 0.01122272 0.70936251
0.0042313258 0.0098730922 0.71028018
0.0042097946 0.0084196031 0.70941377
0.0041670827 0.006945163 0.70769525
0.004124511 0.0054993629 0.70598227
0.0040820488 0.0040820837 0.7042737
