# .PCD v0.7 - Point Cloud Data file format
VERSION 0.7
FIELDS x y z
SIZE 4 4 4
TYPE F F F
COUNT 1 1 1
WIDTH 1330
HEIGHT 1
VIEWPOINT 0 0 0 1 0 0 0
POINTS 1330
DATA ascii
-0.021720117 0.022997797 0.69425124
-0.021781629 0.021781623 0.69468802
-0.021843407 0.020558506 0.69512665
-0.021905618 0.019328505 0.69556844
-0.021968268 0.01809153 0.69601327
-0.022031112 0.016847372 0.69645947
-0.023435004 0.016542375 0.70642799
-0.023413826 0.01515016 0.70627761
-0.022720907 0.013365269 0.70135748
-0.022868328 0.012106776 0.70240426
-0.02316881 0.010903001 0.70453781
-0.023781549 0.0097924173 0.70888871
-0.023850976 0.0084180236 0.7093817
-0.023920903 0.0070355833 0.70987821
-0.023991147 0.0056449473 0.71037698
-0.024061901 0.0042462349 0.71087939
-0.024133071 0.0028392076 0.71138471
-0.024204567 0.001423806 0.71189237
-0.024285771 2.9802322e-08 0.71246898
-0.020021077 0.048801392 0.69107211
-0.02000422 0.047510028 0.69094491
-0.020023961 0.046305448 0.69109386
-0.020043958 0.045098901 0.69124478
-0.020069212 0.043901384 0.69143528
-0.020090824 0.042693049 0.6915983
-0.020085379 0.041426152 0.69155723
-0.020032981 0.040065944 0.69116193
-0.020007603 0.038764775 0.69097042
-0.0200205 0.037538469 0.69106776
-0.020038251 0.036319315 0.69120169
-0.020032475 0.035056859 0.69115812
-0.019857246 0.033509076 0.68983614
-0.019726897 0.032056212 0.68885267
-0.019757321 0.030870825 0.68908221
-0.019807864 0.029711783 0.68946356
-0.019860227 0.028549105 0.68985856
-0.019914363 0.027382255 0.69026697
-0.020009764 0.02626282 0.69098681
-0.020283528 0.025354415 0.69305217
-0.020358846 0.024176151 0.69362038
-0.020416189 0.022968233 0.69405299
-0.020473933 0.02175355 0.69448864
-0.020532003 0.020532012 0.69492674
-0.020590404 0.01930353 0.6953674
-0.020649061 0.018067926 0.6958099
-0.020708131 0.016825378 0.69625556
-0.02076754 0.015575647 0.69670373
-0.02082729 0.014318764 0.69715452
-0.021185065 0.013240695 0.69985372
-0.021322051 0.011993647 0.7008872
-0.022232797 0.011116385 0.70775825
-0.022352938 0.0097794533 0.70866466
-0.022418195 0.0084068477 0.70915699
-0.022483746 0.0070261657 0.70965153
-0.022549771 0.0056374669 0.71014965
-0.022616185 0.0042405427 0.71065074
-0.0226829 0.0028353631 0.71115404
-0.022750102 0.0014218986 0.71166098
-0.022817701 -0 0.71217102
-0.022885894 -0.0014303923 0.71268547
-0.022967963 -0.0028709769 0.7133047
-0.018892221 0.050379276 0.69205761
-0.018784575 0.048839927 0.69119132
-0.018789316 0.047599584 0.69122946
-0.018802803 0.046380252 0.69133806
-0.018818282 0.0451639 0.69146258
-0.018836986 0.043953001 0.69161308
-0.018826235 0.042672813 0.69152659
-0.018833173 0.041433007 0.69158244
-0.018749233 0.039998382 0.69090694
-0.018771045 0.038793504 0.69108248
-0.018818351 0.037636697 0.69146311
-0.018963432 0.036662638 0.69263071
-0.019012269 0.035489589 0.69302368
-0.019016154 0.0342291 0.69305491
-0.018897358 0.032755435 0.69209898
-0.018716041 0.031193435 0.69063985
-0.018577948 0.029724717 0.68952858
-0.018602282 0.028523535 0.68972433
-0.018650142 0.027353585 0.69010949
-0.018699657 0.026179552 0.69050795
-0.018750515 0.025000691 0.69091725
-0.018825486 0.023845643 0.69152057
-0.019096207 0.022915453 0.69369918
-0.01916918 0.021725088 0.69428641
-0.019223975 0.020505607 0.69472736
-0.019278513 0.019278526 0.69516623
-0.019333433 0.018044561 0.69560826
-0.019388668 0.016803563 0.69605267
-0.01944422 0.015555382 0.69649976
-0.01950009 0.014300108 0.69694936
-0.019556282 0.013037533 0.69740158
-0.019612724 0.011767656 0.69785577
-0.019947728 0.010638833 0.70055169
-0.020928195 0.0097664893 0.70844185
-0.020989213 0.0083957314 0.70893288
-0.021050503 0.0070168078 0.70942616
-0.021112237 0.0056299567 0.70992291
-0.021174248 0.0042348802 0.71042192
-0.021236712 0.0028315783 0.71092463
-0.021299545 0.0014199615 0.71143031
-0.02136275 2.9802322e-08 0.71193886
-0.021427214 -0.0014284551 0.71245766
-0.021492686 -0.0028656721 0.7129845
-0.02155865 -0.0043117106 0.7135154
-0.021640284 -0.0057707131 0.7141723
-0.017610589 0.050315976 0.69186664
-0.017571216 0.048948407 0.69152713
-0.017578706 0.047713667 0.69159174
-0.017586268 0.046478033 0.69165695
-0.017597402 0.045250475 0.69175291
-0.017607594 0.044019014 0.69184077
-0.01759072 0.042720348 0.69169533
-0.017533787 0.041329622 0.69120443
-0.017488841 0.039974511 0.69081688
-0.017518569 0.03879112 0.69107318
-0.017659497 0.037841767 0.69228828
-0.017725775 0.036717653 0.69285983
-0.017760204 0.035520434 0.6931566
-0.017794766 0.034318507 0.69345468
-0.017826458 0.033106297 0.69372785
-0.01783064 0.031840444 0.69376397
-0.017733658 0.030400604 0.69292772
-0.017562589 0.02885285 0.69145274
-0.017420264 0.027374715 0.6902256
-0.017437311 0.026155978 0.69037259
-0.017482368 0.024974823 0.69076109
-0.017528985 0.023789346 0.691163
-0.017576486 0.022598356 0.69157255
-0.017641244 0.021421492 0.69213092
-0.017898871 0.020455867 0.69435227
-0.017969152 0.019252658 0.69495821
-0.018021209 0.018021196 0.69540703
-0.01807256 0.016781688 0.69584984
-0.018124273 0.015535116 0.69629568
-0.018176282 0.014281392 0.69674408
-0.01822859 0.013020456 0.69719517
-0.018281201 0.011752218 0.69764876
-0.018334117 0.010476649 0.69810498
-0.01838734 0.0091936886 0.69856393
-0.019563932 0.0083845556 0.70870876
-0.019621063 0.0070075393 0.70920134
-0.019678449 0.0056224167 0.70969617
-0.019733291 0.0042285621 0.71016896
-0.019733211 0.0028190315 0.71016824
-0.019764077 0.001411736 0.71043438
-0.019900639 -0 0.71161187
-0.019972295 -0.0014265478 0.71222973
-0.02003324 -0.0028618872 0.7127552
-0.020094644 -0.0043059886 0.71328461
-0.020156424 -0.005758971 0.7138173
-0.020218585 -0.0072208941 0.7143532
-0.020299241 -0.0086996853 0.71504867
-0.016382165 0.050406665 0.69214034
-0.016369104 0.049107313 0.69201905
-0.016371181 0.047854245 0.6920383
-0.016373198 0.04660064 0.69205707
-0.016380146 0.045360386 0.69212162
-0.016366674 0.044064134 0.69199646
-0.016360212 0.042788297 0.69193649
-0.016250622 0.0412516 0.69091886
-0.016247934 0.039994955 0.69089389
-0.016278965 0.038819075 0.69118208
-0.016445626 0.037951469 0.69272959
-0.0164767 0.036755711 0.69301814
-0.016503789 0.03554666 0.69326961
-0.016531028 0.034333706 0.69352257
-0.016563276 0.033126563 0.69382203
-0.016595466 0.031914383 0.69412094
-0.016625764 0.03069374 0.69440228
-0.016633354 0.029428273 0.69447273
-0.016557144 0.028019786 0.6937651
-0.016396556 0.026486725 0.69227397
-0.016252493 0.02500385 0.69093621
-0.016262148 0.023767769 0.69102585
-0.016304407 0.022575349 0.69141829
-0.016348073 0.021378279 0.69182378
-0.016392272 0.020175129 0.69223416
-0.016447961 0.018978447 0.69275123
-0.016691314 0.017975271 0.6950109
-0.01675869 0.01675871 0.69563651
-0.016807826 0.01551494 0.69609278
-0.016855996 0.014262795 0.69654006
-0.016904378 0.013003349 0.6969893
-0.016953103 0.01173681 0.6974417
-0.017002109 0.010462821 0.69789678
-0.017051464 0.0091815889 0.69835502
-0.017100977 0.0078928173 0.69881475
-0.017150844 0.0065965056 0.69927782
-0.01824856 0.0056149364 0.70947063
-0.018284606 0.0042195618 0.70980531
-0.01821324 0.0028020442 0.70914268
-0.017814307 0.0013703406 0.70543844
-0.017992839 2.9802322e-08 0.70709616
-0.018515978 -0.0014242828 0.7119537
-0.01857766 -0.0028581023 0.71252644
-0.018634526 -0.0043002665 0.71305442
-0.018691741 -0.005751282 0.71358573
-0.018749308 -0.0072112381 0.71412027
-0.018807232 -0.0086802244 0.71465814
-0.018865515 -0.01015836 0.71519929
-0.018948765 -0.011660755 0.7159723
-0.015244571 0.052085668 0.69337326
-0.015176931 0.05058977 0.69269294
-0.015168595 0.049297959 0.69260901
-0.01516545 0.048023939 0.69257736
-0.015163244 0.046753347 0.69255519
-0.015164127 0.045492381 0.69256407
-0.015136437 0.044147968 0.69228554
-0.015088074 0.042749554 0.69179904
-0.015000034 0.04125011 0.69091344
-0.015015429 0.040041178 0.69106829
-0.015145894 0.039126903 0.69238067
-0.015211092 0.038027734 0.69303656
-0.015231207 0.036808759 0.69323885
-0.015251431 0.035586685 0.69344234
-0.015275568 0.034370035 0.69368505
-0.015300679 0.033151507 0.69393766
-0.015325931 0.031929016 0.69419175
-0.015355788 0.030711591 0.69449204
-0.015385763 0.029489398 0.69479358
-0.015439887 0.028306484 0.69533801
-0.015513532 0.027148694 0.6960789
-0.015367786 0.02561298 0.69461274
-0.015217866 0.024094999 0.69310462
-0.015075799 0.022613704 0.6916756
-0.015076781 0.021358818 0.69168544
-0.015116134 0.020154864 0.69208133
-0.01515674 0.018945932 0.69248974
-0.015197676 0.017730623 0.69290161
-0.015247247 0.016517848 0.6934002
-0.015473348 0.015473396 0.69567466
-0.015537523 0.014242768 0.69632018
-0.015583688 0.012986451 0.69678456
-0.015628546 0.011721432 0.69723582
-0.015673665 0.010449141 0.69768965
-0.015718985 0.0091694295 0.69814557
-0.015764628 0.0078823566 0.69860464
-0.015810598 0.0065877736 0.69906712
-0.015856713 0.0052855909 0.69953096
-0.01590316 0.0039758086 0.69999814
-0.016178239 0.0026963651 0.70276523
-0.01628108 0.0013567805 0.70379972
-0.01638543 2.9802322e-08 0.70484948
-0.017069211 -0.0014224052 0.71172774
-0.017126 -0.0028542876 0.71229893
-0.017178353 -0.0042945743 0.71282566
-0.017230956 -0.0057436526 0.71335483
-0.017283954 -0.007201612 0.71388787
-0.017337278 -0.0086686313 0.71442431
-0.017390933 -0.010144711 0.71496403
-0.017444922 -0.011629939 0.71550709
-0.017499318 -0.013124466 0.71605426
-0.014015234 0.052238613 0.6938237
-0.01398012 0.050836802 0.69343841
-0.013968369 0.049524218 0.69330943
-0.013960461 0.048227042 0.69322264
-0.013953988 0.046936154 0.69315159
-0.013938366 0.045616478 0.69298017
-0.01391847 0.044286042 0.69276178
-0.013798728 0.04265064 0.69144779
-0.013777688 0.041333109 0.69121695
-0.013791359 0.040120333 0.69136691
-0.013954855 0.039327323 0.69316113
-0.013974753 0.038112968 0.69337952
-0.013987897 0.036877185 0.69352371
-0.014004912 0.035648882 0.69371045
-0.014023513 0.034421355 0.69391453
-0.014042214 0.033190697 0.69411981
-0.014064072 0.031963825 0.69435966
-0.01408719 0.030735701 0.69461328
-0.014111062 0.029504985 0.69487524
-0.014285421 0.028570861 0.69678867
-0.014521128 0.02772218 0.69937521
-0.014451291 0.026275098 0.69860888
-0.01430681 0.024711788 0.69702333
-0.014165136 0.023179352 0.69546866
-0.014026189 0.021676868 0.69394392
-0.013890144 0.020203859 0.692451
-0.013881669 0.018929541 0.69235802
-0.013917405 0.01771307 0.69275022
-0.013954956 0.016492218 0.69316226
-0.013992761 0.015264869 0.69357705
-0.014036285 0.014036298 0.69405472
-0.014244958 0.012949973 0.69634461
-0.014305579 0.011704564 0.69700986
-0.014348703 0.010435432 0.69748306
-0.014390137 0.0091573596 0.69793785
-0.014431867 0.0078719556 0.69839567
-0.014473784 0.0065790117 0.69885564
-0.014516 0.0052785873 0.69931889
-0.014558518 0.0039705038 0.69978553
-0.014601176 0.0026547611 0.70025361
-0.014644139 0.0013312995 0.70072514
-0.014890426 -0 0.70342785
-0.014993876 -0.0013630688 0.70456308
-0.015678098 -0.0028505325 0.71207142
-0.015725896 -0.0042888522 0.712596
-0.015774118 -0.0057360232 0.71312517
-0.015822571 -0.0071920455 0.7136569
-0.015871255 -0.008657068 0.71419108
-0.015920373 -0.010131121 0.71473014
-0.015969731 -0.011614323 0.71527177
-0.012946391 0.054374874 0.69630158
-0.012808803 0.052516103 0.6946407
-0.012784767 0.051139086 0.6943506
-0.012767526 0.049793363 0.69414246
-0.012755153 0.048469603 0.69399309
-0.012744206 0.047153592 0.69386095
-0.012708177 0.045749456 0.69342601
-0.012671935 0.044351786 0.69298851
-0.01255563 0.042689145 0.69158465
-0.012556265 0.041435719 0.69159228
-0.012673137 0.040554047 0.693003
-0.012728847 0.039459467 0.69367552
-0.012736825 0.038210511 0.69377184
-0.012748601 0.036970943 0.693914
-0.012760446 0.035729259 0.69405699
-0.012773158 0.034487545 0.69421041
-0.01278806 0.033248991 0.6943903
-0.01280512 0.03201279 0.69459623
-0.012822273 0.030773491 0.69480324
-0.012859905 0.029577792 0.69525754
-0.013138581 0.028904885 0.69862145
-0.013303934 0.027938277 0.70061743
-0.013305156 0.026610345 0.70063221
-0.013287349 0.025245965 0.70041722
-0.01321222 0.023782015 0.69951034
-0.013079382 0.022234976 0.69790685
-0.01294919 0.020718724 0.69633526
-0.012821422 0.019232124 0.69479305
-0.012696336 0.01777488 0.69328308
-0.012675911 0.016478688 0.6930365
-0.012708084 0.015249699 0.69342494
-0.012742523 0.014016837 0.69384062
-0.012777151 0.012777179 0.69425863
-0.012815179 0.011533648 0.69471765
-0.013005168 0.01040411 0.69701099
-0.013062763 0.0091439784 0.69770622
-0.013102612 0.0078615844 0.69818729
-0.013140619 0.0065703094 0.69864607
-0.013178895 0.005271554 0.69910806
-0.013217396 0.0039652288 0.69957286
-0.013256122 0.0026512444 0.70004034
-0.013295127 0.001329571 0.7005111
-0.01333426 -0 0.70098352
-0.013373623 -0.0013373494 0.70145869
-0.013599587 -0.002719909 0.70418632
-0.014277413 -0.0042832196 0.71236837
-0.014321076 -0.0057284236 0.71289545
-0.014365006 -0.0071824789 0.7134257
-0.014377548 -0.0086265206 0.71357709
-0.014392913 -0.010075033 0.71376258
-0.014490933 -0.011592776 0.71494579
-0.011692966 0.054567158 0.69685435
-0.011614665 0.052911282 0.69580412
-0.011588239 0.051503301 0.69544971
-0.011565354 0.050116539 0.69514275
-0.011548228 0.048759192 0.69491303
-0.011525373 0.047382116 0.69460648
-0.011494152 0.045976639 0.69418776
-0.011374791 0.044235349 0.69258678
-0.011335334 0.042822361 0.69205761
-0.011339403 0.041577846 0.69211215
-0.011483052 0.040828645 0.69403887
-0.011496645 0.039599568 0.6942212
-0.011502015 0.038340062 0.6942932
-0.011507348 0.037079215 0.69436479
-0.011514933 0.035824269 0.69446647
-0.011524608 0.034573853 0.69459623
-0.011535577 0.033325046 0.69474334
-0.011547503 0.032076448 0.69490331
-0.011560394 0.030827731 0.69507623
-0.011684142 0.029859483 0.69673598
-0.011943405 0.029195011 0.70021319
-0.01199508 0.027988523 0.70090634
-0.012017436 0.026705414 0.70120621
-0.012029733 0.025396109 0.70137107
-0.012031029 0.024062067 0.70138848
-0.01201679 0.022698402 0.7011975
-0.01195898 0.021260411 0.70042211
-0.011792174 0.019653678 0.69818485
-0.011644897 0.018114299 0.69620955
-0.011586737 0.016736388 0.69542956
-0.011489465 0.015319288 0.69412488
-0.011459362 0.014005899 0.69372112
-0.011487988 0.012764454 0.69410509
-0.011519302 0.011519313 0.69452506
-0.011550745 0.010267347 0.69494677
-0.011584547 0.0090102255 0.69540018
-0.011754543 0.0078363419 0.69768012
-0.011808828 0.0065604746 0.69840825
-0.011845326 0.0052646399 0.69889778
-0.011879886 0.0039599538 0.69936132
-0.011914602 0.0026476979 0.69982696
-0.011949566 0.0013277829 0.70029587
-0.011984783 2.9802322e-08 0.70076823
-0.012020161 -0.0013355315 0.70124269
-0.012055703 -0.0026790202 0.70171946
-0.012091502 -0.0040304959 0.70219952
-0.012871885 -0.0057207942 0.71266627
-0.012906362 -0.0071702302 0.71312875
-0.012880526 -0.0085870028 0.71278226
-0.012571455 -0.0097777843 0.70863688
-0.012693668 -0.011283249 0.71027601
-0.01048913 0.055067986 0.69829345
-0.010425792 0.053432196 0.69733787
-0.010390018 0.051950127 0.69679803
-0.010362403 0.050516725 0.69638133
-0.010338623 0.049108475 0.69602251
-0.010290628 0.04759416 0.69529837
-0.010258083 0.046161383 0.69480729
-0.010128276 0.044311225 0.69284862
-0.01012009 0.043010384 0.69272512
-0.010206258 0.042100847 0.69402528
-0.010262969 0.041051894 0.69488102
-0.010262666 0.039767861 0.69487643
-0.010262363 0.038483858 0.6948719
-0.010265509 0.037212491 0.69491935
-0.01027006 0.035945177 0.69498801
-0.010274957 0.034678012 0.69506192
-0.010282368 0.033417732 0.69517374
-0.010289828 0.032155722 0.69528627
-0.010311662 0.030935019 0.69561571
-0.010529777 0.030273139 0.69890678
-0.010629066 0.029229939 0.70040494
-0.010655876 0.027971685 0.70080954
-0.010682699 0.026706755 0.70121425
-0.010708873 0.0254336 0.70160919
-0.010729582 0.02414155 0.7019217
-0.010741606 0.022825956 0.70210308
-0.01074256 0.02148515 0.70211744
-0.010644696 0.019958824 0.7006408
-0.010395964 0.018192947 0.69688773
-0.010382723 0.016871929 0.69668794
-0.010378071 0.015567124 0.69661772
-0.010355377 0.014238656 0.69627529
-0.010269263 0.012836576 0.69497597
-0.010232558 0.011511624 0.69442213
-0.010257062 0.010257095 0.69479185
-0.010285146 0.0089994967 0.69521564
-0.010313345 0.007735014 0.69564116
-0.010343009 0.0064643919 0.69608873
-0.010493209 0.0052466094 0.69835508
-0.010543676 0.0039539039 0.69911659
-0.010576733 0.0026442111 0.6996153
-0.010607691 0.0013259649 0.70008242
-0.010638829 -0 0.70055234
-0.010670193 -0.0013337731 0.70102555
-0.010701782 -0.0026754141 0.7015022
-0.010733477 -0.0040250123 0.70198041
-0.010765401 -0.0053826869 0.70246208
-0.010797516 -0.0067484081 0.70294672
-0.0109762 -0.0082321465 0.70564276
-0.011054859 -0.0096729994 0.70682973
-0.011126187 -0.011126131 0.70790595
-0.0093227839 0.055936724 0.70079041
-0.0092491517 0.054173648 0.69952071
-0.0091956165 0.052546412 0.69859743
-0.0091567393 0.051016122 0.69792706
-0.0091224657 0.049521983 0.69733602
-0.0090749171 0.047967404 0.6965161
-0.0089054294 0.045799375 0.69359338
-0.0088778976 0.044389486 0.69311863
-0.0088865254 0.043163121 0.69326741
-0.0090062004 0.042457819 0.69533116
-0.0090267556 0.04126519 0.69568563
-0.0090227043 0.039957732 0.69561571
-0.0090218009 0.038664848 0.69560015
-0.0090215327 0.037374914 0.6955955
-0.0090213325 0.036085337 0.69559205
-0.0090239765 0.034806788 0.69563764
-0.0090273591 0.033530205 0.695696
-0.0090319179 0.032256901 0.69577461
-0.0091201393 0.031269073 0.69729596
-0.0092662415 0.030446231 0.69981539
-0.0092938943 0.029209405 0.70029223
-0.0093172127 0.027951628 0.70069432
-0.0093406849 0.026687682 0.7010991
-0.0093642399 0.025417209 0.7015053
-0.0093879495 0.024140477 0.70191413
-0.0094113434 0.022856116 0.70231754
-0.0094217332 0.021535397 0.70249671
-0.0093616806 0.020060748 0.70146114
-0.0090905866 0.018181175 0.69678628
-0.0091075385 0.01691398 0.69707865
-0.0091234231 0.015640169 0.69735259
-0.0092054997 0.014465839 0.6987679
-0.0092093339 0.013156235 0.69883406
-0.0091260253 0.011733472 0.69739741
-0.0090355081 0.010326326 0.69583648
-0.0089947432 0.0089947581 0.69513351
-0.0090151131 0.0077272356 0.69548488
-0.0090398733 0.0064570904 0.69591177
-0.0090648048 0.005179882 0.69634169
-0.0090904171 0.0038959086 0.69678342
-0.009220995 0.0026346147 0.69903511
-0.0092671588 0.0013239086 0.69983119
-0.0092965933 2.9802322e-08 0.70033884
-0.0093239276 -0.0013319552 0.70081019
-0.009351423 -0.0026718676 0.70128429
-0.0093791168 -0.0040195882 0.70176184
-0.0094070118 -0.0053753853 0.70224285
-0.0094349999 -0.0067392588 0.70272547
-0.009463191 -0.0081112981 0.70321167
-0.0094915517 -0.009491533 0.70370072
-0.0096463012 -0.011024356 0.70636928
-0.010154664 -0.01305598 0.71513563
-0.010283027 -0.014690042 0.71734929
-0.0089488095 -0.014062405 0.69434142
-0.0088837994 -0.015229344 0.69322044
-0.0081917169 0.055976719 0.70482939
-0.008289298 0.055262059 0.70679253
-0.0079578329 0.051725924 0.70012403
-0.0078924894 0.049985796 0.69880939
-0.00784388 0.04837063 0.69783139
-0.0076081832 0.045649081 0.69308954
-0.0076149637 0.04442063 0.69322598
-0.0076435804 0.043313622 0.6938017
-0.0077363295 0.042549789 0.69566768
-0.0077655492 0.041416287 0.69625551
-0.0077764113 0.04017812 0.69647408
-0.0077745551 0.038872778 0.69643676
-0.0077711069 0.037560374 0.69636732
-0.0077690505 0.036255568 0.69632602
-0.007768848 0.034959853 0.6963219
-0.0077686743 0.033664286 0.69631845
-0.007780184 0.032417446 0.69654995
-0.0079091974 0.031636775 0.69914556
-0.0079406472 0.030439168 0.6997782
-0.0079605067 0.029188544 0.70017779
-0.0079804966 0.02793172 0.70057994
-0.0080005564 0.026668549 0.70098352
-0.0080207475 0.025399059 0.70138973
-0.0080410102 0.024123043 0.70179743
-0.0080611575 0.022839963 0.70220274
-0.008059755 0.02149269 0.70217448
-0.0078915041 0.01972878 0.69878954
-0.0077898642 0.018176377 0.69674474
-0.0078075137 0.016916275 0.6970998
-0.0081169289 0.016233891 0.70332479
-0.0081284158 0.014902115 0.70355588
-0.0081041502 0.013506919 0.70306766
-0.0080282837 0.012042463 0.7015413
-0.007946549 0.010595381 0.69989699
-0.007866432 0.009177506 0.69828522
-0.0077879438 0.0077879429 0.69670612
-0.0077454406 0.0064545274 0.69585097
-0.007761993 0.0051746964 0.69618398
-0.0077834078 0.0038917065 0.69661486
-0.0078049707 0.0026016533 0.69704866
-0.0078268005 0.0013045073 0.69748783
-0.0079378355 2.9802322e-08 0.69972163
-0.0079791527 -0.0013298392 0.70055294
-0.0080047948 -0.0026682615 0.70106882
-0.0080284383 -0.0040142238 0.7015444
-0.0080522532 -0.0053681433 0.70202357
-0.0080762096 -0.0067301393 0.70250553
-0.0080994274 -0.008099407 0.70297265
-0.0081199631 -0.0094732642 0.70338577
-0.0081489393 -0.010865241 0.70396876
-0.0081768092 -0.012265205 0.70452952
-0.0077573718 -0.012928963 0.696091
-0.0075851805 -0.013906151 0.69262683
-0.0076041594 -0.015208304 0.69300866
-0.0076273335 -0.016525894 0.69347483
-0.0076506203 -0.017851412 0.69394338
-0.0067906505 0.052967072 0.7039656
-0.0066671558 0.050670385 0.70098412
-0.006359112 0.04705745 0.69354731
-0.0063328035 0.045596182 0.69291216
-0.006343347 0.044403434 0.69316667
-0.0064090788 0.043581754 0.69475359
-0.0064500286 0.042570204 0.69574225
-0.0064672441 0.041390359 0.69615787
-0.006483051 0.040194929 0.69653946
-0.0064989598 0.038993776 0.69692355
-0.006509894 0.037757397 0.69718748
-0.0065099671 0.03645581 0.69718933
-0.0065071876 0.035138845 0.69712216
-0.0065045808 0.033823848 0.69705927
-0.0065593696 0.03279689 0.69838196
-0.0065960274 0.031660914 0.69926697
-0.0066124965 0.030417502 0.69966453
-0.0066290223 0.029167682 0.70006353
-0.0066456567 0.027911752 0.70046508
-0.0066623744 0.026649505 0.70086873
-0.0066791507 0.02538082 0.70127368
-0.0066960379 0.024105757 0.70168144
-0.0067091221 0.022811025 0.70199728
-0.0066895923 0.02140674 0.70152575
-0.0064858827 0.019457668 0.69660777
-0.0064946841 0.018185109 0.69682026
-0.0065078698 0.016920477 0.69713867
-0.0067954846 0.016309202 0.70408225
-0.0068069333 0.01497528 0.7043587
-0.0068109096 0.013621837 0.70445466
-0.0068069068 0.01225245 0.70435798
-0.0067895893 0.010863364 0.70393997
-0.0067289746 0.0094205737 0.70247656
-0.0066496753 0.0079796314 0.70056212
-0.0065826569 0.0065826774 0.69894415
-0.0065264008 0.0052211285 0.697586
-0.006484963 0.0038909912 0.6965856
-0.0064975503 0.0025990307 0.69688952
-0.0065155579 0.0013031065 0.69732428
-0.0065336656 2.9802322e-08 0.69776142
-0.0065519237 -0.0013103783 0.69820219
-0.0066427598 -0.0026571155 0.70039517
-0.0066794073 -0.0040076375 0.70128
-0.0067011775 -0.0053609312 0.70180553
-0.0067210873 -0.0067210793 0.70228612
-0.0067229858 -0.0080675483 0.70233196
-0.0066757631 -0.0093460381 0.7011919
-0.0066336542 -0.010613829 0.70017534
-0.0066130501 -0.011903465 0.69967788
-0.0063764532 -0.012752891 0.69396597
-0.00630891 -0.013879567 0.69233531
-0.0063280519 -0.015187323 0.69279748
-0.0063473103 -0.016502976 0.69326234
-0.0063666622 -0.017826647 0.69372964
-0.0063861567 -0.019158423 0.69420016
-0.0064057708 -0.020498455 0.69467372
-0.0050856699 0.047042489 0.69349843
-0.0050762715 0.045686454 0.69321483
-0.0050835679 0.044481248 0.69343501
-0.0051370799 0.0436652 0.69504988
-0.0051576295 0.042550474 0.69567001
-0.0051702154 0.041361749 0.69604981
-0.0051828437 0.040167063 0.69643086
-0.0051955529 0.038966656 0.69681448
-0.0052083055 0.037760228 0.69719929
-0.0052211401 0.036548018 0.6975866
-0.0052314578 0.035312355 0.69789797
-0.0052386546 0.034051269 0.69811511
-0.0052598277 0.032873929 0.69875413
-0.0052730781 0.031638503 0.69915396
-0.0052862344 0.030395865 0.69955099
-0.0052994569 0.029146999 0.69995004
-0.005312725 0.027891845 0.7003504
-0.0053260801 0.026630431 0.70075345
-0.0053395028 0.02536267 0.70115852
-0.0053529725 0.024088383 0.70156503
-0.0053552003 0.022759616 0.7016322
-0.0052789063 0.021115631 0.69932985
-0.0051939413 0.019477308 0.69676578
-0.0052014641 0.018205136 0.69699287
-0.0054129711 0.017592162 0.70337558
-0.0054353033 0.016305953 0.70404953
-0.0054492829 0.014985561 0.70447147
-0.0054618744 0.013654679 0.70485139
-0.0054706028 0.012308866 0.70511484
-0.005474654 0.010949343 0.70523703
-0.005470043 0.0095725656 0.70509791
-0.0054055606 0.0081083775 0.703152
-0.0053043715 0.0066304803 0.70009834
-0.0052886885 0.0052886903 0.69962507
-0.0052803103 0.0039602518 0.69937217
-0.0052510444 0.0026255548 0.69848907
-0.0052130525 0.0013032854 0.69734251
-0.0052213953 -0 0.69759434
-0.0052360692 -0.0013089776 0.69803709
-0.0052507864 -0.002625376 0.69848126
-0.0052654869 -0.0039491355 0.6989249
-0.0053363661 -0.0053363442 0.70106387
-0.0053671114 -0.0067088902 0.70199162
-0.0053376984 -0.0080065429 0.70110404
-0.0053146142 -0.00930053 0.70040745
-0.0052792872 -0.010558546 0.6993413
-0.0051588546 -0.011607409 0.69570702
-0.0050335657 -0.012583882 0.691926
-0.0050401916 -0.013860494 0.69212604
-0.0050554625 -0.015166372 0.6925869
-0.0050708265 -0.016480148 0.69305044
-0.0050862655 -0.017801911 0.69351637
-0.0051018177 -0.019131809 0.69398576
-0.0051174653 -0.020469844 0.69445795
-0.0051332093 -0.021816134 0.694933
-0.0051490311 -0.02317065 0.69541049
-0.0038352464 0.047301412 0.69434315
-0.0038273609 0.045928389 0.69402587
-0.0038297654 0.044680595 0.69412267
-0.0038549469 0.0436894 0.69513583
-0.003865554 0.042521089 0.69556266
-0.0038749804 0.041333139 0.69594193
-0.0038844384 0.040139228 0.6963225
-0.0038939572 0.038939595 0.69670552
-0.0039035229 0.037734091 0.69709039
-0.0039131208 0.036522508 0.69747663
-0.003922781 0.035305053 0.69786531
-0.0039324742 0.034081459 0.6982553
-0.0039422303 0.032851934 0.69864786
-0.0039520198 0.031616181 0.69904178
-0.0039618732 0.030374378 0.69943821
-0.0039717606 0.029126257 0.69983608
-0.0039817127 0.027872026 0.7002365
-0.0039916998 0.026611328 0.70063835
-0.0040017525 0.025344431 0.70104283
-0.0040104818 0.024062932 0.70139408
-0.0040018903 0.022677362 0.70104843
-0.0039004558 0.020802438 0.69696701
-0.0039030991 0.019515485 0.69707334
-0.0039079133 0.018236935 0.69726706
-0.0040618959 0.01760155 0.70346284
-0.0040735146 0.016294062 0.70393032
-0.0040839841 0.014974624 0.7043516
-0.0040944912 0.013648301 0.70477438
-0.0041050687 0.012315214 0.70519996
-0.0041147913 0.010972798 0.70559114
-0.0041163187 0.0096047819 0.70565265
-0.0040791575 0.0081583261 0.70415741
-0.0039781877 0.0066303015 0.70009464
-0.0039820322 0.0053093731 0.70024937
-0.0039857472 0.0039857924 0.7003988
-0.0040005543 0.0026670396 0.70099461
-0.0040001092 0.0013333857 0.70097673
-0.0039629578 -0 0.69948184
-0.0039294944 -0.0013098419 0.69813538
-0.0039338395 -0.0026225448 0.69831026
-0.0039446172 -0.0039446056 0.69874394
-0.0039557992 -0.005274415 0.69919378
-0.0039671352 -0.0066119134 0.69964993
-0.003978081 -0.0079561472 0.70009041
-0.0039629275 -0.0092467964 0.69948059
-0.0039427225 -0.010513902 0.69866765
-0.0038165848 -0.011449754 0.69359231
-0.0037636019 -0.012545317 0.69146043
-0.0037749552 -0.01384148 0.69191724
-0.0037863771 -0.015145481 0.69237679
-0.0037978685 -0.016457438 0.69283915
-0.003809416 -0.017777264 0.69330382
-0.0038210477 -0.019105226 0.69377184
-0.0038327505 -0.020441324 0.69424272
-0.0038445254 -0.021785617 0.69471651
-0.0038563588 -0.023138165 0.69519269
-0.0038682795 -0.024499089 0.69567233
-0.0038802742 -0.025868505 0.69615495
-0.0026671386 0.05067566 0.70100081
-0.0025837526 0.047799438 0.69596803
-0.0025759756 0.046367586 0.69549859
-0.0025692426 0.04496178 0.69509226
-0.0025691097 0.043674856 0.69508427
-0.0025752597 0.042491823 0.69545543
-0.0025815354 0.041304618 0.69583416
-0.002587832 0.040111423 0.6962142
-0.002594169 0.038912565 0.69659668
-0.0026005276 0.037707686 0.69698048
-0.0026069272 0.036496997 0.69736671
-0.0026133484 0.035280198 0.69775432
-0.0026198111 0.034057528 0.69814438
-0.0026263061 0.032828838 0.6985364
-0.0026328233 0.031593889 0.69892967
-0.0026393728 0.030352831 0.69932497
-0.0026459652 0.029105633 0.69972289
-0.0026525806 0.027852118 0.70012218
-0.0026592391 0.026592404 0.70052403
-0.0026659311 0.025326371 0.70092797
-0.002668388 0.024015486 0.70107621
-0.0026476691 0.022505194 0.6998257
-0.0026068392 0.020854741 0.69736141
-0.0026088746 0.019566596 0.69748425
-0.00269376 0.018856317 0.70260751
-0.0027067701 0.01759401 0.7033928
-0.002713704 0.01628226 0.70381129
-0.0027206626 0.014963657 0.70423132
-0.002727668 0.013638377 0.7046541
-0.0027347093 0.012306213 0.70507902
-0.0027414302 0.010965735 0.70548475
-0.0027397336 0.009589076 0.70538235
-0.0026938017 0.0080814064 0.70261002
-0.0026494153 0.0066235662 0.69993114
-0.0026556114 0.0053112209 0.70030504
-0.0027599719 0.00413993 0.70660383
-0.0027588762 0.0027588904 0.70653766
-0.0027414302 0.001370728 0.70548469
-0.0027132696 -2.9802322e-08 0.70378506
-0.0026856815 -0.001342833 0.70212001
-0.0026586591 -0.0026586652 0.70048898
-0.0026333721 -0.0039500594 0.69896281
-0.00263456 -0.0052691102 0.69903457
-0.0026417107 -0.006604284 0.69946611
-0.0026450488 -0.0079351068 0.69966763
-0.0026241541 -0.0091845095 0.69840652
-0.0025734003 -0.010293603 0.69534326
-0.0025170471 -0.0113267 0.69194198
-0.0025061816 -0.012530923 0.69128621
-0.0025131875 -0.013822556 0.69170904
-0.0025207812 -0.015124649 0.6921674
-0.0025284209 -0.016434729 0.69262844
-0.0025361071 -0.017752737 0.69309235
-0.002543831 -0.019078732 0.69355851
-0.0025516113 -0.020412832 0.69402814
-0.0025594395 -0.021755219 0.69450057
-0.0025673157 -0.02310583 0.69497597
-0.002575231 -0.024464667 0.69545376
-0.002583205 -0.025832057 0.69593501
-0.0025912286 -0.027207911 0.69641924
-0.002599302 -0.028592318 0.69690657
-0.0013350194 0.050730765 0.70117581
-0.0013332367 0.049329758 0.70096064
-0.0013442434 0.048392773 0.70228934
-0.0012994226 0.045479774 0.69687891
-0.0012951989 0.044036776 0.69636905
-0.0012916506 0.042624474 0.69594073
-0.0012901591 0.041285098 0.69576079
-0.0012930204 0.040083677 0.69610614
-0.0012961797 0.038885415 0.69648749
-0.0012993594 0.037681401 0.69687128
-0.0013025498 0.036471397 0.69725645
-0.0013057608 0.035255581 0.69764405
-0.0013089828 0.034033537 0.69803298
-0.0013122257 0.032805622 0.69842446
-0.0013154796 0.031571537 0.69881719
-0.0013187549 0.030331373 0.69921255
-0.0013220414 0.029084921 0.69960922
-0.0013253493 0.027832359 0.70000857
-0.0013286739 0.026573479 0.70040989
-0.0013317395 0.025303066 0.70077991
-0.0013299809 0.023939669 0.70056766
-0.0013081993 0.022239387 0.69793838
-0.0013081796 0.020930916 0.69793594
-0.0013088743 0.019633114 0.69801986
-0.0013483068 0.018876314 0.70277983
-0.0013524053 0.017581284 0.70327449
-0.0013558619 0.016270369 0.70369172
-0.0013593415 0.014952779 0.70411175
-0.001362839 0.013628423 0.70453399
-0.0013663492 0.012297153 0.70495772
-0.0013687174 0.01094979 0.70524359
-0.0013639678 0.0095477998 0.70467025
-0.0013253696 0.0079522431 0.70001101
-0.0013251926 0.0066260099 0.69998962
-0.0013278868 0.0053115487 0.70031488
-0.0013867104 0.004160136 0.70741552
-0.0013882673 0.0027765334 0.70760345
-0.001388517 0.0013885498 0.70763355
-0.0013869319 2.9802322e-08 0.70744222
-0.0013796901 -0.0013796687 0.70656806
-0.0013654256 -0.0027308166 0.70484614
-0.001349768 -0.0040493011 0.7029562
-0.0013377691 -0.0053510666 0.70150775
-0.0013243592 -0.0066218078 0.69988912
-0.0013217396 -0.0079304278 0.69957286
-0.0013131134 -0.0091917813 0.69853157
-0.0012791497 -0.010233194 0.69443178
-0.0012516283 -0.011264622 0.6911096
-0.0012528377 -0.01252836 0.69125563
-0.0012558943 -0.013814837 0.69162458
-0.0012589658 -0.015107572 0.69199538
-0.0012624696 -0.016412079 0.69241834
-0.0012663021 -0.017728209 0.69288093
-0.0012701533 -0.019052267 0.69334579
-0.0012740328 -0.02038452 0.6938141
-0.0012779359 -0.02172491 0.69428527
-0.0012818631 -0.023073554 0.69475931
-0.0012858097 -0.024430364 0.69523573
-0.0012897855 -0.025795698 0.69571561
-0.0012937859 -0.027169496 0.69619852
-0.0012978113 -0.028551787 0.69668448
-0.0013018568 -0.029942721 0.69717276
0 0.04967016 0.70207113
0 0.04853797 0.70277601
0 0.047413737 0.70354885
0 0.046170861 0.7039457
0 0.044921547 0.70434326
0 0.041680187 0.69725114
0 0.040265828 0.69681561
0 0.038884968 0.69648576
0 0.037655085 0.69676173
0 0.036446005 0.69714689
0 0.035230815 0.69753337
0 0.034009725 0.69792235
0 0.032782495 0.69831264
0 0.031549335 0.69870543
0 0.030309886 0.69909966
0 0.029064357 0.69949639
0 0.027812481 0.69989455
0 0.026554495 0.70029527
0 0.025259584 0.70050377
0 0.023806661 0.69967544
0 0.022336274 0.69862622
0 0.021024615 0.69864309
0 0.020106405 0.7018286
0 0.018871754 0.70274061
0 0.017568469 0.70315588
0 0.016258568 0.70357305
0 0.014941841 0.70399189
0 0.013618439 0.70441341
0 0.012288183 0.70483714
0 0.010923624 0.70484942
0 0.0094475448 0.7029416
0 0.0079462528 0.69989026
0 0.0066325068 0.70014721
0 0.0055294335 0.70689011
0 0.0041603446 0.70742416
0 0.0027807355 0.70785493
0 0.0013932586 0.70820278
0 2.9802322e-08 0.7084161
0 -0.0013954341 0.70847368
0 -0.002781868 0.70792675
0 -0.0041042566 0.70516741
0 -0.0054021478 0.70304924
0 -0.0067399442 0.70274186
0 -0.0080639422 0.70225853
0 -0.0093291104 0.70090014
0 -0.010252863 0.69472855
0 -0.011400551 0.69293225
0 -0.012536287 0.69135112
0 -0.013812006 0.69159389
0 -0.015104532 0.69196457
0 -0.016403377 0.69233751
0 -0.0177086 0.69271183
0 -0.019025922 0.69313371
0 -0.020356238 0.69360065
0 -0.02169466 0.69407058
0 -0.023041308 0.69454324
0 -0.024396151 0.69501835
0 -0.025759459 0.69549692
0 -0.02713117 0.69597846
0 -0.028511494 0.69646299
0 -0.034493774 0.72105813
0 -0.03643775 0.72329271
0.0013550635 0.047427267 0.7035954
0.0013570321 0.046139121 0.70383304
0.0013603207 0.044890583 0.70423001
0.0013636306 0.043636173 0.70462954
0.0013669513 0.042375505 0.70503032
0.0013100044 0.039300144 0.6981563
0.0013062321 0.037880719 0.69770098
0.0013027354 0.036476612 0.69727886
0.0013039331 0.035206199 0.6974234
0.001307146 0.033985794 0.69781125
0.0013103798 0.032759488 0.6982016
0.0013136247 0.031526983 0.69859326
0.0013168906 0.030288488 0.69898748
0.0013201678 0.029043704 0.69938308
0.0013234664 0.027792841 0.6997813
0.0013266599 0.026533246 0.70016682
0.0013257387 0.025189042 0.7000556
0.0013160377 0.023688704 0.69888455
0.0013178046 0.022402704 0.69909787
0.001319882 0.021118134 0.69934863
0.0013424102 0.020136207 0.70206797
0.0013470105 0.018858165 0.70262337
0.0013504447 0.017555803 0.70303786
0.0013538913 0.016246736 0.7034539
0.0013573609 0.014931023 0.70387268
0.0013608482 0.013608485 0.70429367
0.0013637698 0.012273937 0.70464635
0.0013605445 0.010884374 0.70425701
0.0013281051 0.0092967451 0.70034117
0.0013268727 0.0079612434 0.70019245
0.0013286282 0.0066431761 0.70040435
0.0013821267 0.0055285096 0.70686221
0.0013857482 0.0041572154 0.70729935
0.0013893831 0.0027788281 0.7077381
0.0013930371 0.0013930798 0.70817924
0.0013967104 2.9802322e-08 0.70862263
0.0013995175 -0.0013995171 0.70896149
0.0013958575 -0.0027917027 0.70851964
0.0013726808 -0.0041179955 0.70572191
0.0013523737 -0.0054094791 0.70327073
0.0013543927 -0.0067719817 0.7035144
0.001357382 -0.0081442893 0.7038753
0.0013807866 -0.0096654892 0.70670044
0.0013837559 -0.011070043 0.70705891
0.0013876131 -0.012488514 0.70752448
0.0013916478 -0.013916463 0.70801151
0.0012740234 -0.014014244 0.69381297
0.0012599565 -0.015119433 0.69211495
0.0012615437 -0.016400039 0.69230658
0.0012646429 -0.017704993 0.69268066
0.0012677575 -0.019016355 0.69305658
0.0012708873 -0.020334184 0.69343448
0.0012743832 -0.0216645 0.69385648
0.0012782885 -0.023009181 0.69432783
0.0012822131 -0.024362028 0.69480157
0.0012861666 -0.025723338 0.69527882
0.0012901446 -0.027093053 0.69575906
0.0012941473 -0.028471261 0.69624215
0.0014885186 -0.034235924 0.71970487
0.0014909584 -0.035782963 0.71999931
0.0015067335 -0.037668318 0.72190356
0.0015255606 -0.039664567 0.72417617
0.0027265656 0.044988364 0.70458758
0.0027253681 0.043605894 0.70451528
0.0027320108 0.042346209 0.70491624
0.0027386753 0.041080147 0.70531845
0.0027453725 0.039807916 0.70572263
0.0026351793 0.036892533 0.69907188
0.0026272989 0.035468549 0.6985963
0.002619989 0.034059882 0.69815505
0.0026190609 0.032738298 0.69809908
0.0026254032 0.03150484 0.69848186
0.002631916 0.03026703 0.69887495
0.0026384711 0.0290232 0.69927055
0.0026450488 0.027773023 0.69966757
0.0026493648 0.026493669 0.69992805
0.0026392727 0.025073111 0.69931895
0.0026324941 0.023692429 0.69890988
0.0026386713 0.022428721 0.69928265
0.0026673023 0.021338433 0.7010107
0.0026850591 0.020137966 0.7020824
0.0026920799 0.018844575 0.70250618
0.0026989281 0.017543048 0.70291948
0.0027058218 0.016234964 0.70333552
0.0027127506 0.014920175 0.70375377
0.0027197045 0.013598561 0.70417345
0.0027219628 0.012248844 0.7043097
0.0027032851 0.010813117 0.70318246
0.0026584254 0.0093044937 0.70047492
0.0026605423 0.007981658 0.70060265
0.0027518081 0.0068795383 0.70611107
0.0027622208 0.0055244565 0.70673954
0.002769442 0.0041541457 0.70717537
0.002776701 0.0027767122 0.70761353
0.002783987 0.0013920367 0.70805323
0.0027913225 2.9802322e-08 0.70849597
0.0027955109 -0.0013977587 0.70874876
0.0027841656 -0.0027841628 0.70806402
0.0027209397 -0.0040813684 0.70424795
0.0027044527 -0.0054088831 0.70325291
0.0027109727 -0.0067774057 0.70364642
0.0028216399 -0.0084649026 0.71032578
0.0028207579 -0.0098726749 0.71027255
0.0027953873 -0.011181533 0.70874131
0.0027750712 -0.012487799 0.70751518
0.002780356 -0.01390174 0.70783406
0.0027881644 -0.015334874 0.70830542
0.0027962194 -0.016777277 0.70879155
0.0025627997 -0.016658157 0.6947034
0.0025332321 -0.01773265 0.6929189
0.002534997 -0.019012451 0.69302541
0.0025412543 -0.020330012 0.69340295
0.0025475423 -0.021654099 0.69378257
0.0025538711 -0.022984833 0.69416451
0.0025608542 -0.024328113 0.69458604
0.0025687297 -0.025687277 0.69506139
0.0025766634 -0.027054995 0.69554013
0.0025846462 -0.028431118 0.69602197
0.0029686056 -0.034138948 0.71919596
0.0029502937 -0.03540352 0.71809065
0.0029714108 -0.037142634 0.71936524
0.0029961874 -0.038950413 0.72086066
0.0030276065 -0.040872693 0.72275698
0.0030659281 -0.042922974 0.72506988
0.0041403524 0.042783678 0.70661968
0.0041058287 0.041058332 0.70523053
0.0041151973 0.039780259 0.70560753
0.004125278 0.038502604 0.70601314
0.0041354247 0.037218809 0.70642143
0.004145605 0.035928607 0.70683104
0.0039634551 0.033028781 0.69950187
0.0039523644 0.031618923 0.69905555
0.0039462596 0.030254662 0.69880998
0.0039548986 0.029002637 0.6991576
0.0039646458 0.027752489 0.69954979
0.0039642691 0.026428461 0.69953465
0.0039430056 0.024972379 0.69867903
0.0039486517 0.023691922 0.69890624
0.0039568953 0.022422433 0.69923794
0.004009618 0.021384656 0.70135927
0.0040249759 0.020124882 0.70197725
0.0040351972 0.018830955 0.70238853
0.0040454702 0.017530382 0.70280194
0.0040557799 0.016223162 0.70321673
0.0040661581 0.014909267 0.70363432
0.0040757284 0.013585776 0.70401943
0.0040702857 0.012210876 0.70380044
0.004005135 0.010680377 0.70117891
0.0040021054 0.0093382597 0.70105702
0.004003935 0.008007884 0.70113063
0.0041288729 0.0068814456 0.70615774
0.0041402704 0.0055203736 0.7066164
0.0041510859 0.0041510761 0.70705158
0.0041619418 0.0027746558 0.70748836
0.0041728714 0.0013909936 0.70792806
0.0041837571 2.9802322e-08 0.70836616
0.0041826996 -0.001394242 0.7083236
0.0041386923 -0.002759099 0.7065528
0.0040514763 -0.0040514469 0.70304358
0.0040575797 -0.0054100752 0.70328915
0.0040688561 -0.0067814291 0.70374292
0.0042315833 -0.0084631443 0.71029055
0.0042432449 -0.0099008977 0.71075976
0.0042533558 -0.011342257 0.71116656
0.0042537032 -0.012761056 0.71118057
0.0042182612 -0.014060825 0.70975447
0.0041832034 -0.015338421 0.70834386
0.0041899793 -0.016759872 0.70861655
0.0042018187 -0.018207878 0.70909286
0.0042139296 -0.019664973 0.70958018
0.0038666008 -0.019332975 0.69560474
0.003821454 -0.020381093 0.69378817
0.0038205436 -0.021649748 0.69375157
0.0038300187 -0.022980064 0.6941328
0.003839541 -0.024317086 0.69451594
0.0038491108 -0.025660723 0.69490099
0.0038595714 -0.027016968 0.69532192
0.003872188 -0.02839604 0.69582957
0.0044338168 -0.033992559 0.71842778
0.0043910467 -0.035128355 0.71670687
0.0044173575 -0.036811292 0.71776551
0.0044464315 -0.038535714 0.71893531
0.0044784285 -0.040305853 0.72022283
0.0045158924 -0.042148322 0.72173023
0.0045628389 -0.044107437 0.72361922
0.0046213195 -0.04621318 0.72597229
0.0055003273 0.038502306 0.70601183
0.0055100308 0.037192702 0.70630467
0.0055236076 0.035903454 0.70671439
0.0055372291 0.034607708 0.70712543
0.0055509182 0.033305526 0.70753849
0.0053149597 0.03056106 0.70041782
0.0053000026 0.029150039 0.69996649
0.0052861138 0.027752101 0.69954735
0.0052774232 0.026387125 0.69928503
0.0052749994 0.025056273 0.69921196
0.0052766213 0.023744822 0.69926089
0.0053057484 0.02254945 0.70013988
0.0053483173 0.021393299 0.70142448
0.0053627831 0.020110458 0.70186102
0.0053763911 0.018817365 0.7022717
0.005390048 0.017517686 0.70268387
0.0054037953 0.01621139 0.70309877
0.0054176128 0.014898449 0.70351565
0.0054250564 0.013562679 0.7037403
0.0054001003 0.012150258 0.70298725
0.0053595575 0.010719121 0.70176375
0.0053600324 0.0093800724 0.70177805
0.0054771998 0.0082158148 0.70531392
0.0055019604 0.0068774819 0.70606112
0.0055162632 0.0055162609 0.70649278
0.0055306628 0.0041480362 0.7069273
0.0055451379 0.0027725399 0.70736408
0.0055596889 0.0013899505 0.70780325
0.005571255 -0 0.70815229
0.0055568656 -0.0013892055 0.70771801
0.0054497742 -0.0027248561 0.70448619
0.0054053296 -0.0040539801 0.70314497
0.0054147635 -0.0054147243 0.70342976
0.005622528 -0.0070281625 0.70969957
0.0056379917 -0.0084569752 0.71016622
0.0056535173 -0.0098936558 0.71063477
0.0056691291 -0.011338264 0.71110582
0.005684827 -0.012790829 0.71157956
0.0056970599 -0.014242589 0.71194875
0.00570129 -0.015678555 0.71207637
0.0056583276 -0.016974956 0.71077991
0.0056059053 -0.018219173 0.70919794
0.0056128101 -0.019644797 0.70940626
0.0056287898 -0.021107942 0.70988858
0.0056450902 -0.022580355 0.71038043
0.005185667 -0.022039056 0.6965161
0.0051247864 -0.023061514 0.6946789
0.0051183323 -0.024312049 0.69448411
0.0051310868 -0.025655389 0.69486898
0.0051439242 -0.027005613 0.69525641
0.0059084888 -0.032496661 0.71832913
0.0058679283 -0.03374058 0.71710515
0.0058211596 -0.034926951 0.71569383
0.0058508595 -0.036567867 0.71659005
0.0058824569 -0.038235962 0.7175436
0.0059178472 -0.039945424 0.7186116
0.0059568556 -0.041697979 0.71978879
0.0059999544 -0.043499649 0.72108936
0.006050284 -0.045377105 0.72260821
0.0061126016 -0.047372669 0.72448885
0.0061919829 -0.049535871 0.72688442
0.0069123385 0.035944164 0.7069034
0.0069166864 0.034583449 0.70700836
0.0069337739 0.033282101 0.70742089
0.0069509456 0.031974345 0.70783544
0.0069592153 0.030620545 0.70803505
0.0066822846 0.028065622 0.70134938
0.0066631665 0.026652694 0.7008878
0.0066441316 0.025247723 0.70042825
0.0066310717 0.023871869 0.700113
0.0066524763 0.022618413 0.70062971
0.006681771 0.021381706 0.70133698
0.0066986713 0.020096034 0.70174503
0.0067156311 0.018803775 0.7021544
0.0067327037 0.01750505 0.70256662
0.0067498628 0.016199678 0.70298082
0.0067666355 0.014886618 0.70338583
0.0067631849 0.01352638 0.7033025
0.0067137629 0.012084812 0.70210934
0.0067210351 0.010753721 0.70228493
0.0067306692 0.0094229579 0.70251751
0.006852116 0.0082225204 0.70544946
0.0068723634 0.0068723857 0.70593828
0.0068902429 0.0055122077 0.70636988
0.0069082156 0.0041449368 0.7068038
0.0069262548 0.0027705431 0.70723927
0.0069444166 0.0013889074 0.70767778
0.0069494722 2.9802322e-08 0.70779979
0.006904372 -0.001380831 0.70671105
0.0067644226 -0.002705723 0.70333236
0.0067688767 -0.0040613115 0.70343983
0.0067814002 -0.0054251254 0.70374221
0.0070230458 -0.0070230663 0.70957613
0.007042347 -0.0084508061 0.71004206
0.0070617259 -0.009886384 0.7105099
0.007081212 -0.011329919 0.7109803
0.0071008345 -0.012781501 0.71145403
0.0071205371 -0.01424104 0.71192974
0.0071403496 -0.015708774 0.71240807
0.0071567916 -0.0171763 0.71280497
0.0071637561 -0.018625736 0.71297312
0.0071159001 -0.019924492 0.71181774
0.0070437458 -0.021131217 0.71007586
0.007049033 -0.022556901 0.71020353
0.0070692254 -0.024035305 0.71069098
0.0070897941 -0.025523245 0.7111876
0.006520302 -0.024777144 0.69743878
0.0064432831 -0.025773108 0.69557935
0.0064304285 -0.027007788 0.69526905
0.0073677576 -0.032418132 0.71789819
0.0072767236 -0.033472896 0.71570039
0.0072445599 -0.034773856 0.71492392
0.0072762971 -0.036381453 0.71569008
0.00731102 -0.038017273 0.7165283
0.0073483433 -0.039681047 0.71742946
0.0073880921 -0.041373283 0.71838909
0.0074326904 -0.043109566 0.71946573
0.0074817589 -0.044890553 0.72065037
0.007536184 -0.046724349 0.72196436
0.0075995759 -0.048637271 0.72349477
0.007677115 -0.050668925 0.72536671
0.0077780951 -0.052891016 0.7278046
0.0083869034 0.03354761 0.70875627
0.0083349654 0.031950742 0.70771128
0.0083268424 0.030531764 0.7075479
0.0082781734 0.028973639 0.70656872
0.0082872221 0.0276241 0.70675081
0.0080661168 0.025542706 0.70230246
0.0080421269 0.024126381 0.7018199
0.0080189584 0.022720367 0.70135373
0.00801301 0.021368027 0.70123404
0.0080326144 0.02008155 0.70162845
0.0080529684 0.018790275 0.70203799
0.0080734259 0.017492414 0.70244956
0.0080939559 0.016187906 0.70286262
0.0081086569 0.014865905 0.70315826
0.0080833174 0.013472229 0.70264852
0.008056609 0.012084931 0.70211124
0.008075865 0.010767847 0.70249861
0.0081725139 0.0095345974 0.7044431
0.0082194591 0.0082194507 0.70538753
0.0082407724 0.0068673491 0.70581627
0.0082621966 0.0055081248 0.70624733
0.0082836989 0.0041418672 0.70667994
0.0083053466 0.0027684569 0.70711541
0.00832518 0.0013875365 0.70751446
0.0083136931 -0 0.70728332
0.0081865704 -0.0013644099 0.70472586
0.0081363153 -0.0027121007 0.70371473
0.0081429882 -0.0040714741 0.70384908
0.0083985599 -0.0055990219 0.70899075
0.0084215617 -0.0070179403 0.70945346
0.0084446548 -0.0084446669 0.70991814
0.0084678764 -0.0098791718 0.7103852
0.0084912591 -0.011321664 0.71085572
0.0085147377 -0.012772083 0.71132803
0.0085383458 -0.014230579 0.71180308
0.0085620852 -0.015697151 0.71228063
0.0085859923 -0.017171949 0.71276158
0.008609998 -0.018655002 0.71324456
0.0086322082 -0.02014181 0.71369141
0.0086415112 -0.021603793 0.71387851
0.0085912999 -0.022910118 0.71286833
0.0084992554 -0.0240812 0.71101654
0.00849884 -0.025496513 0.71100819
0.0085233701 -0.026990622 0.71150172
0.0085482532 -0.028494149 0.71200234
0.0085746218 -0.030011177 0.71253282
0.0088039357 -0.032281071 0.71714634
0.0086633442 -0.033209443 0.7143178
0.008664568 -0.034658223 0.71434242
0.0086978246 -0.036240935 0.71501154
0.008734813 -0.037850857 0.71575564
0.0087730763 -0.039478868 0.71652544
0.0088151405 -0.041137338 0.71737176
0.0088601336 -0.04282397 0.71827692
0.0089080995 -0.044540495 0.71924192
0.008962132 -0.046304315 0.72032893
0.0090213502 -0.048113883 0.7215203
0.0090873335 -0.049980342 0.72284782
0.009163986 -0.051929235 0.72438991
0.009256715 -0.053997517 0.72625554
0.0093799075 -0.056279451 0.7287339
0.0097308569 0.029192597 0.70782739
0.0097067403 0.027733594 0.70741153
0.0097925207 0.026579738 0.7088908
0.0098393839 0.025301307 0.7096988
0.0098640844 0.023955643 0.71012473
0.0094371596 0.021570653 0.70276278
0.0094097042 0.020163655 0.70228928
0.0093918648 0.018783718 0.70198166
0.0094121806 0.017479777 0.70233202
0.0094361342 0.016176224 0.70274508
0.009438551 0.01483202 0.7027868
0.0093872249 0.01341033 0.70190161
0.0093989056 0.012084335 0.70210302
0.0094189597 0.010764539 0.7024489
0.0095498366 0.0095498562 0.70470583
0.0095823426 0.0082134604 0.70526636
0.0096071716 0.006862253 0.7056945
0.009632091 0.0055040419 0.70612425
0.009657179 0.0041387677 0.70655686
0.0096823974 0.0027664304 0.70699179
0.0096961381 0.0013852119 0.70722866
0.0096550705 -0 0.7065205
0.0095228041 -0.0013603866 0.70423961
0.0095265713 -0.0027219057 0.70430458
0.0095552765 -0.0040950775 0.70479959
0.0097912196 -0.005594939 0.70886832
0.0098180166 -0.0070128441 0.70933038
0.0098449197 -0.0084384978 0.70979434
0.0098719709 -0.0098719597 0.71026081
0.009899212 -0.011313379 0.71073055
0.0099265631 -0.012762666 0.7112022
0.0099540651 -0.014220089 0.71167648
0.0099817617 -0.015685618 0.71215409
0.010009572 -0.017159253 0.71263361
0.010037537 -0.018641114 0.71311587
0.010065658 -0.02013129 0.71360087
0.01009398 -0.0216299 0.71408916
0.010121744 -0.023135394 0.71456802
0.010134523 -0.024612397 0.71478832
