# .PCD v0.7 - Point Cloud Data file format
VERSION 0.7
FIELDS x y z
SIZE 4 4 4
TYPE F F F
COUNT 1 1 1
WIDTH 1331
HEIGHT 1
VIEWPOINT 0 0 0 1 0 0 0
POINTS 1331
DATA ascii
-0.0095366566 0.044958532 0.7044785
-0.0095366938 0.043596357 0.7044791
-0.0095366938 0.042233944 0.70447916
-0.0095366938 0.040871561 0.70447916
-0.0095366938 0.039509177 0.70447916
-0.0095366938 0.038146794 0.70447916
-0.0095366938 0.03678441 0.70447916
-0.0095367311 0.035422176 0.70447981
-0.0095367311 0.034059763 0.70447981
-0.0097457506 0.033414036 0.70808423
-0.0097856261 0.032152802 0.70877182
-0.0097848782 0.03075248 0.70875895
-0.0097840913 0.029352278 0.70874536
-0.0097833434 0.027952403 0.70873249
-0.0097825564 0.026552677 0.7087189
-0.0097817695 0.02515313 0.70870531
-0.0097810226 0.023753971 0.70869243
-0.0097802356 0.022354841 0.70867884
-0.0097794887 0.020956069 0.70866597
-0.0097787026 0.019557416 0.70865244
-0.0097779157 0.018158972 0.70863891
-0.0097771697 0.016760856 0.70862597
-0.0097763836 0.015362889 0.70861244
-0.0097755976 0.01396513 0.70859891
-0.0097748116 0.012567639 0.70858538
-0.0097740656 0.011170387 0.70857245
-0.0097732795 0.0097732842 0.70855892
-0.0097724944 0.0083764493 0.70854539
-0.0097700218 0.0069786012 0.70850277
-0.009386682 0.0053637922 0.70189232
-0.0093853418 0.0040223002 0.70186925
-0.0097423932 0.0027835667 0.70802629
-0.0098152431 0.0014021695 0.70928258
-0.0098186899 -0 0.709342
-0.0098186899 -0.0014026463 0.709342
-0.0098186899 -0.0028053522 0.709342
-0.0098186899 -0.0042079985 0.70934206
-0.0098166689 -0.0056095123 0.70930719
-0.009765354 -0.0069752336 0.70842224
-0.0091424901 -0.0078364015 0.69768137
-0.0091412188 -0.0091412067 0.69765949
-0.0091412188 -0.010447115 0.69765949
-0.0091412188 -0.011752963 0.69765949
-0.0091412188 -0.013058841 0.69765937
-0.0091412188 -0.014364779 0.69765943
-0.0091412188 -0.015670657 0.69765943
-0.0091412188 -0.016976506 0.69765943
-0.0091412188 -0.018282413 0.69765943
-0.0091412188 -0.019588321 0.69765943
-0.0091412188 -0.0208942 0.69765943
-0.0091412188 -0.022200078 0.69765943
-0.0091412188 -0.023505986 0.69765937
-0.0091412188 -0.024811894 0.69765949
-0.0091412188 -0.026117772 0.69765949
-0.0091412188 -0.02742362 0.69765949
-0.0091412188 -0.028729528 0.69765937
-0.0091412188 -0.030035436 0.69765943
-0.0091412188 -0.031341314 0.69765943
-0.0091412188 -0.032647163 0.69765943
-0.0091412188 -0.033953071 0.69765943
-0.0091412188 -0.035258949 0.69765943
-0.0091412188 -0.036564857 0.69765943
-0.0091412188 -0.037870795 0.69765943
-0.0091412188 -0.039176643 0.69765943
-0.0091412188 -0.040482551 0.69765949
-0.0091412188 -0.041788429 0.69765949
-0.0091412188 -0.043094307 0.69765937
-0.0091412188 -0.044400156 0.69765937
-0.0091412188 -0.045706064 0.69765949
-0.0091446564 -0.047029614 0.69771874
-0.0094679426 -0.050044835 0.70329362
-0.0094949976 -0.051544279 0.70376015
-0.0094999671 -0.052928358 0.70384586
-0.009504904 -0.054313719 0.70393103
-0.0095150182 -0.05573085 0.70410538
-0.0081932619 0.066911697 0.70486045
-0.0081413342 0.065130711 0.70381576
-0.0081364419 0.063735515 0.70371735
-0.0081364103 0.062379152 0.70371664
-0.0081363786 0.061022848 0.70371604
-0.0081363469 0.059666574 0.70371538
-0.0081363153 0.05831027 0.70371479
-0.0081362836 0.056953967 0.70371413
-0.0081362519 0.055597752 0.70371348
-0.0081362193 0.054241478 0.70371282
-0.0081361877 0.052885234 0.70371222
-0.008136156 0.05152902 0.70371157
-0.0081361244 0.050172806 0.70371091
-0.0081360927 0.048816592 0.70371026
-0.0081360927 0.047460526 0.70371026
-0.008136061 0.046104372 0.70370966
-0.008136061 0.044748366 0.70370966
-0.0081360294 0.043392181 0.70370901
-0.0081360294 0.042036176 0.70370901
-0.0081360294 0.04068014 0.70370901
-0.0081359977 0.039323986 0.70370835
-0.0081359977 0.03796801 0.70370841
-0.0081359977 0.036611974 0.70370835
-0.0081359977 0.035256028 0.70370841
-0.0081363786 0.033901602 0.70371604
-0.0083359312 0.033343732 0.70773077
-0.0083620781 0.032054633 0.70825678
-0.0083614402 0.030658633 0.70824397
-0.0083607696 0.029262692 0.70823044
-0.008360099 0.027867019 0.70821691
-0.008359462 0.026471645 0.70820421
-0.0083587924 0.025076389 0.70819068
-0.0083581554 0.023681462 0.70817786
-0.0083574858 0.022286654 0.70816433
-0.0083568152 0.020892054 0.70815086
-0.0083561791 0.019497782 0.70813811
-0.0083555095 0.018103629 0.70812464
-0.0083548725 0.016709745 0.70811182
-0.0083542028 0.015316069 0.70809835
-0.0083535342 0.013922572 0.70808488
-0.0083528645 0.012529314 0.70807141
-0.0083522284 0.011136323 0.7080586
-0.0083515598 0.0097434819 0.70804513
-0.0083508901 0.0083509088 0.70803171
-0.0083486829 0.0069572628 0.70798731
-0.0077987518 0.005199194 0.69692349
-0.007798898 0.0038994849 0.69692647
-0.0077990144 0.0025996864 0.69692886
-0.0077992477 0.0012998879 0.69693351
-0.0077995691 2.9802322e-08 0.69693995
-0.0077998899 -0.0012999773 0.69694644
-0.0077998899 -0.0025999546 0.6969465
-0.0077998899 -0.0038999319 0.69694638
-0.0077998899 -0.0051999092 0.69694644
-0.0077998899 -0.0064998865 0.69694638
-0.0077998899 -0.0077998638 0.6969465
-0.0077998899 -0.0090998411 0.69694638
-0.0077998899 -0.010399818 0.69694638
-0.0077998899 -0.011699855 0.69694644
-0.0077998899 -0.012999803 0.69694644
-0.0077998899 -0.01429978 0.69694638
-0.0077998899 -0.015599787 0.69694638
-0.0077998899 -0.016899735 0.69694638
-0.0077998899 -0.018199712 0.69694638
-0.0077998899 -0.019499719 0.69694638
-0.0077998899 -0.020799696 0.69694638
-0.0077998899 -0.022099644 0.69694644
-0.0077998899 -0.023399651 0.69694644
-0.0077998899 -0.024699628 0.6969465
-0.0077998899 -0.025999606 0.69694638
-0.0077998899 -0.027299583 0.69694644
-0.0077998606 -0.028599471 0.69694585
-0.0077997441 -0.029899001 0.69694352
-0.0077996273 -0.031198472 0.69694114
-0.0077995104 -0.032497942 0.69693875
-0.007799394 -0.033797383 0.69693643
-0.0077992771 -0.035096735 0.6969341
-0.0077991602 -0.036396086 0.69693172
-0.0077990438 -0.037695378 0.69692945
-0.0077989562 -0.038994759 0.69692767
-0.0077989269 -0.040294439 0.69692707
-0.007798898 -0.041594088 0.69692647
-0.0077988394 -0.042893589 0.69692528
-0.0077988105 -0.044193238 0.69692469
-0.0077987812 -0.045492858 0.69692409
-0.0077987518 -0.046792507 0.69692349
-0.0078415489 -0.048356205 0.69778454
-0.0081020081 -0.051312715 0.70302463
-0.0081060091 -0.052689046 0.70310503
-0.0081100455 -0.054066926 0.70318621
-0.0081156958 -0.055457264 0.70329994
-0.0067871488 0.066514075 0.70388103
-0.0067582917 0.064879596 0.70318431
-0.0067557949 0.063504487 0.70312405
-0.0067557949 0.062153339 0.70312405
-0.0067557688 0.060801893 0.70312345
-0.0067557422 0.059450537 0.70312279
-0.0067557162 0.058099151 0.7031222
-0.0067557162 0.056748033 0.70312214
-0.0067556896 0.055396676 0.70312154
-0.0067556635 0.05404532 0.70312095
-0.0067556635 0.052694201 0.70312095
-0.0067556375 0.051342875 0.70312029
-0.0067556109 0.049991578 0.70311964
-0.0067556109 0.0486404 0.70311964
-0.0067555849 0.047289133 0.70311898
-0.0067555583 0.045937836 0.70311832
-0.0067555583 0.044586718 0.70311832
-0.0067555322 0.043235421 0.70311773
-0.0067555062 0.041884124 0.70311713
-0.0067555062 0.040533066 0.70311713
-0.0067554796 0.039181828 0.70311648
-0.0067554535 0.037830561 0.70311582
-0.006755427 0.036479324 0.70311522
-0.0067554535 0.035128355 0.70311582
-0.0067554796 0.033777446 0.70311642
-0.0067555322 0.032426536 0.70311779
-0.0067554796 0.031075209 0.70311648
-0.006755427 0.029723883 0.70311522
-0.0067553748 0.028372586 0.70311391
-0.0067553748 0.027021527 0.70311391
-0.0067553748 0.025670469 0.70311391
-0.0067553748 0.024319351 0.70311391
-0.0067553748 0.022968292 0.70311391
-0.0067553748 0.021617204 0.70311391
-0.0067553748 0.020266116 0.70311391
-0.0067553748 0.018915027 0.70311397
-0.0067553748 0.017563999 0.70311397
-0.0067553748 0.01621294 0.70311391
-0.0067553748 0.014861852 0.70311391
-0.0067553748 0.013510764 0.70311391
-0.0067553748 0.012159705 0.70311391
-0.0067553483 0.010808587 0.70311326
-0.0067553483 0.0094575286 0.70311332
-0.0067553483 0.0081064105 0.70311332
-0.0067504663 0.0067504942 0.70299542
-0.0064889351 0.0051911771 0.6966815
-0.0064889351 0.0038933754 0.6966815
-0.0064889351 0.0025955737 0.6966815
-0.0064889351 0.0012978017 0.69668156
-0.0064889351 2.9802322e-08 0.69668144
-0.0064889351 -0.0012978017 0.69668156
-0.0064889351 -0.0025955141 0.6966815
-0.0064889351 -0.0038933456 0.6966815
-0.0064889351 -0.0051911473 0.6966815
-0.0064889351 -0.0064889193 0.6966815
-0.0064889351 -0.007786721 0.6966815
-0.0064889351 -0.0090845227 0.6966815
-0.0064889351 -0.010382295 0.6966815
-0.0064889351 -0.011680037 0.6966815
-0.0064889351 -0.012977898 0.6966815
-0.0064889351 -0.01427561 0.6966815
-0.0064889351 -0.015573412 0.6966815
-0.0064889351 -0.016871214 0.6966815
-0.0064889351 -0.018168986 0.6966815
-0.0064889351 -0.019466817 0.6966815
-0.0064889351 -0.02076456 0.6966815
-0.0064889351 -0.022062391 0.6966815
-0.0064889351 -0.023360133 0.6966815
-0.0064889351 -0.024657935 0.6966815
-0.0064889351 -0.025955737 0.6966815
-0.0064889351 -0.027253509 0.6966815
-0.0064889351 -0.02855131 0.6966815
-0.0064889351 -0.029849112 0.6966815
-0.0064889351 -0.031146884 0.6966815
-0.0064889351 -0.032444626 0.6966815
-0.0064889351 -0.033742458 0.69668156
-0.0064889351 -0.0350402 0.6966815
-0.0064889351 -0.036338031 0.6966815
-0.0064889351 -0.037635833 0.6966815
-0.0064889351 -0.038933605 0.6966815
-0.0064889351 -0.040231407 0.6966815
-0.0064889351 -0.041529149 0.6966815
-0.0064889351 -0.04282698 0.6966815
-0.0064889351 -0.044124722 0.6966815
-0.0064889351 -0.045422524 0.6966815
-0.0064889351 -0.046720296 0.6966815
-0.0067111175 -0.049662232 0.7020455
-0.0067278021 -0.051131278 0.70244825
-0.0067310082 -0.052501857 0.70252568
-0.0067342175 -0.053873688 0.7026031
-0.006737534 -0.055247754 0.70268321
-0.0054067592 0.06623283 0.70318818
-0.0053908005 0.064689666 0.70270658
-0.0053897137 0.06332916 0.70267379
-0.0053897137 0.061981738 0.70267379
-0.0053896927 0.060634047 0.70267314
-0.0053896718 0.059286416 0.70267248
-0.0053896718 0.057938993 0.70267248
-0.0053896508 0.056591362 0.70267189
-0.0053896299 0.055243701 0.70267123
-0.0053896299 0.053896308 0.70267129
-0.0053896089 0.052548677 0.70267057
-0.005389588 0.051201105 0.70266998
-0.005389588 0.049853742 0.70266992
-0.0053895675 0.048506111 0.70266938
-0.0053895675 0.047158718 0.70266932
-0.0053895465 0.045811176 0.70266873
-0.0053895256 0.044463575 0.70266807
-0.0053895256 0.043116242 0.70266807
-0.0053895465 0.041769028 0.70266873
-0.005389588 0.040421903 0.70266998
-0.0053896299 0.039074808 0.70267129
-0.0053896718 0.037727743 0.70267248
-0.0053897137 0.036380559 0.70267379
-0.0053897556 0.035033435 0.70267504
-0.005389797 0.03368625 0.7026763
-0.005389818 0.032338917 0.70267689
-0.0053897761 0.030991256 0.70267564
-0.0053897346 0.029643565 0.70267439
-0.0053896927 0.028295904 0.70267314
-0.0053896508 0.026948273 0.70267183
-0.0053896089 0.025600612 0.70267057
-0.0053895675 0.02425307 0.70266932
-0.0053895256 0.022905499 0.70266807
-0.0053894627 0.021557897 0.70266616
-0.0053894208 0.020210356 0.70266491
-0.0053893793 0.018862814 0.70266372
-0.0053893793 0.017515481 0.70266372
-0.0053893793 0.016168118 0.70266372
-0.0053893793 0.014820814 0.70266366
-0.0053893793 0.013473481 0.70266366
-0.0053893793 0.012126118 0.70266366
-0.0053893793 0.010778815 0.70266366
-0.0053893793 0.0094314218 0.70266366
-0.0053893793 0.0080841184 0.70266366
-0.00538537 0.0067317486 0.70254266
-0.0052326983 0.0052326918 0.69793546
-0.0052326983 0.0039245486 0.69793534
-0.0052326983 0.0026163757 0.69793534
-0.0052326983 0.0013082027 0.6979354
-0.0052326983 -0 0.69793546
-0.0052326983 -0.0013081729 0.69793534
-0.0052326983 -0.0026163161 0.69793534
-0.0052326983 -0.0039245188 0.6979354
-0.0052326983 -0.0052326918 0.6979354
-0.0052326983 -0.0065408349 0.6979354
-0.0052326983 -0.0078490376 0.69793534
-0.0052326983 -0.0091572106 0.6979354
-0.0052326983 -0.010465413 0.6979354
-0.0052326983 -0.011773556 0.69793534
-0.0052326983 -0.0130817 0.69793534
-0.0052326983 -0.014389902 0.6979354
-0.0052326983 -0.015698105 0.6979354
-0.0052327183 -0.017006308 0.697936
-0.0052327183 -0.018314511 0.697936
-0.0052327183 -0.019622713 0.69793594
-0.0052327183 -0.020930856 0.697936
-0.0052327183 -0.022239029 0.697936
-0.0052327183 -0.023547232 0.697936
-0.0052327183 -0.024855375 0.69793594
-0.0052327183 -0.026163608 0.697936
-0.0052327183 -0.027471751 0.69793606
-0.0052327183 -0.028779924 0.69793594
-0.0052327183 -0.030088097 0.69793594
-0.0052327183 -0.0313963 0.697936
-0.0052327183 -0.032704502 0.697936
-0.0052327183 -0.034012645 0.69793594
-0.0052327183 -0.035320789 0.69793594
-0.0052327183 -0.036629021 0.697936
-0.0052327183 -0.037937194 0.697936
-0.0052327183 -0.039245367 0.69793594
-0.0052327183 -0.04055357 0.697936
-0.0052327183 -0.041861713 0.697936
-0.0052327183 -0.043169916 0.697936
-0.0052327183 -0.044478089 0.69793594
-0.0052327183 -0.045786291 0.697936
-0.0052331318 -0.04709816 0.69794846
-0.0053549525 -0.049533308 0.70162475
-0.005367754 -0.050993651 0.70201099
-0.005370243 -0.052359819 0.70208621
-0.0053727129 -0.05372712 0.70216072
-0.005375206 -0.055095851 0.702236
-0.0054127183 -0.056833535 0.70336795
-0.0040445598 0.066061139 0.70276523
-0.0040346035 0.064553678 0.70236468
-0.0040342757 0.063203692 0.70235145
-0.0040342603 0.061858654 0.70235085
-0.0040342445 0.060513645 0.7023502
-0.0040342286 0.059168696 0.70234954
-0.0040342133 0.057823718 0.70234895
-0.0040342133 0.056479007 0.70234895
-0.0040341974 0.055134058 0.70234835
-0.0040341821 0.053789109 0.7023477
-0.0040341662 0.05244416 0.7023471
-0.0040341509 0.0510993 0.70234644
-0.004034135 0.049754351 0.70234585
-0.0040341197 0.048409462 0.70234519
-0.0040341038 0.047064543 0.7023446
-0.0040341038 0.045719862 0.70234454
-0.0040340885 0.044374973 0.70234394
-0.0040340726 0.043030143 0.70234329
-0.0040340573 0.041685253 0.70234269
-0.0040340414 0.040340424 0.70234203
-0.0040340261 0.038995594 0.70234138
-0.0040340102 0.037650764 0.70234078
-0.0040340102 0.036306113 0.70234078
-0.0040339949 0.034961313 0.70234019
-0.0040354002 0.033628345 0.70239669
-0.0040745814 0.032596648 0.70397329
-0.0040755053 0.031245589 0.70401043
-0.0040754895 0.029886901 0.70400977
-0.0040754895 0.028528452 0.70400977
-0.0040754895 0.027169913 0.70400983
-0.0040754895 0.025811464 0.70400977
-0.0040754895 0.024452984 0.70400977
-0.0040754895 0.023094445 0.70400977
-0.0040754895 0.021735966 0.70400977
-0.0040754895 0.020377427 0.70400983
-0.0040754895 0.019018918 0.70400977
-0.0040754895 0.017660469 0.70400983
-0.0040754895 0.01630196 0.70400977
-0.0040754895 0.01494351 0.70400977
-0.0040754895 0.013585001 0.70400977
-0.0040754895 0.012226492 0.70400977
-0.0040754895 0.010867983 0.70400983
-0.0040754895 0.0095095038 0.70400977
-0.0040754895 0.0081509948 0.70400977
-0.0040703649 0.0067839324 0.7038036
-0.003923534 0.0052314103 0.69789559
-0.003923534 0.0039235651 0.69789553
-0.003923534 0.0026156902 0.69789559
-0.003923534 0.0013078451 0.69789559
-0.003923534 -0 0.69789559
-0.003923534 -0.0013078451 0.69789559
-0.003923534 -0.0026156604 0.69789553
-0.003923534 -0.0039235353 0.69789559
-0.003923534 -0.0052314103 0.69789559
-0.003923534 -0.0065392256 0.69789553
-0.003923534 -0.0078470707 0.69789553
-0.003923534 -0.0091548562 0.69789559
-0.003923534 -0.010462731 0.69789559
-0.003923534 -0.011770606 0.69789565
-0.003923534 -0.013078421 0.69789559
-0.003923534 -0.014386237 0.69789553
-0.003923534 -0.015694112 0.69789559
-0.003923534 -0.017001957 0.69789559
-0.003923534 -0.018309832 0.69789565
-0.003923534 -0.019617677 0.69789559
-0.003923534 -0.020925462 0.69789553
-0.003923534 -0.022233337 0.69789553
-0.003923534 -0.023541212 0.69789565
-0.003923534 -0.024849057 0.69789565
-0.003923534 -0.026156902 0.69789559
-0.003923534 -0.027464747 0.69789559
-0.003923534 -0.028772533 0.69789559
-0.003923534 -0.030080408 0.69789559
-0.003923534 -0.031388283 0.69789559
-0.003923534 -0.032696098 0.69789559
-0.003923534 -0.034003943 0.69789553
-0.003923534 -0.035311759 0.69789559
-0.003923534 -0.036619633 0.69789559
-0.003923534 -0.037927479 0.69789553
-0.003923534 -0.039235324 0.69789565
-0.003923534 -0.040543169 0.69789559
-0.003923534 -0.041851014 0.69789559
-0.003923534 -0.043158859 0.69789559
-0.003923534 -0.044466704 0.69789553
-0.003923534 -0.045774579 0.69789559
-0.0039239181 -0.047087044 0.69791108
-0.0040083537 -0.049436331 0.70130843
-0.0040177777 -0.050891846 0.70168769
-0.0040198541 -0.052258074 0.70177114
-0.0040216683 -0.053622216 0.70184416
-0.0040235003 -0.054987818 0.70191789
-0.0040404052 -0.056565672 0.70259809
-0.0026921215 0.06595698 0.70250869
-0.0026861695 0.064468116 0.70214945
-0.0026861383 0.063124269 0.70214754
-0.0026861383 0.061781168 0.7021476
-0.0026861383 0.060438126 0.70214754
-0.0026861278 0.059094816 0.70214689
-0.0026861278 0.057751805 0.70214689
-0.0026861278 0.056408703 0.70214695
-0.0026861278 0.055065632 0.70214689
-0.0026861278 0.05372259 0.70214689
-0.0026861278 0.052379489 0.70214695
-0.0026861278 0.051036447 0.70214695
-0.0026861175 0.049693167 0.70214629
-0.0026861175 0.048350126 0.70214629
-0.0026861175 0.047007084 0.70214629
-0.0026861175 0.045664042 0.70214629
-0.0026861175 0.044320971 0.70214629
-0.0026861278 0.042978078 0.70214689
-0.0026861278 0.041635007 0.70214689
-0.0026861278 0.040291935 0.70214695
-0.0026861278 0.038948864 0.70214695
-0.0026861278 0.037605792 0.70214695
-0.0026861383 0.03626287 0.70214754
-0.0026861383 0.034919828 0.70214754
-0.0026884973 0.033606231 0.70228994
-0.0027511544 0.03301385 0.70607162
-0.002754251 0.031673908 0.70625854
-0.0027540654 0.030294746 0.70624733
-0.0027538908 0.028915882 0.70623678
-0.0027537055 0.027537078 0.70622557
-0.0027535199 0.026158452 0.70621437
-0.0027533453 0.024780124 0.70620382
-0.00275316 0.023401886 0.70619267
-0.0027529746 0.022023797 0.70618147
-0.0027528 0.020646036 0.70617092
-0.0027526147 0.019268304 0.70615977
-0.0027524403 0.0178909 0.70614916
-0.0027522549 0.016513526 0.70613801
-0.0027520696 0.015136391 0.70612687
-0.0027518843 0.013759434 0.7061156
-0.0027517101 0.012382686 0.70610517
-0.0027515248 0.011006117 0.70609397
-0.0027513397 0.0096296966 0.70608282
-0.0027511653 0.0082535148 0.70607233
-0.0027501856 0.0068754852 0.70601314
-0.0026095016 0.0052189827 0.6975221
-0.0026095016 0.0039142668 0.6975221
-0.0026095016 0.002609551 0.69752204
-0.0026095016 0.0013047755 0.6975221
-0.0026095016 -0 0.6975221
-0.0026095016 -0.0013047755 0.69752216
-0.0026095016 -0.0026094913 0.6975221
-0.0026095016 -0.003914237 0.6975221
-0.0026095016 -0.0052189827 0.6975221
-0.0026095016 -0.0065237582 0.69752216
-0.0026095016 -0.0078285038 0.6975221
-0.0026095016 -0.0091332495 0.69752216
-0.0026095016 -0.010438025 0.6975221
-0.0026095016 -0.011742771 0.6975221
-0.0026095016 -0.013047487 0.6975221
-0.0026095016 -0.014352232 0.69752204
-0.0026095016 -0.015657008 0.6975221
-0.0026095016 -0.016961753 0.6975221
-0.0026095016 -0.018266529 0.69752216
-0.0026095016 -0.019571245 0.6975221
-0.0026095016 -0.02087602 0.6975221
-0.0026095016 -0.022180736 0.6975221
-0.0026095016 -0.023485512 0.69752216
-0.0026095016 -0.024790227 0.6975221
-0.0026095016 -0.026095003 0.69752204
-0.0026095016 -0.027399778 0.69752216
-0.0026095016 -0.028704494 0.69752216
-0.0026095016 -0.03000924 0.6975221
-0.0026095016 -0.031313956 0.69752204
-0.0026095016 -0.032618731 0.6975221
-0.0026095016 -0.033923507 0.6975221
-0.0026095016 -0.035228223 0.6975221
-0.0026095016 -0.036532998 0.6975221
-0.0026095016 -0.037837744 0.69752216
-0.0026095016 -0.039142489 0.6975221
-0.0026095016 -0.040447235 0.69752204
-0.0026095016 -0.041751981 0.6975221
-0.0026095016 -0.043056756 0.69752216
-0.0026095016 -0.044361532 0.69752216
-0.0026095016 -0.045666248 0.69752216
-0.0026095016 -0.046970993 0.6975221
-0.0026689824 -0.04937616 0.70111203
-0.0026751161 -0.050827146 0.7014823
-0.0026765997 -0.052193642 0.70157182
-0.0026777959 -0.053555906 0.701644
-0.0026789936 -0.054919362 0.70171624
-0.002688518 -0.056458861 0.70229119
-0.001345102 0.065910012 0.70239294
-0.0013423066 0.064430743 0.70205545
-0.0013423066 0.063088387 0.70205551
-0.0013423066 0.06174612 0.70205545
-0.0013423066 0.060403824 0.70205551
-0.0013423066 0.059061527 0.70205545
-0.0013423066 0.057719171 0.70205545
-0.0013423066 0.056376874 0.70205545
-0.0013423066 0.055034578 0.70205545
-0.0013423066 0.053692251 0.70205551
-0.0013423066 0.052349985 0.70205545
-0.0013423014 0.05100745 0.70205492
-0.0013423014 0.049665153 0.70205486
-0.0013423014 0.048322886 0.7020548
-0.0013423014 0.04698056 0.70205486
-0.0013423014 0.045638293 0.70205486
-0.0013423014 0.044295967 0.70205486
-0.0013423014 0.04295367 0.70205486
-0.0013423066 0.041611522 0.70205551
-0.0013423066 0.040269226 0.70205545
-0.0013423066 0.038926929 0.70205545
-0.0013423066 0.037584603 0.70205545
-0.0013423066 0.036242306 0.70205551
-0.0013423117 0.034900129 0.70205611
-0.0013436144 0.033590376 0.70221341
-0.0013737554 0.03297013 0.70585167
-0.001374837 0.031621248 0.70598227
-0.0013747283 0.030244052 0.7059691
-0.0013746249 0.028867126 0.7059567
-0.0013745215 0.027490437 0.70594424
-0.0013744183 0.026113957 0.70593166
-0.001374315 0.024737686 0.70591927
-0.0013742063 0.023361504 0.70590615
-0.001374103 0.02198565 0.70589364
-0.0013739998 0.020610005 0.70588118
-0.0013738966 0.019234568 0.70586872
-0.0013737933 0.01785934 0.70585626
-0.0013736902 0.01648429 0.70584387
-0.0013735816 0.01510942 0.70583069
-0.0013734784 0.013734818 0.7058183
-0.0013733753 0.012360394 0.70580584
-0.0013732722 0.010986179 0.70579338
-0.001373169 0.0096122026 0.70578086
-0.0013730659 0.008238405 0.70576841
-0.0013719437 0.0068597198 0.70563304
-0.0013016715 0.0052067041 0.69715047
-0.0013016715 0.0039050281 0.69715041
-0.0013016715 0.0026033521 0.69715035
-0.0013016715 0.0013017058 0.69715041
-0.0013016715 2.9802322e-08 0.69715041
-0.0013016715 -0.001301676 0.69715041
-0.0013016715 -0.0026033223 0.69715041
-0.0013016715 -0.0039049983 0.69715047
-0.0013016715 -0.0052066743 0.69715041
-0.0013016715 -0.0065083504 0.69715035
-0.0013016715 -0.0078100264 0.69715041
-0.0013016715 -0.0091116726 0.69715041
-0.0013016715 -0.010413349 0.69715041
-0.0013016715 -0.011715025 0.69715041
-0.0013016715 -0.013016701 0.69715047
-0.0013016715 -0.014318377 0.69715041
-0.0013016715 -0.015620053 0.69715035
-0.0013016715 -0.016921729 0.69715041
-0.0013016715 -0.018223375 0.69715035
-0.0013016715 -0.019525051 0.69715041
-0.0013016715 -0.020826727 0.69715047
-0.0013016715 -0.022128373 0.69715047
-0.0013016715 -0.023430079 0.69715041
-0.0013016715 -0.024731755 0.69715047
-0.0013016715 -0.026033431 0.69715041
-0.0013016715 -0.027335078 0.69715035
-0.0013016715 -0.028636754 0.69715041
-0.0013016715 -0.02993843 0.69715047
-0.0013016715 -0.031240106 0.69715041
-0.0013016715 -0.032541782 0.69715041
-0.0013016715 -0.033843428 0.69715047
-0.0013016715 -0.035145104 0.69715041
-0.0013016715 -0.03644678 0.69715035
-0.0013016715 -0.037748486 0.69715041
-0.0013016715 -0.039050102 0.69715041
-0.0013016715 -0.040351808 0.69715041
-0.0013016715 -0.041653484 0.69715035
-0.0013016715 -0.04295516 0.69715041
-0.0013016715 -0.044256777 0.69715041
-0.0013016715 -0.045558482 0.69715035
-0.0013016715 -0.046860188 0.69715047
-0.0013337946 -0.049350381 0.70102799
-0.0013367964 -0.050798267 0.70139039
-0.001337558 -0.052164733 0.7014823
-0.0013381504 -0.053525984 0.70155376
-0.0013387433 -0.054888487 0.70162535
-0.0013430639 -0.056408644 0.70214695
0 0.065923512 0.70242631
0 0.064437687 0.70207304
0 0.063095242 0.70207304
0 0.061752766 0.70207304
0 0.060410351 0.70207298
0 0.059067935 0.70207304
0 0.05772543 0.70207304
0 0.056382984 0.70207304
0 0.055040717 0.70207363
0 0.053698272 0.70207363
0 0.052355856 0.70207363
0 0.05101341 0.70207363
0 0.049670935 0.70207363
0 0.048328459 0.70207363
0 0.046986014 0.70207363
0 0.045643568 0.70207363
0 0.044301063 0.70207363
0 0.042958617 0.70207363
0 0.041616172 0.70207369
0 0.040273726 0.70207363
0 0.038931251 0.70207363
0 0.037588805 0.70207363
0 0.036246359 0.70207363
0 0.034903914 0.70207363
0 0.033593237 0.70222712
0 0.032897949 0.70548862
0 0.031546652 0.70559049
0 0.030172765 0.70557809
0 0.028798997 0.70556498
0 0.027425557 0.70555264
0 0.026052326 0.70554018
0 0.024679303 0.70552778
0 0.023306489 0.70551538
0 0.021933854 0.70550299
0 0.020561367 0.70548993
0 0.019189209 0.70547754
0 0.017817199 0.7054652
0 0.016445398 0.70545268
0 0.015073836 0.70544034
0 0.013702482 0.70542794
0 0.012331247 0.70541489
0 0.010960311 0.70540255
0 0.0095895231 0.70539021
0 0.0082189441 0.70537776
0 0.0068431497 0.7052331
0 0.0051944554 0.69678044
0 0.003895849 0.69678044
0 0.0025972724 0.69678044
0 0.0012986362 0.69678044
0 2.9802322e-08 0.69678038
0 -0.0012986064 0.69678044
0 -0.0025972128 0.69678044
0 -0.0038957894 0.69678044
0 -0.0051943958 0.69678044
0 -0.0064930022 0.69678044
0 -0.0077916384 0.69678044
0 -0.0090902448 0.6967805
0 -0.010388851 0.6967805
0 -0.011687458 0.69678044
0 -0.012986064 0.6967805
0 -0.01428467 0.69678044
0 -0.015583247 0.69678044
0 -0.016881883 0.69678044
0 -0.01818046 0.69678044
0 -0.019479066 0.69678044
0 -0.020777702 0.69678044
0 -0.022076309 0.69678044
0 -0.023374856 0.69677991
0 -0.024673432 0.69677991
0 -0.025972039 0.69677985
0 -0.027270615 0.69677991
0 -0.028569221 0.69677985
0 -0.029867828 0.69677985
0 -0.031166434 0.69677985
0 -0.032465041 0.69677985
0 -0.033763617 0.69677991
0 -0.035062253 0.69677985
0 -0.03636083 0.69677985
0 -0.037659436 0.69677991
0 -0.038958013 0.69677985
0 -0.040256649 0.69677985
0 -0.041555256 0.69677985
0 -0.042853832 0.69677985
0 -0.044152439 0.69677985
0 -0.045451015 0.69677985
0 -0.046749651 0.69677985
0 -0.048261642 0.69747597
0 -0.050804138 0.70140898
0 -0.052170575 0.70150036
0 -0.053532004 0.70157188
0 -0.054894358 0.70164281
0 -0.056417376 0.70217204
0.0013466711 0.065986902 0.70258236
0.0013435573 0.064490795 0.70220649
0.0013435157 0.06314525 0.70220149
0.0013435106 0.061801493 0.70220083
0.0013435106 0.060458004 0.70220083
0.0013435106 0.059114486 0.70220083
0.0013435106 0.057770997 0.70220077
0.0013435106 0.056427449 0.70220083
0.0013435106 0.05508393 0.70220083
0.0013435106 0.053740412 0.70220083
0.0013435106 0.052396953 0.70220083
0.0013435157 0.051053584 0.70220149
0.0013435157 0.049710125 0.70220149
0.0013435157 0.048366606 0.70220149
0.0013435157 0.047023058 0.70220143
0.0013435157 0.045679539 0.70220143
0.0013435157 0.044336021 0.70220149
0.0013435157 0.042992502 0.70220149
0.0013435157 0.041649014 0.70220143
0.0013435157 0.040305495 0.70220149
0.0013435157 0.038962007 0.70220143
0.0013435157 0.037618458 0.70220149
0.0013435157 0.03627494 0.70220149
0.0013435209 0.03493154 0.70220208
0.0013446388 0.033616006 0.70233703
0.0013672524 0.032814085 0.70506674
0.0013683616 0.031472355 0.70520061
0.0013682592 0.030101717 0.70518827
0.0013681515 0.028731197 0.70517528
0.0013680492 0.027361006 0.70516288
0.0013679469 0.025991023 0.70515054
0.0013678445 0.024621248 0.70513821
0.0013677422 0.023251623 0.70512581
0.0013676399 0.021882236 0.70511347
0.0013675377 0.020513088 0.70510119
0.00136743 0.019144058 0.70508814
0.0013673278 0.017775267 0.70507586
0.0013672255 0.016406745 0.70506346
0.0013671233 0.015038371 0.70505112
0.0013670211 0.013670236 0.70503885
0.001366919 0.012302279 0.70502645
0.0013668168 0.010934561 0.70501411
0.0013667092 0.0095669627 0.70500124
0.0013666071 0.0081996322 0.70498884
0.0013653667 0.0068268478 0.70483911
0.0013022959 0.0052091777 0.69722581
0.0013022959 0.0039069057 0.69722581
0.0013022959 0.0026046038 0.69722581
0.0013022959 0.0013023019 0.69722581
0.0013022959 2.9802322e-08 0.69722575
0.0013022959 -0.0013022721 0.69722581
0.0013022959 -0.002604574 0.69722581
0.0013022959 -0.003906846 0.69722581
0.0013022959 -0.0052092075 0.69722581
0.0013022959 -0.0065114796 0.69722581
0.0013022959 -0.0078137815 0.69722581
0.0013022959 -0.0091160536 0.69722581
0.0013022959 -0.010418385 0.69722581
0.0013022959 -0.011720657 0.69722575
0.0013022959 -0.013022929 0.69722581
0.0013022959 -0.014325231 0.69722575
0.0013022959 -0.015627533 0.69722581
0.0013022959 -0.016929835 0.69722569
0.0013022959 -0.018232107 0.69722581
0.0013022959 -0.019534439 0.69722575
0.0013022959 -0.020836681 0.69722575
0.0013022959 -0.022139013 0.69722575
0.0013022959 -0.023441315 0.69722581
0.0013022959 -0.024743587 0.69722575
0.0013022959 -0.026045918 0.69722581
0.0013022959 -0.02734822 0.69722581
0.0013022959 -0.028650492 0.69722581
0.0013022959 -0.029952794 0.69722581
0.0013022959 -0.031255096 0.69722581
0.0013022959 -0.032557338 0.69722575
0.0013022959 -0.03385967 0.69722581
0.0013022959 -0.035162002 0.69722581
0.0013022959 -0.036464274 0.69722581
0.0013022959 -0.037766576 0.69722581
0.0013022959 -0.039068878 0.69722581
0.0013022959 -0.04037115 0.69722575
0.0013022959 -0.041673452 0.69722575
0.0013022959 -0.042975754 0.69722581
0.0013022911 -0.044277877 0.69722521
0.0013022911 -0.045580178 0.69722515
0.0013022911 -0.04688248 0.69722521
0.0013349834 -0.049394399 0.70117152
0.0013380164 -0.05084461 0.70153767
0.0013387381 -0.052210778 0.70162469
0.0013393367 -0.053573489 0.70169699
0.0013399358 -0.054937363 0.70176935
0.0013448938 -0.056485534 0.70236778
0.0026983202 0.066108882 0.70288277
0.0026913085 0.064591438 0.70245957
0.0026910063 0.06323868 0.70244133
0.0026909958 0.061892956 0.70244074
0.0026909958 0.060547411 0.70244074
0.0026909958 0.059201926 0.70244074
0.0026909958 0.057856441 0.70244074
0.0026909958 0.056510925 0.70244074
0.0026909958 0.05516544 0.70244074
0.0026909958 0.053819895 0.70244074
0.0026910063 0.052474648 0.70244133
0.0026910063 0.051129133 0.70244133
0.0026910063 0.049783647 0.70244133
0.0026910063 0.048438132 0.70244133
0.0026910165 0.047092795 0.70244199
0.0026910165 0.04574731 0.70244193
0.0026910165 0.044401795 0.70244199
0.002691027 0.043056428 0.70244265
0.002691027 0.041710943 0.70244265
0.002691027 0.040365458 0.70244265
0.002691027 0.039019912 0.70244265
0.0026910375 0.037674546 0.70244324
0.0026910375 0.036329031 0.70244324
0.0026910375 0.034983486 0.70244324
0.0026927684 0.033659637 0.70254767
0.0027290175 0.032748222 0.70473552
0.0027302934 0.031398386 0.70481253
0.0027300897 0.030030996 0.70480025
0.002729886 0.028663814 0.70478797
0.0027296715 0.027296752 0.70477504
0.0027294678 0.025929958 0.7047627
0.0027292641 0.024563402 0.70475042
0.0027290604 0.023197055 0.70473814
0.0027288569 0.021830887 0.70472586
0.0027286534 0.020464897 0.70471358
0.0027284496 0.019099176 0.7047013
0.0027282354 0.017733574 0.70468837
0.0027280319 0.01636821 0.70467603
0.0027278285 0.015003085 0.70466375
0.0027276252 0.013638139 0.70465147
0.0027274217 0.012273401 0.7046392
0.0027272184 0.010908902 0.70462692
0.0027270149 0.0095445812 0.70461464
0.0027268117 0.0081804395 0.70460236
0.0027249833 0.0068125129 0.70449209
0.0026240649 0.0052481592 0.69840103
0.0026241441 0.0039362311 0.69840586
0.0026242235 0.0026242435 0.69841063
0.0026243026 0.0013121665 0.69841546
0.0027406195 -0 0.70543581
0.0027404141 -0.0013701618 0.70542336
0.0027402088 -0.0027401745 0.70541096
0.0027400034 -0.0041099787 0.70539856
0.0027396039 -0.0054791868 0.70537448
0.0026242037 -0.0065605044 0.69840944
0.0026242333 -0.0078726709 0.69841123
0.0026242533 -0.0091848671 0.69841248
0.0026242828 -0.010497123 0.69841421
0.0027393014 -0.012326837 0.70535624
0.0027394095 -0.013697028 0.7053628
0.0027394095 -0.015066743 0.7053628
0.0027394095 -0.016436458 0.7053628
0.0027394095 -0.017806172 0.70536268
0.0027383517 -0.019168437 0.7052989
0.0027226666 -0.020419955 0.7043522
0.0026242731 -0.020994186 0.69841367
0.0026242828 -0.022306353 0.69841421
0.0026242731 -0.02361846 0.69841367
0.0027394095 -0.026024371 0.70536274
0.0027394095 -0.027394116 0.70536274
0.0027394095 -0.028763771 0.7053628
0.0027394095 -0.030133486 0.7053628
0.0027394095 -0.031503201 0.70536268
0.0027394095 -0.032872885 0.70536274
0.0027265337 -0.034081668 0.70458561
0.002687312 -0.034935027 0.70221841
0.0026744674 -0.036105275 0.70144308
0.0026744674 -0.037442535 0.70144314
0.0026744674 -0.038779765 0.70144314
0.0026743955 -0.040115893 0.70143878
0.0026741999 -0.041450053 0.70142698
0.0026740043 -0.042784065 0.70141518
0.0026738602 -0.044118702 0.70140648
0.0026655223 -0.045313865 0.7009033
0.0026242037 -0.045923561 0.69840944
0.0026246693 -0.047244042 0.69843751
0.0026738499 -0.049466223 0.70140588
0.0026800679 -0.050921291 0.70178121
0.002681402 -0.05228734 0.70186174
0.002682613 -0.053652257 0.70193481
0.0026838251 -0.055018425 0.70200789
0.0026960592 -0.05661723 0.70274627
0.0040600765 0.066314578 0.70338964
0.0040465067 0.064744115 0.70284355
0.0040454702 0.063379019 0.70280194
0.0040454702 0.062030554 0.70280194
0.0040454702 0.060682058 0.70280188
0.0040454543 0.059333324 0.70280129
0.0040454702 0.057985067 0.70280188
0.0040454702 0.056636602 0.70280188
0.0040454702 0.055288106 0.70280188
0.004045486 0.053939819 0.70280254
0.004045486 0.052591324 0.70280254
0.004045486 0.051242828 0.70280254
0.0040455014 0.049894542 0.70280313
0.0040455014 0.048546046 0.70280313
0.0040455014 0.047197491 0.70280313
0.0040455172 0.045849204 0.70280379
0.0040455172 0.044500709 0.70280385
0.0040455172 0.043152183 0.70280385
0.004045533 0.041803837 0.70280445
0.004045533 0.040455341 0.70280445
0.004045533 0.039106846 0.70280439
0.0040455488 0.03775847 0.70280504
0.0040455488 0.036409944 0.70280504
0.0040455488 0.035061419 0.70280504
0.0040470879 0.033725739 0.70286697
0.0040854085 0.032683283 0.70440888
0.0040858407 0.031324774 0.70442629
0.0040855366 0.029960632 0.70441401
0.004085232 0.028596669 0.70440179
0.0040849121 0.027232766 0.70438892
0.0040846081 0.025869191 0.7043767
0.004084304 0.024505824 0.70436448
0.0040839999 0.023142695 0.7043522
0.0040836958 0.021779686 0.70434004
0.0040833917 0.020416975 0.70432782
0.0040830881 0.019054443 0.70431548
0.0040827841 0.017692089 0.70430332
0.0040824804 0.016329944 0.70429105
0.0040821605 0.014967918 0.70427823
0.0040818569 0.013606191 0.70426601
0.0040815533 0.012244672 0.70425379
0.0040812497 0.010883361 0.70424157
0.0040809461 0.0095221996 0.70422935
0.0040806425 0.0081613064 0.70421714
0.0040786625 0.0067977607 0.70413744
0.003944871 0.0052598417 0.69875407
0.0039448561 0.0039449036 0.69875348
0.0039448263 0.0026298761 0.69875234
0.0041001276 0.0013667345 0.70500118
0.0041013216 2.9802322e-08 0.70504916
0.0041009989 -0.0013669729 0.70503616
0.0041006925 -0.002733767 0.70502388
0.0041003856 -0.0041004121 0.70501155
0.0040998538 -0.005466491 0.70499015
0.0039456324 -0.0065760314 0.69878477
0.0039451844 -0.0078903437 0.69876671
0.0039448561 -0.0092046261 0.69875354
0.0039504324 -0.010534465 0.69897789
0.0040992247 -0.01229769 0.70496488
0.004099499 -0.013664961 0.70497584
0.004099499 -0.015031487 0.70497584
0.004099499 -0.016397983 0.70497584
0.004099499 -0.017764479 0.70497584
0.0040980647 -0.019124269 0.70491815
0.0040758718 -0.020379335 0.70402515
0.003944796 -0.02103889 0.69875103
0.0039447215 -0.022353411 0.69874811
0.0039460654 -0.023676366 0.69880217
0.004099499 -0.025963485 0.70497584
0.004099499 -0.027329981 0.70497584
0.004099499 -0.028696477 0.70497584
0.004099499 -0.030062944 0.70497584
0.004099499 -0.03142947 0.7049759
0.004099499 -0.032795995 0.70497584
0.0040907953 -0.034089953 0.70462573
0.0040363688 -0.034981817 0.70243567
0.0040194355 -0.036174893 0.70175433
0.0040193116 -0.037513554 0.70174944
0.0040191719 -0.038851976 0.70174372
0.0040192185 -0.040192127 0.70174563
0.0040192804 -0.041532576 0.70174813
0.0040193424 -0.042872965 0.70175058
0.0040193889 -0.044213295 0.70175248
0.0040054736 -0.045395344 0.70119256
0.003944796 -0.046022594 0.69875109
0.0039461404 -0.047353655 0.69880521
0.0040194201 -0.049572825 0.70175374
0.0040290207 -0.051034242 0.70214003
0.0040308749 -0.052401364 0.7022146
0.004032746 -0.053769946 0.70228994
0.0040346035 -0.055139571 0.70236468
0.005439111 0.066629112 0.70416445
0.0054125497 0.064950585 0.70336288
0.0054102107 0.063569993 0.70329237
0.0054101897 0.062217176 0.70329171
0.0054101897 0.060864657 0.70329165
0.0054101897 0.059512109 0.70329165
0.0054101897 0.05815956 0.70329165
0.0054101897 0.056807011 0.70329165
0.0054101897 0.055454463 0.70329171
0.0054101897 0.054101884 0.70329165
0.0054101897 0.052749336 0.70329171
0.0054101897 0.051396817 0.70329171
0.0054101897 0.050044328 0.70329165
0.0054101897 0.04869175 0.70329165
0.0054101897 0.047339201 0.70329165
0.0054102107 0.045986801 0.70329231
0.0054102107 0.044634223 0.70329237
0.0054102107 0.043281674 0.70329237
0.0054102107 0.041929185 0.70329231
0.0054102107 0.040576637 0.70329231
0.0054102107 0.039224058 0.70329231
0.0054102107 0.03787151 0.70329231
0.0054102107 0.036518961 0.70329231
0.0054102107 0.035166413 0.70329231
0.0054102107 0.033813864 0.70329231
0.0054350058 0.032610059 0.70404065
0.0054350696 0.031251669 0.70404249
0.0054346444 0.029890567 0.70402962
0.0054342411 0.028529793 0.70401752
0.0054338374 0.027169198 0.7040053
0.0054334123 0.025808722 0.70399249
0.005433009 0.024448574 0.70398033
0.0054326053 0.023088604 0.70396817
0.005432202 0.021728814 0.70395601
0.0054317988 0.020369262 0.70394385
0.0054313955 0.019009918 0.70393163
0.0054309922 0.017650783 0.70391941
0.005430589 0.016291797 0.70390725
0.0054301857 0.01493302 0.70389509
0.0054297829 0.013574451 0.70388293
0.0054293587 0.012216091 0.70387012
0.0054289554 0.01085794 0.70385802
0.0054285526 0.0094999969 0.70384586
0.0054281284 0.0081422031 0.70383304
0.0054253107 0.0067816377 0.70374799
0.0052765212 0.005276531 0.69925791
0.0052765412 0.0039574206 0.69925845
0.0052786656 0.0026393533 0.69932258
0.0054540941 0.0013635457 0.70461661
0.0054556569 -0 0.70466375
0.0054552504 -0.0013637841 0.70465147
0.005454822 -0.0027273893 0.7046386
0.0054544155 -0.004090786 0.70462632
0.0054537733 -0.0054537654 0.70460689
0.0054341774 -0.0067927241 0.70401555
0.0052773426 -0.0079160035 0.69928265
0.0052767619 -0.0092343092 0.69926512
0.0054282136 -0.01085642 0.70383561
0.0054527461 -0.012268662 0.70457596
0.0054532383 -0.013633043 0.7045908
0.0054532383 -0.01499638 0.7045908
0.0054532383 -0.016359687 0.7045908
0.0054532383 -0.017723024 0.7045908
0.0054515484 -0.01908043 0.70453984
0.0054237014 -0.020338863 0.70369941
0.0052771424 -0.021108598 0.69927657
0.0052766013 -0.022425532 0.69926029
0.0054379618 -0.024470806 0.70412976
0.0054532383 -0.025902897 0.7045908
0.0054532383 -0.027266175 0.70459074
0.0054532383 -0.028629482 0.7045908
0.0054532383 -0.029992789 0.7045908
0.0054532383 -0.031356096 0.7045908
0.0054532383 -0.032719433 0.7045908
0.0054493258 -0.034058273 0.70447272
0.0053927666 -0.035052955 0.70276588
0.0053749983 -0.036281228 0.70222968
0.0053748321 -0.037623823 0.70222467
0.0053746449 -0.038966179 0.70221901
0.0053745615 -0.040309191 0.70221651
0.0053744786 -0.041652203 0.702214
0.0053744162 -0.042995334 0.7022121
0.0053743538 -0.044338405 0.70221019
0.0053492025 -0.045468181 0.70145118
0.0052765612 -0.046169877 0.69925904
0.0052810726 -0.047529668 0.69939524
0.0053744162 -0.049713343 0.7022121
0.0053878748 -0.051184803 0.70261824
0.0053904662 -0.052556992 0.70269644
0.005393039 -0.053930372 0.70277411
0.0053960118 -0.055309087 0.70286381
0.0068535488 0.067164809 0.70548403
0.0067946343 0.065228462 0.70406175
0.0067899339 0.063825399 0.70394826
0.0067899339 0.062467396 0.70394826
0.0067899073 0.061109185 0.70394766
0.0067899073 0.059751183 0.70394766
0.0067899073 0.05839321 0.70394766
0.0067899073 0.057035238 0.7039476
0.0067899073 0.055677295 0.70394766
0.0067899073 0.054319263 0.70394766
0.0067899073 0.05296132 0.70394766
0.0067899073 0.051603347 0.70394754
0.0067899073 0.050245345 0.7039476
0.0067899073 0.048887342 0.7039476
0.0067899073 0.04752937 0.70394766
0.0067899073 0.046171367 0.7039476
0.0067899073 0.044813395 0.70394766
0.0067899073 0.043455392 0.70394766
0.0067899073 0.042097479 0.7039476
0.0067899073 0.040739447 0.7039476
0.0067899073 0.039381504 0.70394766
0.0067899073 0.038023472 0.70394766
0.0067899339 0.036665678 0.70394826
0.0067900401 0.035308242 0.70395082
0.0067901462 0.033950746 0.70395339
0.0067902789 0.032593369 0.7039566
0.0067902259 0.031235069 0.70395529
0.0067900401 0.029876202 0.70395082
0.0067899339 0.028517723 0.70394832
0.0067899604 0.02715984 0.70394897
0.006789987 0.025801986 0.70394957
0.0067900401 0.024444163 0.70395082
0.0067900666 0.02308622 0.70395148
0.0067900931 0.021728337 0.70395207
0.0067901462 0.020370454 0.70395339
0.0067901728 0.019012481 0.70395398
0.0067901993 0.017654538 0.7039547
0.0067902524 0.016296625 0.70395595
0.0067902789 0.014938623 0.7039566
0.006790332 0.01358068 0.70395786
0.0067903586 0.012222648 0.70395851
0.0067903851 0.010864645 0.70395917
0.0067904382 0.009506613 0.70396042
0.0067904647 0.008148551 0.70396107
0.0067868838 0.0067868829 0.70387459
0.0066279853 0.0053023994 0.70003849
0.0066277073 0.0039766431 0.70003176
0.0067577134 0.0027031004 0.70317042
0.0068017635 0.0013603568 0.70423388
0.0068036811 2.9802322e-08 0.70428014
0.006803175 -0.001360625 0.70426798
0.0068026688 -0.0027210414 0.7042557
0.0068021631 -0.0040813088 0.70424348
0.0068014171 -0.0054410994 0.70422548
0.0067774584 -0.0067774355 0.70364708
0.0066275806 -0.0079530776 0.70002872
0.0066275303 -0.009278506 0.70002747
0.0067677689 -0.010828435 0.70341319
0.0067999 -0.012239814 0.70418882
0.0068006986 -0.013601393 0.70420814
0.0068006986 -0.014961511 0.7042082
0.0068006986 -0.016321689 0.70420814
0.0068006986 -0.017681777 0.70420814
0.0067988355 -0.01903671 0.70416313
0.0067661614 -0.020298481 0.70337433
0.006627935 -0.021209389 0.70003724
0.0066277832 -0.02253446 0.70003366
0.0067794421 -0.024406016 0.70369494
0.006800672 -0.025842518 0.70420754
0.006800672 -0.027202666 0.70420754
0.006800672 -0.028562814 0.70420754
0.006800672 -0.029922962 0.70420748
0.006800672 -0.031283051 0.70420748
0.006800672 -0.032643199 0.70420748
0.0068000597 -0.034000278 0.70419276
0.0067595798 -0.035149813 0.70321542
0.0067437585 -0.036416262 0.70283353
0.0067437585 -0.037765056 0.70283353
0.0067436276 -0.039113015 0.70283031
0.0067431037 -0.040458649 0.70281768
0.0067425808 -0.041803986 0.70280504
0.0067423973 -0.043151319 0.70280063
0.0067421095 -0.044497907 0.70279366
0.0066964766 -0.045536041 0.70169204
0.0066274544 -0.046392173 0.70002568
0.0066417442 -0.047820538 0.70037067
0.0067425543 -0.049894869 0.70280445
0.0067605795 -0.051380366 0.70323956
0.0067639747 -0.052758992 0.70332158
0.0067673475 -0.05413878 0.70340294
0.0067728874 -0.055537641 0.70353675
0.0082034823 0.065627873 0.70506608
0.0081895608 0.064151585 0.704786
0.0081895608 0.062786669 0.704786
0.0081895934 0.061421961 0.70478666
0.0081895934 0.060057074 0.70478666
0.0081896251 0.058692366 0.70478731
0.0081896251 0.05732739 0.70478731
0.0081896251 0.055962443 0.70478731
0.0081896577 0.054597706 0.70478797
0.0081896577 0.053232759 0.70478797
0.0081896894 0.051868051 0.70478857
0.0081896894 0.050503075 0.70478863
0.0081897546 0.049138546 0.70478988
0.0081898831 0.047774345 0.7047925
0.0081900116 0.046410084 0.70479512
0.0081901401 0.045045823 0.70479763
0.0081902687 0.043681443 0.70480025
0.0081904298 0.042317241 0.70480347
0.0081905583 0.040952832 0.70480609
0.0081906868 0.039588332 0.70480871
0.0081908163 0.038223833 0.70481122
0.0081909448 0.036859274 0.70481384
0.0081910733 0.035494655 0.70481646
0.0081912018 0.034130037 0.70481902
0.0081913304 0.032765359 0.70482159
0.0081914598 0.031400591 0.70482421
0.0081915883 0.030035853 0.70482677
0.0081917169 0.028671026 0.70482934
0.0081918454 0.027306169 0.70483196
0.0081916209 0.02594012 0.70482743
0.0081913956 0.02457422 0.7048229
0.0081912018 0.023208439 0.70481896
0.0081909765 0.021842629 0.70481449
0.008190752 0.020476878 0.70480996
0.0081905266 0.019111246 0.70480549
0.0081903012 0.017745644 0.70480096
0.0081901085 0.016380221 0.70479703
0.0081898831 0.015014768 0.7047925
0.0081896577 0.013649464 0.70478797
0.0081895934 0.012284398 0.70478672
0.0081895934 0.010919452 0.70478666
0.0081895934 0.0095545352 0.70478666
0.008189722 0.008189708 0.70478922
0.0081859594 0.0068216324 0.70471358
0.0080093462 0.0053395927 0.70116037
0.0080088545 0.0040044487 0.70115042
0.0080909086 0.002696991 0.70280129
0.0081431465 0.0013571978 0.70385224
0.0081454692 -0 0.70389897
0.0081448648 -0.0013574362 0.70388675
0.0081442287 -0.0027147233 0.70387399
0.0081436243 -0.0040718317 0.70386183
0.0081428289 -0.0054285526 0.70384586
0.0081147486 -0.0067622662 0.70328087
0.0080087315 -0.0080087185 0.70114791
0.0080085155 -0.0093432665 0.70114362
0.0081004659 -0.01080063 0.70299357
0.0081406981 -0.012211025 0.703803
0.0081418743 -0.013569742 0.70382661
0.0081418743 -0.014926732 0.70382667
0.0081418743 -0.016283721 0.70382661
0.0081418743 -0.01764071 0.70382667
0.0081399353 -0.018993199 0.70378762
0.008103299 -0.020258188 0.70305055
0.0080087623 -0.021356702 0.70114863
0.0080087623 -0.022691488 0.70114863
0.0081138322 -0.024341494 0.70326245
0.0081418427 -0.025782496 0.70382601
0.0081418427 -0.027139425 0.70382601
0.0081418427 -0.028496444 0.70382601
0.0081418427 -0.029853404 0.70382601
0.0081418743 -0.031210542 0.70382667
0.0081418743 -0.032567501 0.70382661
0.0081418427 -0.033924311 0.70382601
0.0081346957 -0.035250336 0.70368218
0.0081271809 -0.036572278 0.70353097
0.0081271809 -0.037926823 0.70353103
0.0081271809 -0.039281368 0.70353097
0.0081272125 -0.040636063 0.70353162
0.0081272125 -0.041990548 0.70353162
0.0081272125 -0.043345124 0.70353168
0.008117971 -0.044648826 0.70334578
0.0080402037 -0.045561165 0.70178121
0.0080090081 -0.046719164 0.70115358
0.0080606584 -0.048363954 0.70219266
0.0081316186 -0.05014497 0.70362031
0.0081523173 -0.051631302 0.70403671
0.0081568146 -0.053019285 0.70412719
0.0081613492 -0.054408967 0.70421839
0.0081737321 -0.055853844 0.70446759
0.0096519282 0.06618464 0.70646632
0.0096168192 0.064570099 0.70586091
0.0096157929 0.063189507 0.70584315
0.0096157547 0.06181559 0.70584249
0.0096157175 0.060441673 0.70584184
0.0096156793 0.059067786 0.70584118
0.0096156411 0.057693869 0.70584053
0.0096156029 0.056319982 0.70583987
0.0096155647 0.054946125 0.70583922
0.0096155265 0.053572208 0.70583856
0.0096154893 0.05219841 0.70583791
0.0096154511 0.050824523 0.70583725
0.0096154129 0.049450725 0.70583665
0.0096153747 0.048076898 0.70583594
0.0096153747 0.046703279 0.705836
0.0096153365 0.045329452 0.70583528
0.0096152993 0.043955654 0.70583469
0.0096152611 0.042581886 0.70583403
0.0096152611 0.041208327 0.70583397
0.0096152229 0.039834529 0.70583338
0.0096151847 0.038460732 0.70583272
0.0096151847 0.037087172 0.70583266
0.0096151847 0.035713524 0.70583272
0.0096151847 0.034339964 0.70583266
0.0096151847 0.032966346 0.70583272
0.0096151466 0.031592637 0.705832
0.0096151466 0.030219048 0.70583206
0.0096151466 0.028845459 0.705832
0.0096151466 0.02747187 0.705832
0.0096320147 0.026144058 0.70612293
0.0098070111 0.02521807 0.70914054
0.009859886 0.023945451 0.71005237
0.0099133337 0.022659063 0.71097404
0.0099673225 0.021358579 0.71190512
0.010017776 0.020035535 0.71277511
0.0099841794 0.018542081 0.71219575
0.0099209351 0.017007321 0.71110517
0.0098585272 0.015491992 0.71002895
0.0097968597 0.013995528 0.70896554
0.0097359205 0.012517631 0.70791471
0.0096152229 0.010988802 0.70583332
0.0096156029 0.0096156299 0.70583987
0.0096161729 0.0082424581 0.70584977
0.0096128667 0.0068663657 0.70579267
0.0094347065 0.0053912699 0.7027204
0.0094348537 0.0040435195 0.70272303
0.0094504692 0.0027001202 0.70299226
0.0094799353 0.0013542771 0.70350039
0.0094810072 2.9802322e-08 0.70351887
0.009480305 -0.0013543367 0.70350677
0.0094796028 -0.0027084351 0.70349467
0.0094789015 -0.0040623844 0.70348263
0.0094781993 -0.0054160953 0.70347047
0.0094599519 -0.0067570508 0.70315582
0.009432585 -0.008085072 0.70268381
0.0094325114 -0.0094324946 0.70268261
0.0094531132 -0.01080355 0.7030378
0.0094767595 -0.012184381 0.70344561
0.009476833 -0.013538331 0.70344692
0.0094767958 -0.014892071 0.70344627
0.0094767958 -0.016245931 0.70344627
0.009476833 -0.017599821 0.70344692
0.0094763897 -0.018952757 0.7034393
0.0094540324 -0.020258635 0.70305365
0.009432585 -0.021560162 0.70268387
0.009432585 -0.022907704 0.70268381
0.0094582597 -0.024321258 0.70312661
