# .PCD v0.7 - Point Cloud Data file format
VERSION 0.7
FIELDS x y z
SIZE 4 4 4
TYPE F F F
COUNT 1 1 1
WIDTH 183
HEIGHT 1
VIEWPOINT 0 0 0 1 0 0 0
POINTS 183
DATA ascii
0.0091433059 -0.05143109 0.67798662
0.0011409468 -0.050201654 0.67774916
0.010286151 -0.050287843 0.67798567
0.0045713219 -0.047998875 0.67797661
0 -0.050330549 0.67810285
0.012699701 -0.048489749 0.67938745
0.008064907 -0.046085179 0.67909914
0 -0.045300901 0.68023765
0.0058144177 -0.043026686 0.68039721
0.0093376003 -0.043186396 0.68091828
-0.0046834941 -0.049176663 0.68136168
-0.0046834941 -0.049176663 0.68136168
0.011691362 -0.044427186 0.68115193
-0.0058956505 -0.049523443 0.68235838
-0.003535063 -0.044777453 0.68226469
-0.0084002893 -0.051601768 0.68488264
0.019156797 -0.050286591 0.68455172
0.017936505 -0.047830671 0.68436658
-0.0023914105 -0.038262546 0.68435913
0.011986628 -0.038357168 0.68471611
-0.0060510519 -0.03993696 0.68611002
-0.0036484213 -0.034051925 0.68682587
0.0024299845 -0.030374795 0.68668729
0.018337866 -0.044010878 0.68759656
0.0085480474 -0.030528724 0.68743056
-0.0098200664 -0.04910031 0.68819809
-0.0073798057 -0.03689903 0.68849498
-0.001228828 -0.028263062 0.68835741
0 -0.027077019 0.68859226
0.0061549144 -0.027081609 0.68861747
0.0061549144 -0.027081609 0.68861747
0.0099699665 -0.026171118 0.69045991
-0.0025073932 -0.022566497 0.69135928
0.005036192 -0.020144761 0.69200528
-0.010177112 -0.031803459 0.69358552
0.011428121 -0.022856206 0.69330215
0 -0.017743498 0.6930126
-0.0089722807 -0.024353296 0.6947462
-0.0089722807 -0.024353296 0.6947462
0.014109499 -0.024370939 0.69485819
-0.0064065028 -0.019219488 0.69469142
0.0012763399 -0.015316069 0.69409263
0.0064126747 -0.015390426 0.69484043
0.0051625911 -0.012906492 0.69581974
0.003897364 -0.010392934 0.69684255
-0.0052671833 -0.0079007745 0.6989761
-0.0079414034 -0.0092649162 0.69979346
-0.0026406667 0.009242326 0.69940311
0.0092844926 -0.015916288 0.70013011
0.013400804 -0.018761128 0.70178676
-0.008025039 -0.0053499937 0.70147604
-0.0013342503 -0.0040027201 0.701083
-0.0013342503 -0.0040027201 0.701083
0.020052949 0.0026737452 0.70139843
0.0053720274 -0.063121349 0.70214009
0.0053720274 -0.063121349 0.70214009
0.0067143855 -0.063115239 0.70212436
-0.0013461912 -0.0094233155 0.70252436
-0.012204139 0.01220414 0.70371026
0.016316438 0.0040791333 0.70415545
-0.0013650985 0.0177463 0.70480669
0.0095682824 0.0041006804 0.70502388
0.0095682824 0.0041006804 0.70502388
-0.0041177818 0.02196151 0.70571154
0.012391773 -0.0096380115 0.70622689
-0.011097094 -0.0041614175 0.70746702
-0.0055655437 0.026436329 0.70797992
-0.0041717854 0.026421338 0.70788449
0.011135502 -0.0069596469 0.7080465
-0.015403192 -0.011202306 0.70905471
-0.015456699 -0.0014051795 0.70964193
0.0084439022 0.018295169 0.709903
0.0042429855 0.015557617 0.71074933
-0.011304046 0.022608101 0.71058965
-0.019833457 0.014166743 0.71103263
-0.0085342219 0.03129214 0.71172011
-0.021490913 0.012894541 0.71297032
-0.01144224 0.025745064 0.7126748
0.010129543 0.02749449 0.71470249
-0.014454884 0.034691751 0.71451062
-0.0057931598 0.040552139 0.71484882
-0.013051256 0.033353209 0.71507204
-0.018969296 0.020428479 0.71616298
-0.013132646 0.035020411 0.71616375
-0.019268362 0.026679277 0.71893996
-0.016251039 0.041366309 0.7183587
0.007476157 0.038876027 0.72051513
-0.0029955029 0.043434799 0.72081935
-0.016453421 0.046368718 0.72057962
-0.012167517 0.044107258 0.72361839
0.0060942424 0.045706838 0.72393477
-0.015182615 0.050102651 0.72329509
0.0045894771 0.039775491 0.72469103
0.012318604 0.03849563 0.72589815
0.0046121795 0.043047041 0.72560447
0.0091975415 0.044454813 0.72506499
0 0.052108139 0.72502506
-0.021777887 0.043555796 0.72779787
-0.021868937 0.045299947 0.72858292
0.0086806342 -0.045136839 0.67972988
0.0087632397 -0.042643979 0.68105817
0.013076218 -0.041606128 0.68351924
-0.0084103951 -0.05106239 0.68505692
0.0084450301 -0.033780068 0.6856541
-0.0085595828 -0.043408483 0.68762946
-0.0048793033 -0.034764066 0.68727076
0.011021954 -0.031841159 0.68785447
0.00081504334 -0.028929412 0.68758196
0.011243936 -0.026859045 0.69083178
0.0033214465 -0.022837043 0.69039577
0.00083639973 -0.020902067 0.69141763
-0.0063425829 -0.022833288 0.69314826
-0.010247439 -0.028820023 0.69464672
0.012860144 -0.021862239 0.69526041
0.023001 -0.0070290715 0.69427288
0.024523037 -0 0.69582438
0.0032600197 -0.0091270357 0.69741523
0.023485161 0.0026094913 0.69751972
-0.0033026184 0.0092464983 0.69947493
0.015095892 -0.019535393 0.70081377
0.0026663761 -0.012663975 0.70095479
-0.0053292252 -0.0039969087 0.70084834
-0.0033234351 -0.0033214912 0.70046431
-0.011977118 0.0053232014 0.70066541
0.012854245 -0.014885455 0.70337343
-0.0013512482 0.0027025342 0.70313483
0.0040695863 0.0027130544 0.70377231
0.0013621955 -0.0047673881 0.70445633
-0.0047604349 0.002720654 0.70422983
-0.0047604349 0.002720654 0.70422983
0.0013621445 0.0095350444 0.70445013
0.0013709747 0.010967821 0.7055161
0 0.015097171 0.70569646
-0.012344764 0.016459703 0.70559639
-0.015199192 0.00068953633 0.70681608
-0.017950337 0.0048345327 0.70670152
0.011003921 0.0096284449 0.70606112
0.012510001 0.012510031 0.70781255
0.011191958 -0.0048952848 0.70889837
-0.0070181116 0.0091255903 0.70945698
0.0072008115 0.014401615 0.71386772
0.0072008115 0.014401615 0.71386772
-0.019990843 0.017135024 0.71238959
-0.014396491 0.03311196 0.71380574
-0.010122839 0.026030213 0.71458691
0.014664558 0.020530373 0.71704167
0.011700734 0.026326656 0.71657515
0.0073444601 0.032315642 0.7173357
0.014857562 0.025257856 0.71937144
-0.0029736487 0.041631103 0.71950036
-0.0029736487 0.041631103 0.71950036
-0.010524044 0.04059273 0.7215054
0.0090390295 0.04067564 0.72187603
0.0046592019 0.037273616 0.72749656
0.00077464664 0.049480855 0.72667676
0.0062480993 0.03592661 0.72857779
0.0046769287 0.04832828 0.72820985
-0.0070438604 0.056351349 0.72897494
-0.0070438604 0.056351349 0.72897494
0.0019241706 -0.045819938 0.67946959
0.016972318 -0.050122716 0.68211377
-0.0098200664 -0.04910031 0.68819809
-0.0093539273 -0.038024798 0.69052309
-0.0093539273 -0.038024798 0.69052309
0.013336395 -0.03039724 0.69042295
-0.0050329277 -0.02390638 0.69190675
0.017543968 -0.033319738 0.69401145
-0.0023591216 -0.014140452 0.69523382
0.02460029 -0.0023503006 0.69495893
0.023428682 -0.0091111362 0.69714099
-0.0080964016 -0.0020228922 0.70291173
0.0027931964 0.011172771 0.70860904
0.010291605 0.01465432 0.7084803
-0.0013977184 0.023064762 0.70874429
-0.015689295 0.014262974 0.71219432
0.0087582609 0.01313743 0.71622729
0.014593606 0.018971682 0.71618515
0.0062570646 0.027230531 0.71773893
-0.013132646 0.035020411 0.71616375
-0.0062190359 0.043543793 0.71670806
0.0060168002 0.022047799 0.72148579
0.0072823809 0.041694976 0.7219243
0.00079202501 0.055264726 0.73062587
