# .PCD v0.7 - Point Cloud Data file format
VERSION 0.7
FIELDS x y z
SIZE 4 4 4
TYPE F F F
COUNT 1 1 1
WIDTH 1340
HEIGHT 1
VIEWPOINT 0 0 0 1 0 0 0
POINTS 1340
DATA ascii
-0.0035328583 -0.01059857 0.68217599
-0.0035088959 -0.011696279 0.68121183
-0.0034862356 -0.012782812 0.6803
-0.0034643954 -0.013857573 0.67942131
-0.0034439077 -0.014923573 0.67859691
-0.0034244256 -0.015980631 0.67781299
-0.0034056855 -0.017028391 0.67705894
-0.0033886803 -0.018072963 0.67637473
-0.0033722802 -0.019109577 0.67571485
-0.0033578326 -0.020146966 0.67513353
-0.0033440553 -0.021178991 0.67457914
-0.0033330317 -0.022220194 0.67413557
-0.0033234146 -0.023263872 0.67374867
-0.0033146224 -0.024307221 0.67339486
-0.0033080901 -0.025362045 0.67313206
-0.0033057192 -0.026445746 0.67303663
-0.0033081742 -0.027568072 0.6731354
-0.003317534 -0.02875194 0.67351204
-0.0033421896 -0.030079693 0.67450404
-0.0034941891 0.041930318 0.75091779
-0.0034813236 0.040035218 0.7501412
-0.0034866333 0.038352996 0.75046164
-0.0034134041 0.03584078 0.74604189
-0.003350764 0.033507645 0.74226129
-0.0031421441 0.029850423 0.72966993
-0.003114864 0.028033793 0.72802347
-0.0031240496 0.026554465 0.72857779
-0.0031113636 0.024890929 0.72781217
-0.002858266 0.021437019 0.71253639
-0.002766917 0.01936844 0.70702296
-0.002727272 0.017727286 0.70463014
-0.0026985088 0.016191065 0.70289421
-0.0027110362 0.014910728 0.70365024
-0.0027248871 0.013624489 0.70448619
-0.0027388805 0.012324989 0.70533079
-0.0027527781 0.011011124 0.70616961
-0.0027672804 0.0096854866 0.70704496
-0.0027817248 0.0083451867 0.70791668
-0.0026520744 0.0066302121 0.70009166
-0.0026224707 0.0052449703 0.69830483
-0.0025950021 0.0038925409 0.69664699
-0.0025799731 0.0025800169 0.69573992
-0.0025412263 0.0012706518 0.69340134
-0.0025163454 -0 0.6918996
-0.0024925454 -0.0012462437 0.69046319
-0.0024695951 -0.0024695694 0.68907797
-0.0024475807 -0.0036713779 0.68774933
-0.0024262432 -0.0048525035 0.68646151
-0.0025149612 -0.006287396 0.69181609
-0.0025174939 -0.0075524449 0.69196892
-0.0023673458 -0.0082857311 0.68290675
-0.00234922 -0.0093968511 0.6818127
-0.0023318308 -0.010493219 0.68076319
-0.0023151212 -0.011575609 0.67975467
-0.0022991286 -0.012645185 0.6787895
-0.0022837156 -0.013702273 0.67785919
-0.0022689893 -0.014748424 0.67697036
-0.0022550516 -0.015785336 0.67612916
-0.0022415225 -0.016811401 0.67531264
-0.0022291054 -0.017832816 0.67456317
-0.0022168537 -0.018843263 0.67382371
-0.0022055823 -0.019850224 0.67314345
-0.0021950211 -0.020852685 0.67250603
-0.0021850071 -0.021850049 0.67190158
-0.002176201 -0.022850066 0.67137009
-0.0021679322 -0.023847222 0.67087102
-0.0021611028 -0.024852663 0.67045885
-0.0021550711 -0.025860816 0.67009485
-0.0021501505 -0.026876867 0.66979778
-0.0021467297 -0.027907461 0.66959131
-0.0021453181 -0.028961807 0.66950619
-0.0021476122 -0.03006655 0.66964459
-0.0021545168 -0.031240493 0.67006135
-0.0021716447 -0.032574713 0.67109513
-0.0017439116 0.041853905 0.75053346
-0.0017167703 0.039485753 0.74725729
-0.001718477 0.037806511 0.74746323
-0.0017123963 0.035960346 0.74672931
-0.0016867518 0.033735096 0.74363375
-0.0015718041 0.029864281 0.72975826
-0.0015615054 0.028107136 0.72851509
-0.0015692202 0.026676774 0.72944635
-0.001575153 0.025202423 0.73016262
-0.0014773671 0.0221605 0.71835876
-0.0014577442 0.020408452 0.71599007
-0.0013679684 0.017783612 0.70515311
-0.0013520896 0.0162251 0.7032364
-0.0013589747 0.014948726 0.70406747
-0.0013659357 0.013659388 0.70490777
-0.0013728056 0.012355268 0.70573699
-0.0013731093 0.010984898 0.70577371
-0.0013538122 0.0094766915 0.70344436
-0.0013372492 0.0080235302 0.70144498
-0.0013214481 0.0066072345 0.69953763
-0.0013122108 0.0052488744 0.69842261
-0.001308761 0.0039263368 0.69800615
-0.001305334 0.0026107132 0.69759256
-0.0012641506 0.0012641549 0.69262123
-0.0012510605 -0 0.69104111
-0.0012393913 -0.0012393594 0.68963248
-0.0012294715 -0.00245893 0.68843508
-0.001215464 -0.0036463737 0.68674427
-0.0012045508 -0.0048181713 0.68542689
-0.0011940125 -0.005970031 0.68415487
-0.0011838544 -0.0071031451 0.68292868
-0.0011740504 -0.008218348 0.68174517
-0.0011646727 -0.0093173683 0.68061316
-0.0011556318 -0.010400653 0.67952186
-0.0011469196 -0.011469185 0.67847019
-0.0011385876 -0.012524426 0.67746443
-0.0011305045 -0.013566047 0.67648876
-0.0011228147 -0.014596581 0.67556047
-0.0011154114 -0.015615761 0.67466688
-0.0011082536 -0.016623795 0.67380285
-0.0011015396 -0.017624617 0.67299235
-0.001094972 -0.018614501 0.67219955
-0.0010888473 -0.019599199 0.67146027
-0.0010830269 -0.02057749 0.67075765
-0.0010773151 -0.021546274 0.6700682
-0.0010722221 -0.022516638 0.66945338
-0.0010672295 -0.023479044 0.66885078
-0.0010627804 -0.024443924 0.66831374
-0.0010586164 -0.025406778 0.66781104
-0.0010549524 -0.026373804 0.66736877
-0.0010517146 -0.027344584 0.66697794
-0.0010489556 -0.028321803 0.66664487
-0.0010468382 -0.029311448 0.66638929
-0.0010455844 -0.030321956 0.66623795
-0.001045053 -0.031351596 0.66617382
-0.0010463654 -0.032437295 0.66633224
-0.0010501127 -0.033603609 0.66678458
-0.0010599728 -0.034979105 0.66797483
0 0.039358139 0.74658775
0 0.03707689 0.74345994
0 0.034886479 0.7405566
0 0.033730447 0.74360603
0 0.029987872 0.73054338
0 0.028176248 0.72897875
0 0.026742935 0.72991633
0 0.025295198 0.73086244
0 0.022116572 0.71800536
0 0.020549238 0.71720386
0 0.019093603 0.71731699
0 0.016908169 0.71010756
0 0.014987946 0.70449787
0 0.013694406 0.70533079
0 0.012381047 0.70608276
0 0.010960877 0.70541167
0 0.0094603002 0.70316148
0 0.0080164373 0.70130217
0 0.0066582263 0.70076883
0 0.0053124428 0.70034057
0 0.0039737225 0.69991404
0 0.0026421249 0.69949037
0 0.0013175011 0.69905746
0 -0 0.69030154
0 -0.0012397766 0.68967581
0 -0.0024916232 0.69040871
0 -0.0037266612 0.68997425
0 -0.0048018694 0.6849336
0 -0.0059307218 0.68320525
0 -0.0070545077 0.68195045
0 -0.0081595182 0.68073112
0 -0.0092477202 0.67956227
0 -0.010318995 0.6784268
0 -0.011375606 0.6773411
0 -0.012418061 0.67629677
0 -0.013446242 0.67528385
0 -0.014462769 0.67431808
0 -0.015466541 0.67338043
0 -0.016459256 0.6724788
0 -0.01744324 0.67162395
0 -0.018415391 0.67078578
0 -0.019380957 0.6699965
0 -0.020338565 0.66923976
0 -0.021286279 0.66849881
0 -0.022233516 0.66782582
0 -0.023171097 0.66716111
0 -0.024105668 0.66653836
0 -0.025039226 0.66596246
0 -0.025965691 0.66539818
0 -0.02690047 0.66491622
0 -0.027828485 0.66443944
0 -0.028768629 0.66404915
0 -0.029707044 0.66367841
0 -0.030661672 0.66339797
0 -0.031621516 0.66315567
0 -0.03261447 0.66305351
0 -0.033667445 0.66317695
0 -0.034786969 0.66352946
0 -0.036006749 0.66420776
0 -0.037442863 0.66557348
0.0017793744 0.039146274 0.75481427
0.0016545523 0.034745604 0.73974687
0.00162988 0.032597601 0.73676872
0.0016760365 0.031844735 0.74234027
0.0015676839 0.028218299 0.72926092
0.0015768971 0.026807249 0.73037314
0.0015848881 0.0253582 0.73133767
0.0014729832 0.022094756 0.71782959
0.0014730769 0.020623058 0.71784091
0.0014799281 0.019239098 0.71866786
0.001482808 0.017793685 0.71901554
0.001389433 0.015283793 0.70774412
0.0013730226 0.013730258 0.70576322
0.0013786937 0.012408286 0.70644778
0.0013701692 0.010961384 0.70541883
0.00135087 0.0094560981 0.70308924
0.0013427733 0.0080566406 0.70211184
0.0013469739 0.006734848 0.7026189
0.0013443734 0.0053775311 0.70230496
0.0013407527 0.0040222704 0.70186788
0.0013353785 0.0026707351 0.70121926
0.001323159 0.0013231933 0.69974416
0.0012402406 -0 0.68973505
0.0012307126 -0.0012306869 0.68858492
0.0012464023 -0.0024927855 0.6904788
0.0012541582 -0.0037624538 0.69141507
0.0012513443 -0.0050053596 0.69107538
0.0011793663 -0.0058968067 0.68238682
0.0011685896 -0.007011503 0.681086
0.0011582398 -0.0081076622 0.67983669
0.0011482955 -0.0091863573 0.67863631
0.0011386025 -0.010247409 0.67746621
0.0011293618 -0.01129362 0.67635083
0.0011203457 -0.012323767 0.67526245
0.0011117001 -0.013340384 0.67421883
0.0011034285 -0.014344573 0.67322034
0.001095331 -0.015334636 0.67224288
0.0010876238 -0.016314358 0.67131257
0.0010801919 -0.017283022 0.67041546
0.0010729406 -0.018239975 0.66954011
0.0010661097 -0.019189954 0.6687156
0.001059446 -0.020129472 0.66791123
0.0010529959 -0.02105993 0.66713262
0.001046996 -0.021986872 0.66640836
0.0010410671 -0.022903472 0.66569269
0.0010355136 -0.023816794 0.66502231
0.001030251 -0.024726003 0.66438711
0.0010250327 -0.025625795 0.66375709
0.001020421 -0.026530921 0.6632005
0.0010158983 -0.027429223 0.66265452
0.0010117157 -0.028328031 0.66214967
0.0010079388 -0.029230237 0.66169369
0.0010047647 -0.030142903 0.66131055
0.0010033489 -0.03110379 0.66113961
0.0010042072 -0.032134622 0.66124326
0.0010060359 -0.033199191 0.6614641
0.001009702 -0.034329861 0.66190654
0.001014599 -0.035510957 0.6624977
0.0010209697 -0.036754876 0.66326672
0.0010292561 -0.03808248 0.66426694
0.0010416195 -0.039581537 0.66575938
0.0035638956 0.039202869 0.75512493
0.0035093108 0.0368478 0.75183034
0.0032497908 0.032497913 0.73616695
0.0032034265 0.030432552 0.73336869
0.0031495206 0.028345704 0.73011518
0.003150563 0.026779801 0.730178
0.0031758165 0.025406539 0.73170233
0.0029511331 0.022133529 0.71814138
0.0029515342 0.020660758 0.71816564
0.0029684282 0.019294798 0.71918523
0.0029832353 0.017899424 0.72007895
0.002778755 0.015283167 0.70773745
0.0027535744 0.013767868 0.70621771
0.0027642206 0.012439013 0.70686024
0.0027452097 0.010980844 0.70571285
0.0027041265 0.0094644725 0.70323318
0.0026714653 0.0080144107 0.701262
0.002699211 0.0067480505 0.70293653
0.0027136721 0.0054273605 0.70380932
0.0027081415 0.0040622652 0.70347553
0.002675971 0.0026760101 0.70153391
0.0026430772 0.0013215542 0.6995486
0.0024725033 -0 0.68925357
0.0024470377 -0.0012234747 0.68771654
0.0024660807 -0.0024660528 0.6888659
0.0025025716 -0.0037538707 0.69106829
0.0023701962 -0.0047403872 0.68307877
0.0023471492 -0.0058678389 0.68168771
0.0023249346 -0.0069747567 0.68034697
0.0023036406 -0.0080627203 0.67906171
0.0022830104 -0.0091320276 0.67781663
0.0022632256 -0.010184497 0.67662251
0.0022441791 -0.011220872 0.67547297
0.0022255648 -0.012240589 0.67434949
0.0022079088 -0.01324743 0.67328382
0.0021906828 -0.01423943 0.67224419
0.0021739816 -0.01521787 0.67123616
0.0021581298 -0.016185969 0.67027938
0.0021425732 -0.017140567 0.66934049
0.0021276432 -0.018084943 0.66843939
0.0021134082 -0.019020647 0.66758025
0.0020993878 -0.019944131 0.66673398
0.0020861158 -0.020861149 0.66593295
0.0020733566 -0.021770209 0.66516292
0.0020607649 -0.022668391 0.6644029
0.0020490983 -0.023564637 0.66369879
0.0020377422 -0.024452895 0.66301334
0.0020265765 -0.025332212 0.66233945
0.0020164917 -0.026214361 0.66173077
0.0020065124 -0.027087897 0.66112846
0.0019970501 -0.027958691 0.66055739
0.0019911907 -0.028872252 0.6602037
0.0019889453 -0.029834181 0.66006827
0.0019894862 -0.030836999 0.66010088
0.0019931782 -0.03189081 0.66032374
0.0019983593 -0.032972902 0.66063643
0.0020067673 -0.034115016 0.6611439
0.002016831 -0.035294533 0.66175127
0.0020286294 -0.036515325 0.66246337
0.0020428759 -0.037793189 0.66332328
0.0020606611 -0.039152563 0.66439664
0.0020838012 -0.040634125 0.6657933
0.0052538845 0.036777169 0.75142479
0.0051761665 0.034507781 0.74829769
0.0047979075 0.030386776 0.73307765
0.0047217128 0.028330296 0.73001182
0.0046542096 0.026373893 0.7272957
0.0047374419 0.025266379 0.7306447
0.0044506458 0.022253245 0.71910489
0.0044234684 0.020642877 0.71801144
0.0044570016 0.019313693 0.71936071
0.0044851727 0.0179407 0.72049415
0.0041602142 0.01525417 0.70741886
0.004140188 0.013800651 0.70661306
0.0041580237 0.01247412 0.7073307
0.0041319663 0.011018574 0.70628226
0.0040653651 0.0094858706 0.70360243
0.0040037809 0.0080075562 0.70112443
0.0039454233 0.0065757334 0.6987763
0.003908338 0.0052111447 0.6972841
0.004054518 0.0040545166 0.70316601
0.004015178 0.0026768148 0.70158303
0.0039649624 0.0013216734 0.69956249
0.0037001583 2.9802322e-08 0.68890762
0.003657921 -0.0012192726 0.68720812
0.0036572407 -0.0024381578 0.68718076
0.0037139875 -0.0037139654 0.68946409
0.0035418372 -0.0047224462 0.68253732
0.0035062167 -0.0058436692 0.68110406
0.0034718607 -0.0069437027 0.67972165
0.0034388972 -0.0080240667 0.67839527
0.0034070548 -0.0090854466 0.67711407
0.003376595 -0.01012975 0.67588842
0.0033469649 -0.011156529 0.67469627
0.0033185373 -0.012167931 0.67355239
0.0032912116 -0.013164818 0.67245287
0.0032644754 -0.01414606 0.67137712
0.0032389949 -0.015115321 0.67035186
0.0032142759 -0.016071349 0.66935724
0.0031900974 -0.017013848 0.66838437
0.0031672614 -0.017947793 0.66746551
0.0031449206 -0.018869519 0.66656661
0.0031231267 -0.019779801 0.66568971
0.0031026481 -0.020684302 0.66486567
0.0030824912 -0.021577448 0.66405463
0.0030629453 -0.022461593 0.66326815
0.003044606 -0.023341924 0.66253024
0.0030264936 -0.024211943 0.66180146
0.0030091342 -0.025076091 0.66110295
0.0029927972 -0.025937527 0.66044557
0.0029775123 -0.026797593 0.65983057
0.0029674512 -0.027696192 0.65942574
0.002963739 -0.028649479 0.65927643
0.0029646915 -0.029646903 0.65931475
0.0029681101 -0.030670464 0.65945232
0.0029765686 -0.031750023 0.65979266
0.0029867517 -0.032854259 0.66020238
0.0030015009 -0.034016967 0.66079581
0.0030179766 -0.035209715 0.66145879
0.003036367 -0.036436409 0.66219872
0.0030571155 -0.037704408 0.6630336
0.0030808512 -0.039024115 0.66398865
0.0031081063 -0.040405363 0.66508526
0.0031465914 -0.041954547 0.66663378
0.0067798533 0.03220433 0.74462491
0.0066684429 0.030007988 0.74126285
0.0061881784 0.026299775 0.72676957
0.006103931 0.024415702 0.72422719
0.0060022087 0.022508293 0.72115743
0.0058876397 0.020606726 0.71770006
0.005930827 0.019275218 0.71900332
0.0059810542 0.017943203 0.72051901
0.0055484804 0.015258342 0.70746493
0.0055345832 0.013836473 0.70704556
0.0055634496 0.01251778 0.70791674
0.0055833855 0.011166781 0.70851833
0.0054455893 0.009529829 0.70435995
0.0053543132 0.0080314875 0.70160544
0.005272238 0.0065903068 0.69912863
0.0051949508 0.005194962 0.69679624
0.0051224255 0.0038418472 0.69460762
0.0053034807 0.0026517808 0.70007145
0.0052764011 0.0013191104 0.69925427
0.0049269865 2.9802322e-08 0.68870974
0.0048686001 -0.0012171268 0.68694776
0.0048127812 -0.0024063885 0.68526328
0.0047591724 -0.0035693645 0.68364549
0.0047080368 -0.0047080219 0.68210232
0.0046589407 -0.005823642 0.68062079
0.0046119592 -0.0069178939 0.67920291
0.0045666657 -0.0079916418 0.67783606
0.0045230188 -0.0090460181 0.67651892
0.0044810507 -0.010082364 0.67525244
0.0044404357 -0.011101097 0.67402673
0.0044016647 -0.012104571 0.67285675
0.004363799 -0.013091356 0.67171401
0.0043274676 -0.014064252 0.67061764
0.0042925975 -0.015024096 0.66956538
0.0042584026 -0.015969008 0.66853344
0.0042256983 -0.016902775 0.66754651
0.0041941386 -0.017825097 0.66659409
0.0041630585 -0.01873371 0.66565615
0.0041337265 -0.019635171 0.66477096
0.0041051689 -0.020525843 0.6639092
0.0040770387 -0.021404415 0.66306031
0.0040506725 -0.022278696 0.66226459
0.0040248898 -0.023143083 0.66148657
0.003999433 -0.023996592 0.66071832
0.003975831 -0.024848908 0.66000605
0.0039540352 -0.025701225 0.65934837
0.0039391867 -0.026589483 0.65890026
0.0039323657 -0.027526557 0.65869439
0.0039323438 -0.028509468 0.65869373
0.0039368323 -0.029526234 0.65882921
0.0039456612 -0.030578852 0.65909559
0.0039608637 -0.031686902 0.65955442
0.0039785965 -0.032823414 0.66008955
0.0040025082 -0.034021288 0.66081113
0.004027619 -0.035241693 0.66156894
0.0040541347 -0.036487192 0.66236907
0.0040819477 -0.037757993 0.66320843
0.0041114711 -0.039058983 0.66409934
0.0041427333 -0.040391654 0.66504282
0.0041802246 -0.041802227 0.66617417
0.0042411592 -0.043471843 0.66801304
0.0083233332 0.02996403 0.74096775
0.0082117617 0.027920038 0.73827422
0.0076071629 0.024342954 0.72367787
0.0075037973 0.022511393 0.72118247
0.007398128 0.02071479 0.71863133
0.0073466343 0.019101262 0.71738815
0.0074478253 0.017874807 0.71983117
0.0069562336 0.015303731 0.70796311
0.0069362377 0.013872474 0.70748031
0.0069724815 0.012550473 0.70835537
0.0070091342 0.011214614 0.70924026
0.0070412052 0.0098577142 0.71001446
0.0070122457 0.0084147155 0.70931542
0.0066121691 0.0066121817 0.69965661
0.0065098451 0.0052078962 0.69718635
0.0064154929 0.0038492978 0.69490844
0.0063239057 0.0025295615 0.69269735
0.0062370007 0.0012474358 0.69059926
0.0061565284 5.9604645e-08 0.68865651
0.006080234 -0.001216054 0.68681455
0.0060074269 -0.0024029315 0.68505687
0.0059384736 -0.0035630763 0.68339217
0.0058720177 -0.0046975911 0.68178785
0.0058084694 -0.0058084428 0.68025362
0.0057476312 -0.0068971515 0.67878485
0.0056891725 -0.0079648197 0.67737353
0.005633242 -0.0090131462 0.67602324
0.0055790991 -0.01004234 0.67471611
0.0055270419 -0.011054099 0.67345935
0.0054769311 -0.012049258 0.67224956
0.0054282974 -0.013027877 0.67107546
0.0053819697 -0.013993084 0.66995704
0.0053366725 -0.014942646 0.66886342
0.0052929856 -0.015878916 0.66780871
0.0052512619 -0.016804039 0.66680145
0.0052101905 -0.017714649 0.66580987
0.0051708184 -0.018614948 0.66485935
0.0051330077 -0.019505411 0.66394651
0.0050957454 -0.020382971 0.66304696
0.0050601549 -0.021252632 0.6621877
0.0050259307 -0.022114098 0.66136146
0.0049921516 -0.022963881 0.66054595
0.0049599847 -0.023807883 0.65976936
0.0049303132 -0.024651557 0.65905303
0.0049089435 -0.025526494 0.65853715
0.0048976513 -0.026447296 0.65826452
0.0048957192 -0.027415991 0.65821785
0.0049003037 -0.02842176 0.65832853
0.0049102339 -0.029461384 0.65856826
0.0049275025 -0.03055048 0.65898514
0.0049530277 -0.031699359 0.65960139
0.0049828165 -0.032886595 0.66032058
0.0050164256 -0.034111679 0.66113198
0.0050504757 -0.035353303 0.66195405
0.0056165424 -0.040439099 0.67562008
0.0055608843 -0.04115054 0.67427641
0.0051554744 -0.03918159 0.66448891
0.0051914612 -0.040493399 0.66535771
0.0052307243 -0.041845769 0.6663056
0.0052818181 -0.04331091 0.66753912
0.0096951025 0.025853634 0.73507512
0.0095132766 0.023783207 0.73141718
0.0088579124 0.020668507 0.71823221
0.0087416619 0.0189403 0.71589339
0.0086478554 0.017295718 0.71400613
0.0084017748 0.015403241 0.70905542
0.0083451411 0.013908595 0.70791602
0.0083888946 0.012583375 0.70879626
0.0084331091 0.011244148 0.7096858
0.0084777931 0.009890765 0.71058476
0.0085213846 0.008521378 0.71146178
0.0085227089 0.0071022809 0.71148843
0.0080318097 0.0053545535 0.70161229
0.0077201147 0.0038600564 0.69534147
0.0076069892 0.002535671 0.69306558
0.007499666 0.001249969 0.69090641
0.0073941224 -0 0.68878305
0.007296945 -0.0012161136 0.68682796
0.0072056237 -0.0024018288 0.6849907
0.0071190624 -0.0035595 0.68324924
0.0070362184 -0.0046907961 0.68158251
0.0069578113 -0.0057981312 0.68000507
0.0068816994 -0.0068816841 0.67847383
0.0068094358 -0.0079443455 0.67702001
0.006739785 -0.0089863837 0.67561877
0.0066729547 -0.010009408 0.67427421
0.0066089025 -0.011014819 0.67298561
0.0065466845 -0.012002259 0.67173386
0.0064871414 -0.012974262 0.67053598
0.0064295828 -0.013930738 0.66937792
0.0063735824 -0.014871657 0.6682514
0.0063204081 -0.015800983 0.66718155
0.0062683201 -0.016715527 0.66613364
0.0062178625 -0.017617255 0.66511846
0.0061698719 -0.018509626 0.66415298
0.0061225984 -0.019388199 0.66320193
0.0060769115 -0.02025637 0.66228282
0.0060334029 -0.021116942 0.66140747
0.0059904959 -0.021965146 0.66054428
0.0059490092 -0.022804528 0.65970957
0.0059096678 -0.023638636 0.65891808
0.0058797342 -0.02449885 0.6583159
0.005863396 -0.02540803 0.65798718
0.0058578113 -0.026360124 0.65787476
0.0058601825 -0.027347505 0.65792251
0.0058705122 -0.028374135 0.65813035
0.0058895508 -0.029447734 0.65851337
0.0059210304 -0.030591965 0.65914667
0.0059594335 -0.031783611 0.65991926
0.0070612896 -0.038837075 0.68208688
0.0068235882 -0.038667023 0.67730474
0.0067592328 -0.03942883 0.67601001
0.0067344732 -0.040406823 0.6755119
0.006721511 -0.041449279 0.67525113
0.0066653173 -0.042213649 0.67412055
0.0063076722 -0.04099983 0.66692537
0.0062956722 -0.041971147 0.66668391
0.006345165 -0.043358624 0.66767967
0.0064284131 -0.044998914 0.66935444
0.011120033 0.023828655 0.73178291
0.010961819 0.021923661 0.72905457
0.010168631 0.018884599 0.71537656
0.010038738 0.017209291 0.71313655
0.0098994132 0.015556246 0.71073401
0.0097635109 0.013947874 0.70839047
0.0098127881 0.012616456 0.7092402
0.0098646041 0.011273861 0.71013379
0.0099170115 0.009916991 0.71103752
0.0099699376 0.0085457265 0.71195012
0.010021408 0.0071581602 0.71283776
0.010010313 0.0057201982 0.71264642
0.0096701179 0.0041443408 0.70677996
0.0089626266 0.0025607646 0.69457972
0.0087704649 0.0012529492 0.691266
0.0086481618 -0 0.68915701
0.0085274288 -0.0012181997 0.68707502
0.0084110666 -0.0024031401 0.68506837
0.0083052609 -0.0035593808 0.68324387
0.008204353 -0.0046881735 0.68150377
0.0081087053 -0.0057919323 0.67985439
0.0080169002 -0.0068715811 0.67827123
0.0079300962 -0.0079300702 0.67677438
0.0078453543 -0.0089660883 0.67531306
0.0077652796 -0.0099838972 0.67393219
0.007687673 -0.010982394 0.67259395
0.0076132943 -0.011963725 0.67131126
0.0075419308 -0.012929022 0.67008072
0.0074723745 -0.013877243 0.66888124
0.0074060508 -0.014812082 0.66773748
0.0073417579 -0.015732318 0.66662884
0.0072790082 -0.016637713 0.66554677
0.0072195926 -0.017533302 0.66452217
0.0071613286 -0.018414825 0.66351742
0.0071045994 -0.019283921 0.66253924
0.0070508663 -0.020145327 0.66161263
0.0069979606 -0.020993859 0.66070032
0.0069463779 -0.021831453 0.65981078
0.0068976232 -0.022663593 0.65897
0.0068572722 -0.023510605 0.65827417
0.0068321358 -0.024400473 0.65784073
0.0068206787 -0.025333911 0.65764314
0.0068190345 -0.02630201 0.65761483
0.0068279356 -0.027311713 0.65776825
0.0068481402 -0.028370857 0.6581167
0.0068837241 -0.029501647 0.65873033
0.0069295368 -0.030687928 0.65952033
0.0083323186 -0.038090587 0.68371046
0.0082724662 -0.038998753 0.68267834
0.0081930775 -0.039794952 0.68130934
0.008104221 -0.040521085 0.67977703
0.0080172438 -0.041231513 0.67827713
0.0079304324 -0.04191798 0.67678016
0.007842496 -0.042573541 0.67526382
0.0075241528 -0.041920245 0.66977412
0.0074056447 -0.042317957 0.66773051
0.0074235005 -0.043480486 0.66803843
0.0074950089 -0.044970065 0.66927159
0.012497154 0.021870017 0.72859228
0.012343492 0.020058155 0.72627372
0.011470097 0.017205149 0.71309513
0.011294171 0.015529484 0.71044064
0.011189065 0.013986379 0.70885468
0.011244146 0.012649715 0.7096858
0.011303724 0.011303723 0.71058482
0.01136389 0.0099434257 0.71149266
0.011424746 0.0085685849 0.71241087
0.011452612 0.007157892 0.71283138
0.011384415 0.0056922138 0.7118023
0.011281154 0.0042304695 0.71024424
0.011146263 0.0027865469 0.70820892
0.010555929 0.0013194978 0.69930136
0.009910712 2.9802322e-08 0.68956584
0.0097702267 -0.0012212694 0.68744612
0.0096350042 -0.0024087429 0.68540579
0.0095035061 -0.0035637915 0.68342161
0.0093801375 -0.0046900511 0.68156004
0.0092655169 -0.0057909191 0.67983061
0.0091564972 -0.0068673491 0.67818564
0.0090525188 -0.0079209208 0.67661673
0.0089529511 -0.0089529455 0.67511439
0.0088584563 -0.0099657476 0.67368853
0.0087661026 -0.010957628 0.67229497
0.0086790118 -0.011933625 0.67098093
0.0085941935 -0.012891293 0.6697011
0.0085130492 -0.013833702 0.6684767
0.0084350612 -0.014761329 0.66729999
0.0083588157 -0.015672773 0.66614956
0.0082864054 -0.016572773 0.66505694
0.0082159434 -0.017458856 0.66399372
0.0081470031 -0.018330753 0.66295356
0.0080819363 -0.019194603 0.66197181
0.0080180392 -0.020045102 0.66100764
0.007955485 -0.020883143 0.66006374
0.0078965463 -0.021715492 0.65917444
0.007842985 -0.022548556 0.65836626
0.0078060944 -0.023418278 0.65780962
0.007786633 -0.024333209 0.657516
0.0077789631 -0.025281608 0.65740025
0.0077835806 -0.026269555 0.65746993
0.0078029172 -0.027310193 0.65776169
0.0078413924 -0.028425038 0.65834224
0.0096329004 -0.036123335 0.68537402
0.0095190294 -0.036886245 0.6836558
0.0094422037 -0.037768781 0.68249661
0.0093835574 -0.038707167 0.68161172
0.0093452288 -0.039717197 0.68103337
0.0092882095 -0.040635914 0.68017304
0.0092101349 -0.041445583 0.67899501
0.0091134198 -0.042149544 0.67753565
0.0090144435 -0.042818606 0.67604226
0.0089212013 -0.043490887 0.67463535
0.0085866805 -0.042933375 0.66958773
0.008514327 -0.043635875 0.66849601
0.0085837636 -0.045064747 0.66954374
0.013671163 0.018228203 0.72338653
0.013459109 0.016450018 0.72054237
0.012616442 0.014018267 0.70924026
0.012683114 0.012683123 0.71013451
0.012750442 0.011333764 0.71103752
0.012818542 0.0099699795 0.7119509
0.012881217 0.0085875094 0.71279144
0.012841123 0.0071339905 0.71225369
0.012724243 0.0056552291 0.71068609
0.012609574 0.0042032301 0.70914811
0.012496952 0.0027771294 0.70763755
0.012374561 0.0013749897 0.70599604
0.012198854 -0 0.70363945
0.011365614 -0.0012628138 0.69246376
0.010866422 -0.0024147332 0.68576849
0.010717718 -0.0035725534 0.68377399
0.010573062 -0.0046991408 0.68183386
0.010433304 -0.0057962835 0.6799593
0.010303876 -0.0068692267 0.67822343
0.010181232 -0.0079187453 0.67657852
0.010065198 -0.008946836 0.67502213
0.0099536469 -0.009953618 0.67352605
0.0098475488 -0.010941684 0.67210299
0.0097458437 -0.011911571 0.67073894
0.0096468143 -0.012862414 0.66941071
0.0095533933 -0.01379934 0.6681577
0.0094619943 -0.014718652 0.66693187
0.009374829 -0.015624702 0.66576278
0.0092908274 -0.016517013 0.66463614
0.0092084529 -0.017393738 0.6635313
0.0091305375 -0.018261075 0.6624862
0.0090545071 -0.019115031 0.66146648
0.0089798607 -0.019955218 0.66046536
0.0089096576 -0.020789206 0.65952373
0.0088406187 -0.021610379 0.65859777
0.0087874085 -0.022456676 0.65788412
0.0087567 -0.023351192 0.65747225
0.0087419646 -0.02428323 0.6572746
0.0087425504 -0.025256217 0.65728241
0.0087586874 -0.026276052 0.65749884
0.0087950192 -0.027362287 0.65798616
0.0088505019 -0.02851826 0.65873033
0.011011902 -0.036706328 0.68771964
0.01091097 -0.037582219 0.68636596
0.010804513 -0.038416028 0.68493807
0.010523783 -0.038587183 0.68117285
0.010432016 -0.039409846 0.67994213
0.010361642 -0.040295273 0.67899823
0.010317407 -0.04126963 0.67840493
0.010273007 -0.042233467 0.67780936
0.01019494 -0.043045312 0.67676234
0.010091084 -0.043728024 0.67536938
0.0097521348 -0.043342799 0.67082328
0.0096376278 -0.043904722 0.66928744
0.009685386 -0.045198441 0.66992807
0.014946204 0.016440839 0.7204414
0.014152906 0.014152944 0.71086544
0.014048931 0.012644023 0.70961034
0.014152964 0.011322379 0.71086615
0.014277765 0.0099944472 0.7123726
0.014357764 0.0086146593 0.71333826
0.014420151 0.0072101057 0.71409136
0.014076934 0.005630821 0.70994836
0.013881786 0.0041645467 0.70759273
0.013757243 0.0027514696 0.70608938
0.013675269 0.0013675392 0.70509988
0.013556927 2.9802322e-08 0.70367134
0.013420057 -0.0013419986 0.70201916
0.01300882 -0.0026017427 0.69705516
0.011944066 -0.0035832226 0.68420237
0.011776434 -0.0047105551 0.68217885
0.011619192 -0.0058096051 0.68028086
0.01146613 -0.0068796873 0.67843318
0.011320147 -0.0079241097 0.67667103
0.011185209 -0.0089481473 0.67504215
0.01105542 -0.0099498928 0.6734755
0.010933389 -0.010933369 0.67200243
0.010814997 -0.011896491 0.67057335
0.010703132 -0.012843728 0.66922301
0.01059488 -0.013773352 0.6679163
0.010490031 -0.014686018 0.66665065
0.01039084 -0.015586257 0.66545331
0.010293538 -0.016469628 0.66427875
0.010201005 -0.017341703 0.66316175
0.010111474 -0.018200666 0.66208106
0.010023532 -0.019044697 0.66101944
0.0099406578 -0.019881278 0.6600191
0.0098595349 -0.020705014 0.65903986
0.0097872736 -0.021531999 0.6581676
0.0097410139 -0.022404313 0.65760922
0.0097147319 -0.02331534 0.65729195
0.0097055333 -0.024263799 0.65718091
0.0097144879 -0.025257647 0.65728903
0.0097452477 -0.026312172 0.65766031
0.0098014921 -0.027444184 0.65833926
0.012289931 -0.035640776 0.68837732
0.012228557 -0.036685646 0.68763649
0.012129013 -0.037599921 0.68643486
0.012018803 -0.038460165 0.68510455
0.011910534 -0.039304733 0.6837976
0.011802515 -0.040128529 0.68249375
0.011499638 -0.040248722 0.67883766
0.011428492 -0.041142553 0.67797893
0.011406583 -0.04220435 0.67771435
0.011366658 -0.043193281 0.67723244
0.011257431 -0.043903947 0.67591399
0.010908161 -0.043632656 0.67169791
0.01078971 -0.044237792 0.67026806
0.010797388 -0.045349032 0.6703608
0.015628096 0.01562807 0.71152276
0.015466456 0.014060467 0.70974898
0.015333181 0.012545317 0.70828646
0.015401889 0.011201382 0.7090404
0.01562107 0.0099406838 0.71144563
0.015817331 0.0086276531 0.71359932
0.015922165 0.0072373748 0.71474981
0.016008994 0.0058214962 0.71570259
0.016096843 0.0043900609 0.71666664
0.015082448 0.0027422905 0.70553499
0.014906163 0.0013551116 0.70360053
0.014820276 -0 0.702658
0.014677317 -0.0013342798 0.7010892
0.014565565 -0.0026482642 0.69986284
0.013208392 -0.0036022961 0.68496966
0.013004189 -0.0047287941 0.68272877
0.012814964 -0.0058249533 0.68065232
0.012642656 -0.0068959594 0.67876142
0.012477893 -0.0079404712 0.67695338
0.012318084 -0.0089585781 0.67519969
0.01216731 -0.0099550784 0.67354518
0.012026842 -0.010933459 0.67200369
0.011891206 -0.011891186 0.6705153
0.011763552 -0.01283294 0.66911441
0.011639072 -0.013755232 0.66774839
0.011522128 -0.014664471 0.6664651
0.011408056 -0.015556425 0.66521335
0.011298258 -0.016433805 0.66400838
0.011193667 -0.017299294 0.66286069
0.011090993 -0.018148869 0.66173398
0.010993695 -0.018989056 0.66066623
0.010899146 -0.019816607 0.65962869
0.010806209 -0.020630032 0.65860885
0.010737119 -0.021474242 0.65785062
0.010694788 -0.022361815 0.65738612
0.010673434 -0.023287475 0.65715182
0.01067245 -0.024255544 0.65714103
0.010692723 -0.025273681 0.65736347
0.010746235 -0.026377141 0.6579507
0.013480209 -0.034313291 0.68795252
0.013362438 -0.035228252 0.68666017
0.013282245 -0.036224276 0.68578005
0.013262335 -0.037375659 0.68556166
0.013208529 -0.03842479 0.68497115
0.013107653 -0.039322942 0.68386418
0.012990621 -0.040152818 0.68257987
0.01287566 -0.040968001 0.6813184
0.012762674 -0.041768759 0.68007851
0.012640273 -0.042517275 0.67873532
0.012532883 -0.043295383 0.67755681
0.012416886 -0.044023484 0.6762839
0.012055861 -0.043839484 0.67232215
0.011933977 -0.044481188 0.67098463
0.011920354 -0.045514047 0.67083508
0.016914798 0.015505224 0.71017456
0.016752241 0.013960272 0.70853931
0.016615592 0.012461722 0.7071647
0.016689481 0.011126339 0.70790792
0.016878577 0.0098458827 0.70981014
0.017095525 0.0085477829 0.7119925
0.017705971 0.002951026 0.71813309
0.016246317 0.0013538599 0.70345008
0.0160682 -0 0.70165837
0.015930928 -0.0013275743 0.70027757
0.01574998 -0.0026249886 0.69845736
0.014522424 -0.0036305785 0.68610901
0.014272289 -0.0047574341 0.68359292
0.014046932 -0.0058528781 0.68132603
0.013839276 -0.0069195926 0.67923713
0.013646149 -0.0079602301 0.67729437
0.01346825 -0.0089788139 0.67550486
0.013296796 -0.0099725723 0.67378014
0.013132587 -0.0109438 0.67212838
0.012977836 -0.011896312 0.67057168
0.012831465 -0.012831479 0.66909933
0.012691296 -0.013748914 0.66768932
0.012558162 -0.01465115 0.66635013
0.012428497 -0.015535593 0.66504574
0.012306855 -0.016409099 0.66382217
0.012187572 -0.017265707 0.66262227
0.01207348 -0.018110216 0.66147459
0.011963976 -0.018942952 0.66037303
0.011856439 -0.019760728 0.65929133
0.011761325 -0.020582318 0.65833455
0.011695839 -0.021442384 0.6576758
0.011658526 -0.022345483 0.65730047
0.011644169 -0.02328831 0.65715605
0.011652433 -0.024275869 0.6572392
0.011691117 -0.025330752 0.6576283
0.01176179 -0.026464015 0.65833926
0.014882835 -0.03472662 0.68973458
0.014720635 -0.035574883 0.6881029
0.014442145 -0.036105335 0.68530142
0.014312559 -0.036974102 0.68399799
0.014223166 -0.037928432 0.68309879
0.014195033 -0.039036334 0.68281579
0.014151049 -0.040094614 0.68237334
0.014051666 -0.040984005 0.6813736
0.013929197 -0.041787565 0.68014163
0.013806694 -0.042570621 0.67890942
0.013685608 -0.043337762 0.6776914
0.013568086 -0.044096261 0.67650914
0.013194006 -0.043980002 0.67274624
0.013069402 -0.044653744 0.67149276
0.013051607 -0.045680612 0.67131382
0.018019829 0.013861448 0.70734674
0.017899653 0.012392074 0.70623088
0.018001731 0.01107803 0.70717865
0.01817945 0.0097889304 0.70882893
0.018368775 0.0084778965 0.71058691
0.017155468 -0.0013196468 0.69932067
0.016959913 -0.0026091933 0.69750494
0.016822223 -0.0038820207 0.69622642
0.015599729 -0.0047999024 0.68487507
0.015324946 -0.0058941841 0.68232358
0.01507405 -0.006957233 0.67999387
0.014845664 -0.0079937875 0.67787325
0.014634756 -0.0090059638 0.67591488
0.014439212 -0.0099963546 0.67409915
0.014255974 -0.010966122 0.67239773
0.014078822 -0.011912823 0.67075276
0.013910944 -0.012840867 0.66919398
0.013753173 -0.013753146 0.66772902
0.013601398 -0.014647663 0.66631967
0.013457666 -0.015528083 0.66498506
0.013319454 -0.016393185 0.66370165
0.013185937 -0.017243147 0.66246194
0.013059486 -0.018082321 0.66128778
0.012935437 -0.01890561 0.66013592
0.01281765 -0.019719452 0.65904224
0.012718404 -0.020545095 0.65812069
0.012657038 -0.021419615 0.65755087
0.012625094 -0.022336692 0.65725428
0.012617793 -0.023294389 0.65718651
0.012637703 -0.024303287 0.6573714
0.012700131 -0.025400221 0.657951
0.016194344 -0.033634365 0.69039625
0.016072243 -0.034617126 0.68926251
0.015951805 -0.035584807 0.68814421
0.015831379 -0.036533922 0.68702602
0.015675899 -0.037380964 0.68558234
0.01537633 -0.037849426 0.68280065
0.015230388 -0.038661718 0.6814456
0.015130754 -0.039572716 0.68052042
0.015091828 -0.04063186 0.68015897
0.015060179 -0.041705102 0.67986512
0.014962751 -0.042586297 0.67896044
0.014833427 -0.04335928 0.67775965
0.014709864 -0.04412961 0.67661232
0.014322648 -0.044069678 0.67301679
0.014194067 -0.04476589 0.67182291
0.014191079 -0.045848131 0.67179513
0.019525221 0.018130571 0.70837498
0.01973377 0.016914696 0.71017307
0.019269601 0.013764024 0.70617092
0.019202435 0.01234445 0.70559186
0.019338928 0.01105082 0.70676869
0.019504318 0.0097521544 0.70819473
0.019685777 0.0084367394 0.70975924
0.018255817 -0.0026079416 0.6974299
0.018057466 -0.0038694441 0.69571972
0.017021379 -0.0048632324 0.68678629
0.016667662 -0.0059527457 0.68373656
0.016360419 -0.0070115924 0.68108737
0.016086929 -0.008043468 0.6787293
0.015837988 -0.0090502799 0.67658293
0.015608746 -0.010034174 0.67460632
0.01539403 -0.010995716 0.672755
0.015196194 -0.011939853 0.67104924
0.015008331 -0.012864232 0.66942942
0.014828445 -0.013769269 0.66787851
0.014655735 -0.014655739 0.66638935
0.014495506 -0.015530854 0.66500777
0.014338911 -0.016387284 0.66365761
0.014192243 -0.017233431 0.66239297
0.014049479 -0.018063605 0.66116202
0.013912623 -0.01888141 0.65998203
0.013782895 -0.019689888 0.65886354
0.013687224 -0.02053079 0.65803862
0.013630656 -0.021419615 0.65755087
0.01360382 -0.022349149 0.65731955
0.013605304 -0.023323327 0.6573323
0.013642927 -0.024362355 0.65765667
0.013722088 -0.025483847 0.6583392
0.017144959 -0.033065259 0.68785191
0.017213332 -0.03442663 0.6884414
0.017121427 -0.035465777 0.68764895
0.016994501 -0.036416799 0.68655455
0.016869443 -0.037353754 0.6854763
0.016746098 -0.038276762 0.68441284
0.016591882 -0.039109409 0.68308312
0.016272202 -0.039518178 0.68032682
0.016145822 -0.040364534 0.67923713
0.016120622 -0.041453034 0.67901981
0.016093422 -0.042532623 0.67878532
0.01597446 -0.04335928 0.67775965
0.015845107 -0.044139922 0.67664433
0.015440056 -0.044114441 0.67315185
0.015307852 -0.044830143 0.67201203
0.015343533 -0.046030611 0.67231965
0.020937106 0.019541353 0.70851362
0.020744856 0.017978877 0.70696646
0.020938704 0.016750991 0.70852643
0.02114144 0.015503734 0.71015787
0.02050685 0.013671219 0.70505118
0.020532863 0.012319744 0.70526046
0.02069642 0.011038125 0.7065767
0.020854838 0.0097322464 0.70785153
0.021030372 0.0084121823 0.7092641
0.019078452 -0.0050875545 0.69355631
0.018139256 -0.0060464144 0.6859982
0.017731899 -0.0070927441 0.68272012
0.017390465 -0.0081155002 0.67997241
0.01708979 -0.0091145635 0.67755276
0.016816029 -0.010089606 0.67534971
0.016566684 -0.011044443 0.67334312
0.016337469 -0.011980802 0.67149854
0.016121538 -0.012897223 0.66976088
0.015919551 -0.013796926 0.6681354
0.015727734 -0.014679193 0.66659176
0.015545815 -0.015545785 0.66512781
0.015371229 -0.016395956 0.66372287
0.015206818 -0.017234385 0.66239983
0.015046756 -0.018056065 0.66111171
0.014896966 -0.018869489 0.65990627
0.014758689 -0.019678235 0.65879351
0.014664182 -0.020529866 0.65803301
0.014611644 -0.021430403 0.65761018
0.014590047 -0.022371411 0.65743637
0.014600838 -0.023361325 0.65752321
0.014655275 -0.024425417 0.65796131
0.01849075 -0.032050639 0.6888268
0.018263072 -0.032873541 0.68699461
0.018116433 -0.033817321 0.68581462
0.01803856 -0.034874529 0.68518794
0.018113725 -0.036227435 0.68579268
0.018015055 -0.037231117 0.68499875
0.017883884 -0.038152248 0.68394315
0.017754551 -0.039059997 0.6829024
0.017627133 -0.039954811 0.68187696
0.017476944 -0.040779531 0.68066835
0.017304379 -0.04153052 0.67927969
0.017231608 -0.042504609 0.67869401
0.017098369 -0.043315858 0.67762184
0.016965684 -0.044110775 0.67655402
0.016544545 -0.044118792 0.67316496
0.016409531 -0.044852704 0.67207849
0.016512519 -0.046235025 0.67290723
0.022397785 0.020997941 0.70900297
0.022172501 0.019400954 0.70730335
0.021970358 0.017850935 0.7057783
0.021771865 0.016328931 0.70428079
0.021726601 0.014937073 0.70393926
0.021733565 0.013583481 0.70399183
0.021825541 0.012276888 0.70468575
0.022043794 0.011021942 0.70633233
0.022223908 0.0097229779 0.70769119
0.020120563 -0.0062876344 0.69182265
0.019272145 -0.0072270334 0.68542188
0.018791536 -0.0082212687 0.68179595
0.018409353 -0.0092046261 0.67891258
0.018076839 -0.010168225 0.676404
0.017783673 -0.011114746 0.67419219
0.017514089 -0.012040943 0.67215836
0.01726434 -0.012948245 0.67027414
0.017033245 -0.013839483 0.6685307
0.016817508 -0.014715344 0.66690308
0.016612081 -0.015573829 0.66535324
0.016418589 -0.016418576 0.66389346
0.016232969 -0.017247498 0.66249299
0.01605729 -0.018064439 0.66116768
0.015889097 -0.018868297 0.65989876
0.01574238 -0.019677967 0.65879184
0.01565038 -0.020541131 0.6580978
0.01559966 -0.021449536 0.65771514
0.015583219 -0.022400886 0.6575911
0.015603513 -0.023405254 0.65774417
0.015682343 -0.024503648 0.6583389
0.019751707 -0.032096505 0.68903989
0.01960654 -0.033086032 0.68794465
0.019353526 -0.033868641 0.68603587
0.019124374 -0.034662932 0.68430698
0.018977167 -0.035582185 0.68319643
0.018902965 -0.036624491 0.68263662
0.01898261 -0.037965178 0.68323749
0.0188771 -0.038933992 0.68244147
0.01874206 -0.03982681 0.68142265
0.018608877 -0.040706933 0.6804179
0.018474564 -0.041567713 0.67940462
0.018340543 -0.04241246 0.67839348
0.018207021 -0.04324168 0.67738611
0.017805772 -0.043401569 0.6743589
0.017634695 -0.044086725 0.67306828
0.01753027 -0.044921279 0.67228043
0.017744111 -0.046578258 0.67389369
0.023178445 0.017724723 0.70460629
0.022970596 0.01621455 0.70313036
0.022766355 0.014731169 0.70168018
0.022608031 0.013298869 0.70055604
0.022913214 0.012130558 0.70272291
0.023282869 0.010956675 0.70534778
0.023548234 0.0096963346 0.707232
0.020454744 -0.0084225237 0.68526626
0.019867828 -0.0093495548 0.68109876
0.019430995 -0.010286957 0.67799699
0.019064011 -0.011214107 0.6753912
0.018740611 -0.012126237 0.67309487
0.018446356 -0.013020933 0.67100543
0.018179923 -0.013902277 0.66911364
0.017933048 -0.014768362 0.66736066
0.017698778 -0.015616566 0.66569722
0.017483478 -0.016455024 0.66416842
0.01727522 -0.017275214 0.66268969
0.017080901 -0.018085659 0.6613099
0.016891774 -0.018879026 0.65996695
0.016737984 -0.019691765 0.65887499
0.016645398 -0.020561963 0.65821755
0.016597738 -0.021479398 0.65787911
0.016588463 -0.022443175 0.65781325
0.016625393 -0.023471117 0.65807545
0.016717615 -0.024584711 0.65873033
0.020838562 -0.031870723 0.68799162
0.020722836 -0.032912731 0.68716991
0.020608388 -0.033943206 0.68635726
0.020453611 -0.034891427 0.68525827
0.02018453 -0.035619736 0.68334764
0.019954812 -0.036388159 0.68171644
0.019807534 -0.037284732 0.68067068
0.019730326 -0.038300037 0.68012249
0.019821493 -0.03964296 0.6807698
0.019708734 -0.040576786 0.67996919
0.019564925 -0.041431606 0.67894804
0.019432018 -0.042293191 0.67800432
0.019297687 -0.043136001 0.67705047
0.01884909 -0.043242007 0.67386508
0.018708974 -0.0440211 0.67287016
0.018694762 -0.045087367 0.67276931
0.024152558 0.016101748 0.70199543
0.023939289 0.014629573 0.70056522
0.023729753 0.013183206 0.69916004
0.023536598 0.011768311 0.69786465
0.023321578 0.010365158 0.69642276
0.02471255 0.0096104741 0.70575076
0.021804139 -0.009690702 0.68624657
0.020962 -0.01048097 0.68059903
0.020446606 -0.011359215 0.67714274
0.020038106 -0.012245506 0.67440331
0.019686665 -0.013124436 0.67204648
0.01937299 -0.013991594 0.66994298
0.01908504 -0.014843911 0.66801184
0.018817067 -0.015680879 0.66621482
0.018572494 -0.016508877 0.66457468
0.018339358 -0.017320484 0.66301119
0.018121343 -0.018121362 0.66154921
0.017912606 -0.018907726 0.66014934
0.017748673 -0.019720763 0.65905005
0.01765658 -0.020599335 0.65843242
0.017610297 -0.021523654 0.658122
0.017607024 -0.022497833 0.65810013
0.017655434 -0.023540556 0.65842474
0.017759711 -0.02466625 0.65912402
0.021537518 -0.03110975 0.68445861
0.021783559 -0.032675326 0.68610853
0.02166982 -0.033708602 0.68534577
0.021551618 -0.034722 0.68455309
0.021433085 -0.035721779 0.6837582
0.021270465 -0.036632478 0.68266767
0.020986054 -0.037308544 0.68076032
0.02077912 -0.038095057 0.67937261
0.020754918 -0.039203703 0.67921031
0.020759052 -0.040364802 0.67923802
0.020649597 -0.041299164 0.67850399
0.020512119 -0.042163819 0.67758209
0.020374868 -0.043013602 0.67666167
0.019905964 -0.043129563 0.67351711
0.019765867 -0.043924153 0.67257762
0.019886469 -0.045296937 0.67338639
0.025096251 0.014529437 0.69946611
0.024878077 0.01309374 0.69807994
0.024663664 0.011682779 0.6967178
0.024453096 0.010296047 0.69538003
0.024519121 0.0090333819 0.69579953
0.02463964 0.0077809393 0.69656515
0.022110622 -0.011637181 0.68049783
0.021484062 -0.012438118 0.67651713
0.021021284 -0.013276607 0.67357707
0.020631913 -0.014116555 0.6711033
0.020288141 -0.014949143 0.66891927
0.019976653 -0.015771031 0.66694033
0.01969536 -0.016585559 0.66515321
0.019431256 -0.01738587 0.66347528
0.019184614 -0.018174887 0.66190827
0.01895351 -0.018953502 0.66044009
0.018776005 -0.019764215 0.65931237
0.018680165 -0.020646483 0.65870345
0.018635031 -0.021577388 0.65841675
0.018636081 -0.022559434 0.65842336
0.018693971 -0.023613393 0.65879118
0.022874413 -0.030097902 0.68535036
0.02262071 -0.030954629 0.68373847
0.02243888 -0.031886846 0.68258333
0.022345312 -0.032929957 0.68198884
0.022593461 -0.034484714 0.68356538
0.022471951 -0.035481989 0.68279338
0.02235144 -0.036468118 0.68202776
0.022228844 -0.037438005 0.6812489
0.022058614 -0.038312316 0.68016744
0.021893801 -0.039178342 0.6791203
0.021835148 -0.040222615 0.67874771
0.021705355 -0.041125923 0.67792308
0.021568215 -0.042001247 0.67705178
0.021083716 -0.042167425 0.67397368
0.020942863 -0.042987943 0.67307878
0.020894146 -0.043987662 0.67276931
0.026010921 0.013005465 0.69701457
0.025788244 0.011604726 0.6956706
0.025744393 0.010297805 0.6954059
0.02586936 0.0090542734 0.6961602
0.025995549 0.0077986717 0.69692177
0.026122972 0.0065307617 0.69769084
0.026254924 0.0052509904 0.69848728
0.023444252 -0.012894303 0.68152332
0.022543421 -0.013526052 0.67608631
0.022000732 -0.014300466 0.67281091
0.021568302 -0.015097827 0.670201
0.021197258 -0.0158979 0.66796148
0.020865604 -0.01669246 0.66595984
0.020560399 -0.01747635 0.66411775
0.02027907 -0.018251121 0.6624198
0.020019863 -0.019018859 0.66085529
0.019823469 -0.019823492 0.65967
0.019720301 -0.020706296 0.65904731
0.019673239 -0.021640539 0.65876329
0.019676749 -0.022628248 0.65878445
0.019741645 -0.023689955 0.65917611
0.023977062 -0.029971302 0.68473911
0.023848126 -0.031002551 0.68396091
0.023621077 -0.031888455 0.68259054
0.023372734 -0.032721788 0.68109167
0.023204785 -0.033646911 0.68007803
0.023141807 -0.034712672 0.67969793
0.023370063 -0.03622359 0.68107557
0.023246234 -0.037194014 0.68032825
0.023123095 -0.038153112 0.67958498
0.022994328 -0.039090365 0.6788078
0.022870149 -0.040022761 0.67805833
0.022736216 -0.040925175 0.67724991
0.02260193 -0.041813552 0.67643952
0.022096569 -0.041983426 0.67338932
0.021958118 -0.042818338 0.67255366
0.022092775 -0.044185519 0.67336643
0.026965084 0.011556447 0.69502354
0.027094044 0.010321558 0.69576478
0.027225869 0.0090753138 0.69652253
0.027358983 0.0078169107 0.69728762
0.027493404 0.0065460801 0.69806033
0.027629152 0.0052627325 0.69884068
0.027812816 0.0039732754 0.69989634
0.023661688 -0.014647663 0.67603517
0.022998687 -0.015332431 0.67222416
0.022513192 -0.016080797 0.66943341
0.022103736 -0.016840935 0.66707987
0.021741509 -0.017600268 0.66499776
0.021417083 -0.018357456 0.66313291
0.02112064 -0.01910913 0.66142887
0.020892834 -0.019897908 0.66011941
0.020778842 -0.020778805 0.65946418
0.020727197 -0.021714211 0.65916735
0.020730788 -0.022705168 0.65918797
0.020799158 -0.023770481 0.65958095
0.02092783 -0.024914086 0.66032064
0.024820354 -0.030729949 0.68269533
0.024744518 -0.031814337 0.68225944
0.024591658 -0.032788873 0.68138075
0.0243365 -0.033607513 0.67991412
0.024097241 -0.034424633 0.67853886
0.024058551 -0.03551501 0.67831635
0.024223717 -0.036912292 0.6792658
0.024113566 -0.037892729 0.67863262
0.02398942 -0.038839966 0.67791897
0.023869278 -0.039782137 0.67722839
0.023741756 -0.040700138 0.67649537
0.023215495 -0.040903509 0.67347038
0.023084469 -0.041771889 0.67271721
0.023093602 -0.042888105 0.67276978
0.028588794 0.0090964735 0.6968872
0.028728791 0.00783512 0.69765532
0.028870273 0.0065614581 0.69843155
0.029030787 0.0052783191 0.69931233
0.029269326 0.003991276 0.70062113
0.024991278 -0.015903533 0.6771481
0.024026694 -0.0163818 0.67185563
0.023459667 -0.017061561 0.66874444
0.023006735 -0.01777789 0.66625923
0.022617845 -0.018505514 0.66412544
0.022269417 -0.019232661 0.66221368
0.021994095 -0.019994646 0.66070306
0.021859691 -0.020866036 0.65996557
0.021799598 -0.021799594 0.65963584
0.021800406 -0.022791326 0.65964025
0.021867257 -0.02385518 0.66000712
0.021998083 -0.024997801 0.66072494
0.025151536 -0.029724509 0.67802751
0.025640244 -0.031467557 0.68070894
0.025568718 -0.03254196 0.68031645
0.025480764 -0.03358829 0.67983389
0.025300879 -0.034501195 0.6788469
0.025137559 -0.035421073 0.67795068
0.025148144 -0.036579102 0.67800879
0.025085177 -0.037627757 0.67766333
0.024966871 -0.038585126 0.67701423
0.024844345 -0.039525062 0.67634189
0.024293711 -0.039753348 0.67332065
0.024172412 -0.040653557 0.67265517
0.024104118 -0.041634351 0.67228043
0.024327265 -0.043125629 0.67350477
0.030106718 0.007853955 0.69803351
0.030253742 0.0065768957 0.69880521
0.030487454 0.0053021908 0.70003176
0.025117474 -0.017473012 0.67184854
0.024420943 -0.018050253 0.66819298
0.023915239 -0.018716246 0.66553891
0.023487827 -0.019402951 0.66329569
0.023146868 -0.020127714 0.6615063
0.022968318 -0.02097109 0.66056919
0.022894558 -0.021899164 0.66018206
0.022885773 -0.02288577 0.66013592
0.022946225 -0.023943871 0.6604532
0.023075489 -0.025082052 0.66113162
0.026185885 -0.029601425 0.6774559
0.025981655 -0.030500174 0.67638403
0.026024044 -0.031681448 0.67660654
0.026364792 -0.033242553 0.67839485
0.026291328 -0.034293056 0.67800927
0.026209673 -0.035326093 0.67758071
0.026115974 -0.03633526 0.67708898
0.026013032 -0.037323028 0.67654872
0.025906276 -0.038296193 0.67598844
0.025320401 -0.038531035 0.67291355
0.025210653 -0.039460182 0.67233765
0.025107294 -0.040389955 0.67179513
0.025312861 -0.041821241 0.67287397
0.026463881 -0.018745214 0.67312777
0.025420502 -0.01906538 0.66788
0.024831902 -0.019658566 0.66491956
0.024371725 -0.020309776 0.66260505
0.024128864 -0.02111271 0.66138357
0.024022935 -0.022021025 0.66085082
0.023996459 -0.022996575 0.66071761
0.02404101 -0.024040997 0.66094172
0.024160251 -0.025166899 0.66154146
0.027227428 -0.029496372 0.6769681
0.027064923 -0.03044799 0.6761508
0.02700926 -0.0315108 0.6758709
0.027175788 -0.032837421 0.67670846
0.027129021 -0.033911258 0.6764732
0.027060179 -0.03495273 0.67612696
0.026985923 -0.035981208 0.67575347
0.026901655 -0.036989778 0.67532963
