# .PCD v0.7 - Point Cloud Data file format
VERSION 0.7
FIELDS x y z
SIZE 4 4 4
TYPE F F F
COUNT 1 1 1
WIDTH 1330
HEIGHT 1
VIEWPOINT 0 0 0 1 0 0 0
POINTS 1330
DATA ascii
-0.011647809 0.041155547 0.66269022
-0.054403465 0.04740876 0.66285241
-0.057674244 -0.0038969219 0.66338098
-0.043613002 -0.0015575886 0.66324139
-0.037418958 -0.00077956915 0.66342437
-0.026524436 0.00078010559 0.6635617
-0.024611576 0.00078132749 0.66384977
-0.003908731 0.0039087236 0.66395181
-0.003908731 0.0039087236 0.66395181
-0.00078059442 0.0046835542 0.66367376
0.0062546944 0.0054728389 0.66397369
0.030472476 0.0093761384 0.66385508
0.065639757 0.01484707 0.66387445
0.075510852 0.017126203 0.66315901
0.066934094 0.030353814 0.66312063
0.066934094 0.030353814 0.66312063
0.060172163 0.032039732 0.6638819
0.060172163 0.032039732 0.6638819
0.060172163 0.032039732 0.6638819
0.024547929 0.036626816 0.66335988
0.025747705 0.036670953 0.66358662
-0.011713637 0.042169094 0.66374969
-0.029627448 0.044441134 0.66345048
-0.04203517 0.045927316 0.66315097
-0.059114646 0.048225075 0.66300493
-0.069446936 -0.0070624053 0.66466796
0.018077474 0.006287843 0.66497326
0.023495218 0.0078317523 0.66429651
0.027495481 0.0078558624 0.66487861
0.037712477 0.0094281137 0.66490066
0.075274773 0.01568225 0.66452301
0.03219711 0.036908865 0.66480863
0.016504971 0.039297551 0.66496694
-0.020353146 0.043837577 0.66420943
-0.015643517 0.043019712 0.66405553
-0.01448765 0.043071881 0.66428459
-0.036416352 0.046205893 0.6642909
-0.033391714 0.046355799 0.66490418
-0.046262775 0.047830999 0.66452366
-0.075517073 0.051649094 0.66414875
-0.069349155 -0.0078805685 0.66547573
-0.045650303 -0.0039353967 0.66523814
-0.029538631 -0.0015754104 0.66538918
-0.021237632 -0 0.66511858
-0.015768543 0.00039345026 0.66556472
-0.011448284 0.00078956783 0.66583467
-0.0047246641 0.0023623407 0.66532737
0.0055127698 0.0039377213 0.6653502
0.010235443 0.0047240555 0.66530263
0.013417941 0.0047357678 0.66577315
0.015752608 0.0055133998 0.66537237
0.024389306 0.0070807636 0.66516024
0.048531368 0.010258645 0.66573346
0.055844691 0.033821404 0.66511035
0.057511207 0.033876449 0.66541934
0.051582225 0.034650519 0.66534388
0.043437392 0.036329478 0.66588908
0.043437392 0.036329478 0.66588908
0.037499361 0.037104473 0.66581333
0.017304968 0.039329469 0.66512102
0.00078661036 0.04169035 0.66512609
-0.024445472 0.04573673 0.66559768
-0.056453928 0.050532341 0.66584003
-0.073644869 -0.0095025301 0.66639841
-0.057457134 -0.0071326345 0.66655135
-0.048304051 -0.005543083 0.66639584
-0.04506921 -0.0047441423 0.66611052
-0.033254072 -0.003167063 0.66637021
-0.029269751 -0.0023731887 0.6662038
-0.0035607554 0.0015826076 0.66625977
0.027714141 0.0063346624 0.6663869
0.030835485 0.0071158707 0.66610217
0.031645726 0.0071202815 0.66622043
0.035641328 0.0075235069 0.66643441
0.036455963 0.0075281709 0.66655302
0.041282654 0.0079389811 0.66688526
0.049547527 0.0095131099 0.66661036
0.054703541 0.010306478 0.66662163
0.060569726 0.011480004 0.6663717
0.020635849 0.040477991 0.66683441
-0.064561032 0.052282691 0.66646636
-0.064561032 0.052282691 0.66646636
-0.075287424 0.05388996 0.66654778
-0.071687758 -0.010354936 0.66752112
-0.068399027 -0.0095440149 0.66723299
-0.049261179 -0.0063562691 0.66703933
-0.041408565 -0.0055742264 0.66746986
-0.032612242 -0.0039770901 0.66725302
-0.018354051 -0.0023939908 0.66787636
-0.018280827 -0.0015896559 0.6671077
-0.0047813919 -0 0.66760993
-0.00079620047 0.00079619884 0.66744137
0.047458578 0.0079762042 0.66778433
0.063606016 0.011131078 0.66716969
0.068496257 0.011547998 0.66750598
0.071717493 0.011952907 0.66760087
0.0723387 0.033387095 0.66713488
0.061210703 0.034977496 0.6671381
0.061210703 0.034977496 0.6671381
0.05564665 0.03577286 0.66714001
0.046183676 0.037424713 0.66745824
0.024705525 0.040644586 0.66762292
-0.013560128 0.046263993 0.66779244
-0.034159385 0.048458636 0.66700774
-0.032624103 0.048538297 0.66732287
-0.075721718 0.054997891 0.66765147
-0.075288095 -0.012014031 0.66858494
-0.062347349 -0.0095919073 0.66819566
-0.036916565 -0.0064202547 0.66897041
-0.0055971872 -0.00079959631 0.66826165
0.057648521 0.0088074505 0.66852134
0.058485858 0.0088129342 0.66864258
0.079335272 0.012020499 0.66868854
0.076207086 0.034493715 0.66888493
0.070592545 0.035296291 0.6688869
0.059362717 0.036901176 0.66888952
0.034410205 0.040011883 0.6684159
0.034410205 0.040011883 0.6684159
0.013627018 0.043285817 0.6687423
-0.022390038 0.04797864 0.66827273
-0.027599193 0.048798859 0.66835415
-0.051137079 0.05193609 0.66812134
-0.041720714 0.051348567 0.66891909
-0.069608808 -0.012070894 0.66949999
-0.053540878 -0.0096615255 0.66959667
-0.031310525 -0.0056198537 0.66904283
-0.024518635 -0.0048233718 0.66929877
-0.024518635 -0.0048233718 0.66929877
-0.018502336 -0.0040222406 0.66943282
-0.0096423952 -0.0024105906 0.66921157
-0.0096423952 -0.0024105906 0.66921157
0 -0.0016127527 0.6698975
0 -0.0016127527 0.6698975
0.0096520521 0.00040136278 0.66940582
0.020478204 0.002409175 0.6690979
0.020478204 0.002409175 0.6690979
0.025803613 0.0024190843 0.66989481
0.044276521 0.0056352317 0.66957247
0.06239244 0.0084525943 0.66958332
0.071736924 0.0096724033 0.66981512
0.076553531 0.010475755 0.66976535
0.076553531 0.010475755 0.66976535
0.058853649 0.037892073 0.66985893
0.027321421 0.041785717 0.66922081
0.017708257 0.043465704 0.66954666
0.0096351206 0.044160992 0.66906524
-0.0096674804 0.047531754 0.66971624
-0.0096674804 0.047531754 0.66971624
-0.026586294 0.049950033 0.66972154
-0.037478447 0.051583484 0.66980517
-0.052195027 0.052998066 0.669083
-0.042735774 0.052411795 0.66988814
-0.054786123 0.05398044 0.66972947
-0.062686868 0.054650068 0.66924655
-0.060549129 -0.011302501 0.67012632
-0.048506591 -0.0097013116 0.67039704
-0.005665422 -0.0032373965 0.67061502
-0.0044555254 -0.0032404959 0.67080158
-0.0040354505 -0.0024212599 0.67007029
0.026735067 0.0016202629 0.67080998
0.037271664 0.0032410026 0.67083406
0.049261939 0.039571077 0.67018688
0.052667744 0.039703399 0.67083877
0.052667744 0.039703399 0.67083877
0.040480472 0.041290045 0.67067862
0.026650723 0.042802691 0.6701929
0.035652988 0.042135358 0.67084414
0.035652988 0.042135358 0.67084414
0.023479318 0.043720156 0.67068392
-0.010525716 0.048580259 0.67069328
-0.0097241765 0.04862088 0.67085689
-0.077283897 -0.015456796 0.67162144
-0.075444907 -0.014602244 0.67107117
-0.073533587 -0.01462549 0.67138302
-0.063364699 -0.012997895 0.67134452
-0.057699945 -0.012190104 0.67141873
-0.03169379 -0.0081266463 0.67141539
-0.022821391 -0.0073354542 0.671992
-0.0064970669 -0.0040606558 0.67128789
0.037423868 0.002440691 0.67163289
0.059200276 0.0064876974 0.67100531
0.063456982 0.00650841 0.67163014
0.063456982 0.00650841 0.67163014
0.065741003 0.038145989 0.67116332
0.046419404 0.041533142 0.67182922
0.037336063 0.042205989 0.67117208
0.030157983 0.044014364 0.67199939
-0.0048866235 0.048866212 0.67184412
-0.02555858 0.05111751 0.67110819
-0.029271511 0.052038252 0.67152071
-0.036729183 -0.0097944438 0.67227066
-0.0024542159 -0.0049084425 0.67272162
0.0073588262 -0.0032705665 0.6726191
0.012261528 -0.0024522841 0.6725679
0.016334012 -0.0016334057 0.67239058
0.019651147 -0.001637578 0.6728968
0.023723759 -0.00081801414 0.67271888
0.044157695 0.002453208 0.67264026
0.072618835 0.0073434711 0.67220736
0.073481716 0.0073482096 0.67233336
0.076510936 0.0073646605 0.67277598
0.066129431 0.039187819 0.67232108
0.007335979 0.047276318 0.67200625
-0.0024494922 0.048989832 0.67234147
-0.0065430584 0.049890846 0.67267585
-0.017592033 0.051549241 0.67276269
-0.026503393 0.052191645 0.67209935
-0.067265891 -0.015586019 0.67326331
-0.058415007 -0.01480943 0.67385018
-0.052567683 -0.013553441 0.67351782
-0.035286564 -0.010668039 0.67333621
-0.004939524 -0.0065860152 0.67397267
0.062516332 0.0041129291 0.67381072
0.064770311 0.040173978 0.67315751
0.054158702 0.041849881 0.67332864
0.033730846 0.045248717 0.67383975
-0.039326824 0.054893732 0.67302018
-0.049242709 0.056629092 0.67335892
-0.054600686 0.057474598 0.67344433
-0.059578218 0.05834575 0.67361462
-0.059578218 0.05834575 0.67361462
-0.076458983 0.060838342 0.67370361
-0.07824266 -0.018119335 0.67405784
-0.067544244 -0.016474217 0.67408282
-0.062452022 -0.016543642 0.67492068
-0.046535853 -0.013178334 0.67406726
-0.020669643 -0.0099214017 0.67482525
-0.020669643 -0.0099214017 0.67482525
-0.016520685 -0.0090863705 0.67464387
-0.00082591869 -0.0066073537 0.67461598
0.017375631 -0.0041370392 0.67497623
0.023500416 -0.0024737269 0.67429072
0.041289438 -0 0.67458463
0.047516789 0.0008263588 0.67472655
0.079335615 0.005784899 0.67473525
0.0562291 0.042998701 0.67485261
0.059383944 0.042063624 0.67434037
0.048704177 0.04375118 0.67451358
0.04034647 0.044463456 0.6740073
0.041204907 0.044501305 0.67417645
0.037147902 0.045403004 0.67451704
0.02881941 0.046111047 0.67401075
-0.025615029 0.05453524 0.67470592
-0.045331243 0.056870103 0.67420214
-0.072025873 -0.018213421 0.67509031
-0.071244173 -0.018225253 0.67522001
-0.071244173 -0.018225253 0.67522001
-0.045627959 -0.014518857 0.67550457
0.0033144029 -0.0066288114 0.67526346
0.0074506132 -0.0057949126 0.67508125
0.0306777 -0.0024873614 0.67539054
0.038204193 -0.0016610026 0.67572826
0.051385138 0.00082877278 0.67530978
0.066434838 0.042352229 0.67570639
0.0534954 0.043957323 0.67545235
0.048561029 0.044825405 0.67562544
0.028565971 0.047195658 0.67511702
0.032416489 0.047377974 0.67588907
0.018239578 0.048915237 0.67537719
-0.011597563 0.053017408 0.67521441
-0.014131209 0.054031104 0.67590249
-0.074202403 -0.020009637 0.676503
-0.049525395 -0.015814871 0.67617154
-0.032489292 -0.013328969 0.67633975
-0.018377574 -0.011694819 0.67689157
-0.014187811 -0.010849506 0.67670631
-0.010832476 -0.0099991858 0.67639011
-0.0074876295 -0.0091515481 0.67607421
0.014206177 -0.0066852868 0.67696714
0.014567804 -0.0058270544 0.6761899
0.058318637 0.00083312392 0.67635536
0.068280004 0.0024980605 0.67624903
0.076787062 0.0033385754 0.67672193
0.080885984 0.0041693747 0.6765371
0.07582894 0.041664243 0.67639434
0.071786821 0.042571276 0.67674327
0.035432167 0.047520518 0.67649305
0.036729958 0.047582 0.67675328
0.0099831894 0.050747871 0.67606783
0.0066727283 0.051713645 0.67658895
-0.053294532 0.059956342 0.67625964
-0.057557765 0.06089443 0.67660815
-0.071555011 0.062402636 0.67609251
-0.075302117 -0.020917237 0.67721641
-0.062443517 -0.019277915 0.67757368
-0.057799369 -0.018428773 0.67745346
-0.017553773 -0.011702508 0.67702419
-0.0083841812 -0.010899454 0.67763364
0.0033562924 -0.009229809 0.67779171
0.046141811 -0.0025168061 0.67776012
0.051161837 -0.0016774535 0.67770618
0.054430738 -0.00083741546 0.67738682
0.065324984 0.00083750486 0.67741185
0.080335915 0.0033473074 0.6772508
0.08306706 0.041953087 0.67778885
0.044319 0.046827644 0.67709994
0.045194235 0.046868086 0.67727435
0.054588601 0.046190351 0.67797315
-0.028532842 0.057904899 0.67782265
-0.037633866 0.058541536 0.67712426
-0.047752891 0.060319424 0.67747718
-0.064979218 -0.021097124 0.67895365
-0.057239912 -0.019360572 0.67844129
-0.023593836 -0.014324814 0.67865217
-0.023593836 -0.014324814 0.67865217
0.0033704999 -0.010111511 0.67864925
0.015965408 -0.0075625777 0.67808425
0.028610988 -0.0058905184 0.67837757
0.033650998 -0.0050476193 0.67832327
0.079223983 0.0016856194 0.67869347
0.080674782 0.0025210977 0.67810297
0.074484318 0.043764696 0.67840874
0.058149628 0.046351165 0.67867899
0.033681817 0.04968068 0.67850935
-0.00084282336 0.054783553 0.67869711
-0.070866175 0.064960629 0.67889547
-0.075466208 -0.023742169 0.67993122
-0.043232273 -0.01864922 0.67987245
-0.039777998 -0.017773151 0.67954624
-0.038546667 -0.017790854 0.67974955
-0.029606007 -0.016071856 0.6794365
-0.014368488 -0.013523251 0.67927212
-0.0016928627 -0.011850029 0.67956817
0.0084597683 -0.010151714 0.67945844
0.022042038 -0.0084777176 0.67989159
0.059943303 -0.00168854 0.67904681
0.040701173 0.050028503 0.67993265
0.015236801 0.053328812 0.67958206
0.0033860167 0.055022776 0.67958575
-0.00930358 0.056667238 0.67941087
-0.022796644 0.058258116 0.67905855
-0.046439268 0.061637551 0.67906576
-0.042402379 0.06190744 0.67995834
-0.063383125 0.064228237 0.67924881
-0.063383125 0.064228237 0.67924881
-0.074987218 -0.024711668 0.68094331
-0.066341534 -0.022964388 0.68055832
-0.017434081 -0.015308082 0.6805383
0.0033992666 -0.011897445 0.68038547
0.0068021724 -0.011479571 0.68049532
0.040768471 -0.0059454143 0.68027115
0.05026501 -0.0051116943 0.68090034
0.056251168 -0.0042614639 0.68098271
0.074820466 -0.00085020065 0.6804859
0.081709355 2.9802322e-08 0.68070471
0.083345056 0.00042432547 0.68054074
0.048417084 0.049266547 0.68029028
0.043358896 0.050160319 0.68047178
0.021292515 0.053657174 0.68084025
0.0059411097 0.055167437 0.68012309
0.0025529207 0.056164265 0.68066478
0.0025529207 0.056164265 0.68066478
-0.041590754 0.06196174 0.68013781
-0.040777706 0.0620161 0.68031764
-0.0512091 -0.021337122 0.68127108
-0.0512091 -0.021337122 0.68127108
-0.034572616 -0.018780261 0.68131053
-0.033325758 -0.018799186 0.68151772
-0.020538315 -0.017115265 0.68182105
-0.0055559184 -0.014531225 0.6815834
0.0093917605 -0.011953145 0.68134624
0.029850515 -0.0085287094 0.68112302
0.069136523 -0.0025606155 0.68128371
0.069136523 -0.0025606155 0.68128371
0.077859215 -0.0017111897 0.6817807
0.070810601 0.046922684 0.68118775
0.077703618 0.046109855 0.68136781
0.077703618 0.046109855 0.68136781
0.010229588 0.055410296 0.68102497
0.010229588 0.055410296 0.68102497
-0.0076723848 0.057969153 0.68103021
-0.012798714 0.05887413 0.68121374
-0.01625479 0.059886068 0.68176121
-0.042664226 0.063143075 0.68122268
-0.059784114 0.06576252 0.6814096
-0.051379096 0.065080166 0.6819551
-0.067352571 0.066499978 0.68104875
-0.066558599 0.066558629 0.68123007
-0.071742229 0.067471862 0.68141335
-0.076541558 0.068417192 0.68168879
-0.077249505 -0.026608169 0.68244028
-0.040291641 -0.02057445 0.68218458
-0.024840521 -0.017987967 0.68201578
0.012462854 -0.01289247 0.68272257
0.036870725 -0.0085745752 0.68223047
0.056736819 -0.0060175955 0.68275917
0.066112138 -0.0042930245 0.68250573
0.070338674 -0.0034311712 0.68231004
0.06341283 0.048844993 0.6821028
0.064326681 0.048888296 0.68228602
0.067077987 0.049018532 0.68283772
0.053224828 0.050649434 0.68247336
0.046316389 0.05146262 0.68229127
0.047215916 0.051508307 0.68247485
0.047215916 0.051508307 0.68247485
0.041207068 0.05236733 0.68247712
0.01542586 0.055704534 0.68211782
-0.073204115 -0.026697963 0.68313962
-0.049583271 -0.023282632 0.68340409
-0.044813257 -0.022406638 0.68327695
0.0086433748 -0.014693737 0.68389106
0.016380109 -0.012931705 0.6833536
0.020671053 -0.012058109 0.68315625
0.031124117 -0.011239231 0.68394458
0.022440596 0.056101501 0.68359232
0.011230513 0.057880342 0.68378198
0.0034494256 0.058640242 0.68341285
-0.038808446 0.064680755 0.68342572
-0.044434037 0.065572843 0.68352002
-0.074237429 0.069921315 0.68362278
-0.041658878 -0.023433119 0.68474954
-0.031226953 -0.021685362 0.68463415
-0.018203281 -0.019504458 0.68449116
-0.0026039763 -0.017359853 0.68477339
0.036459822 -0.011285156 0.68479729
0.036459822 -0.011285156 0.68479729
0.040761191 -0.01040709 0.68459648
0.070949897 -0.0051914454 0.68410963
0.051148966 0.05288282 0.68451738
0.015619611 0.058139682 0.68471646
-0.015606315 0.062425256 0.68453813
-0.033814676 0.06502825 0.68454421
-0.044299167 0.066883057 0.68492287
-0.077899225 0.070974857 0.68418312
-0.07056009 -0.028746694 0.68552661
-0.061730392 -0.026952744 0.6851235
-0.023461644 -0.020854801 0.68500465
-0.01918222 -0.020926058 0.68572146
-0.012166862 -0.019119352 0.68503159
0.014828425 -0.015700668 0.68580383
0.055663351 -0.0086973906 0.68519533
0.084315106 0.048676759 0.68507177
0.067923464 0.051378012 0.68545461
0.069790609 0.051470578 0.68583339
0.03654293 0.055684447 0.68527496
-0.024364194 0.064391106 0.68529433
-0.029611921 0.065320432 0.68548477
-0.03444875 0.066281542 0.68577123
-0.052352432 0.068930715 0.68587148
-0.052352432 0.068930715 0.68587148
-0.065382831 0.070613444 0.68568575
-0.065382831 0.070613444 0.68568575
-0.063524239 -0.028914541 0.68675458
0.0052400422 -0.017466784 0.68606454
0.01836771 -0.015743762 0.68638146
0.030637803 -0.01400584 0.68655354
0.042475536 -0.012260914 0.68665385
0.075269185 -0.0070017874 0.68651915
0.064615004 0.052390546 0.68602484
0.047195438 0.05506134 0.68622136
0.047195438 0.05506134 0.68622136
0.015718326 0.059380323 0.6860404
0.0096057495 0.060254246 0.68604273
-0.012259072 0.063922316 0.68662167
-0.078539029 -0.031591177 0.68707669
-0.076476984 -0.031645656 0.687442
-0.072426021 -0.030726239 0.68716365
-0.072426021 -0.030726239 0.68716365
-0.06785465 -0.030843019 0.68796915
-0.063386805 -0.029932648 0.68776226
-0.057247877 -0.029064327 0.68785018
-0.04834662 -0.027249932 0.68743813
-0.040507842 -0.026418149 0.68781847
-0.038629152 -0.025460094 0.68717384
-0.018484788 -0.022885919 0.68772745
0.0017572809 -0.019330114 0.68734413
0.021127911 -0.016726255 0.68775195
0.027301408 -0.015852422 0.68783909
0.028526003 -0.014921218 0.68712157
0.050903413 -0.011409402 0.68710387
0.054564174 -0.011440873 0.68768859
0.079919428 -0.0070258677 0.68724632
0.080181397 0.05198577 0.68794137
0.084432371 0.051011235 0.68755257
0.072120667 0.05277124 0.68755656
0.043176852 0.057275444 0.68795246
0.043176852 0.057275444 0.68795246
0.027217411 0.058824748 0.68718493
0.027217411 0.058824748 0.68718493
0.036095131 0.058104336 0.68776149
0.01760784 0.060747057 0.68776697
-0.010526814 0.064038098 0.68700469
-0.031696472 0.067795247 0.68778282
-0.039548971 0.068551511 0.68739861
-0.039548971 0.068551511 0.68739861
-0.044528916 -0.027334675 0.68809813
-0.040687688 -0.027419955 0.68876243
-0.022042323 -0.023805708 0.68808109
-0.021175249 -0.023822129 0.68822813
-0.020306975 -0.023838639 0.68837535
-0.018566892 -0.02387172 0.68867123
-0.012383024 -0.022997051 0.68875921
-0.0053128777 -0.022136956 0.68899524
-0.0035311198 -0.021186709 0.68834352
0.019426314 -0.01766026 0.68840003
0.038472168 -0.015035033 0.68873799
0.069727115 -0.0097088218 0.68830526
0.057378773 0.05561325 0.68833631
0.053529195 0.056625739 0.68882561
0.021206528 0.060968786 0.68854272
0.022110308 0.061024487 0.68873757
0.0026508854 0.063621253 0.68854833
-0.036164794 0.068801284 0.68817168
-0.04683581 0.070695579 0.6885643
-0.073815972 -0.033795267 0.68992943
-0.073815972 -0.033795267 0.68992943
-0.070560083 -0.032839358 0.68949515
-0.059453014 -0.031057537 0.68944883
-0.053263512 -0.03018266 0.68953741
0.01329869 -0.019504786 0.68926072
0.045340929 -0.015113622 0.68985432
0.050660864 -0.014220625 0.68979377
0.011518616 0.062909395 0.68913233
0.011518616 0.062909395 0.68913233
-0.010662196 0.066638708 0.68972838
-0.019493919 0.067342639 0.68914193
-0.03018277 0.069242805 0.68953818
-0.040911287 0.071150064 0.68993592
-0.065816037 0.074710101 0.68994313
-0.062541865 -0.033057868 0.69092077
-0.066775329 -0.032942504 0.69016814
-0.0084666349 -0.024063513 0.69038618
0.023228694 -0.019655049 0.69091016
0.044619951 -0.016063184 0.69066572
0.047184698 -0.015134722 0.69015354
0.065494403 -0.012475088 0.69034684
0.074119784 -0.011609137 0.69081318
0.077561088 -0.01069805 0.69045031
0.085740253 -0.0098243952 0.69084167
0.065863892 0.056073308 0.69009924
0.042802818 0.05974564 0.69050312
0.04466854 0.059855819 0.69090039
0.034713618 0.060526282 0.69010901
0.019654825 0.063431501 0.69090766
-0.027595477 0.069433779 0.69012916
-0.056238767 0.074092329 0.69073331
-0.056238767 0.074092329 0.69073331
-0.076168634 -0.035844088 0.69155967
-0.076168634 -0.035844088 0.69155967
-0.057422586 -0.033197433 0.69183153
-0.048354641 -0.031340957 0.69140387
-0.035848279 -0.029574871 0.69158506
-0.030462371 -0.02867049 0.69152355
-0.019699741 -0.026863277 0.69140059
-0.010772503 -0.026033521 0.69194758
-0.00716952 -0.025093317 0.69158095
0.0044815615 -0.023304105 0.69161052
0.010760238 -0.022417158 0.69170082
0.019688176 -0.020583123 0.69127369
0.026877645 -0.019710273 0.69151616
0.069723256 -0.012514442 0.69102514
0.07648617 -0.011629447 0.69119072
0.071599059 0.056384265 0.69129086
0.071599059 0.056384265 0.69129086
0.060496714 0.058255911 0.69159412
-0.0071806591 0.068216234 0.69191712
-0.013463888 0.069114625 0.69191962
-0.041176323 0.07250613 0.69132692
-0.045736916 0.073537767 0.69172877
-0.069389828 -0.036046684 0.69278246
-0.049437836 -0.032359302 0.69222796
-0.023426402 -0.028832465 0.69274592
-0.0044904198 -0.025146335 0.69203824
0.0026972862 -0.024275571 0.69228244
0.01262823 -0.023452431 0.69298762
0.016208697 -0.022512078 0.69261748
0.035163201 -0.019835681 0.69289207
0.038703814 -0.018901825 0.69252223
0.081745207 0.05569455 0.69209015
0.063840143 0.058445215 0.69229722
0.040538892 0.062159628 0.69270945
0.040538892 0.062159628 0.69270945
0.013488382 0.06564346 0.69231379
0.0094641224 0.066698045 0.69282067
-0.0045004264 0.068406492 0.69252133
-0.022523753 0.071175039 0.69273019
-0.073118873 -0.037010789 0.69315314
-0.049661901 -0.03340888 0.69321144
-0.045307513 -0.033527583 0.69398558
-0.02707641 -0.029784054 0.69311571
-0.0054336921 -0.027168483 0.69385642
-0.0045107533 -0.026162386 0.69302011
0.024357697 -0.021651268 0.69301665
0.064305097 -0.016302705 0.69387823
0.078616783 -0.013554603 0.69337982
0.032583296 0.064261496 0.69373
0.032583296 0.064261496 0.69373
-0.057340577 -0.036406696 0.69495547
-0.057340577 -0.036406696 0.69495547
-0.051864583 -0.035486281 0.69489205
-0.049451977 -0.034480393 0.69428217
-0.030879097 -0.031787306 0.69448256
-0.030879097 -0.031787306 0.69448256
0.0063691144 -0.026386321 0.69488442
0.0063691144 -0.026386321 0.69488442
0.017277615 -0.024552405 0.6947577
0.044493843 -0.019976854 0.69444132
0.048514463 -0.019042984 0.69414473
0.085365713 -0.013622165 0.69446737
0.075470962 0.059103757 0.69474328
0.05541607 0.061775267 0.69454324
0.047152001 0.062567085 0.69413507
0.0036307136 0.068983555 0.69435453
-0.029019846 0.073456496 0.69415939
-0.033617418 0.074503481 0.69457191
-0.081354678 -0.041134417 0.69590425
-0.073787548 -0.039171159 0.69514608
-0.073787548 -0.039171159 0.69514608
-0.06657587 -0.038303912 0.69539738
-0.061519947 -0.037367761 0.69525516
-0.045723625 -0.035664409 0.69599479
-0.044636227 -0.034615844 0.69514269
-0.034729794 -0.033815861 0.6958667
-0.020060552 -0.031002671 0.69536
0.0018215777 -0.027323663 0.69510543
0.023761664 -0.024675578 0.69585896
0.023761664 -0.024675578 0.69585896
0.027370192 -0.023720831 0.69547987
0.029236643 -0.023754776 0.69579494
0.042812023 -0.020950556 0.69513088
0.072922423 -0.016407549 0.69528443
0.083810993 0.058303297 0.69515377
0.071058512 0.060126454 0.695158
0.065655001 0.061095655 0.69536763
0.048421875 0.0639534 0.69578904
0.041074481 0.064806432 0.69558281
0.021907067 0.067546785 0.69558966
0.00091110141 0.070154816 0.69518089
0.00091110141 0.070154816 0.69518089
-0.0027410623 0.071267605 0.69580525
-0.017327698 0.072958738 0.69539404
-0.064272024 -0.039481372 0.69688785
-0.024757927 -0.033010572 0.69659531
0.068748541 -0.018332958 0.69651979
0.056750886 0.063158244 0.69620347
0.043937024 0.064990163 0.6962077
0.030178761 0.06675908 0.69600332
0.024715342 0.067738324 0.69621456
-0.013731489 0.073234618 0.69622654
-0.056552783 -0.038621545 0.69722301
-0.048810292 -0.037758917 0.69755828
-0.039520703 -0.035844356 0.69710863
-0.037736841 -0.035896063 0.69742841
-0.037736841 -0.035896063 0.69742841
-0.026676325 -0.034035325 0.69729865
-0.022054635 -0.033081949 0.69707406
-0.014720036 -0.032200038 0.6973297
0.012861253 -0.027559817 0.69700587
0.015651006 -0.027619451 0.69748551
0.020233747 -0.026671737 0.69726062
0.020233747 -0.026671737 0.69726062
0.026683182 -0.025763065 0.69735563
0.056125816 -0.021162212 0.69735229
0.018429896 0.07003361 0.69769013
0.018429896 0.07003361 0.69769013
0.0027566685 0.071673363 0.69706112
-0.072200418 -0.04257974 0.69869238
-0.054604579 -0.039796561 0.69865739
-0.0018501402 -0.031452388 0.6985532
-0.0018501402 -0.031452388 0.6985532
0.0036991944 -0.030518353 0.6984877
0.0036991944 -0.030518353 0.6984877
0.0073854965 -0.029541969 0.6980986
0.021267038 -0.027739644 0.69845271
0.026807094 -0.02680707 0.69838727
0.064827502 -0.021300465 0.6988036
0.080442049 -0.01849243 0.6984449
0.083397038 -0.018532634 0.69893074
0.086951829 -0.017575383 0.69854105
0.065546535 0.06370014 0.69809949
0.053597204 0.065610379 0.69831657
-0.080754265 -0.044554055 0.69931132
-0.073413953 -0.043676674 0.69957209
-0.045468178 -0.038972735 0.69924176
-0.036283858 -0.038144559 0.69982922
-0.036283858 -0.038144559 0.69982922
-0.016690142 -0.03430751 0.69907475
0.012981018 -0.029670894 0.69907123
0.01485702 -0.029714048 0.69939673
0.043609936 -0.025052518 0.69922942
0.06122987 -0.022265375 0.69919425
0.07232026 -0.020398021 0.6990633
-0.074637085 -0.044782251 0.70045888
-0.066366456 -0.043932736 0.70088756
-0.066366456 -0.043932736 0.70088756
-0.021448083 -0.036368459 0.70035309
-0.02053055 -0.036395073 0.70051765
0.0083925631 -0.03170526 0.70034868
0.062494248 -0.023318708 0.70040733
0.077599287 -0.021503419 0.70093393
0.023303663 0.071775287 0.70026165
0.010253814 0.073641032 0.70026606
0.010253814 0.073641032 0.70026606
-0.061472926 -0.044110477 0.70180047
-0.024420785 -0.038509667 0.70197916
-0.00093883177 -0.034736812 0.70187563
0.0084320642 -0.032791346 0.70140827
0.011267548 -0.032863647 0.70190716
0.021567423 -0.030944556 0.7016058
0.024319664 -0.029931873 0.70104027
0.033762395 -0.029073179 0.70163715
0.086177692 -0.02060771 0.70136428
-0.071448877 -0.046065748 0.70218587
-0.055638902 -0.044322491 0.70288968
-0.027307065 -0.039548129 0.70254946
-0.017853765 -0.037586868 0.70207846
-0.0094147287 -0.036717445 0.70251322
-0.0056388164 -0.03571251 0.70210999
-0.0047024926 -0.035738915 0.70227802
0.01132095 -0.033962846 0.70298153
0.025392953 -0.031035811 0.70227349
0.036656827 -0.029137492 0.70213795
0.039564084 -0.029202074 0.70264101
0.062097866 -0.025403649 0.70236933
0.080962144 -0.022594094 0.70250058
0.080074646 0.065943837 0.70265365
0.045133147 0.07052055 0.70222378
0.033916399 0.072543412 0.70267004
0.025388103 0.073343426 0.7022301
0.021690261 0.074501365 0.7028951
-0.08140292 -0.049220383 0.70373791
-0.05383233 -0.044388026 0.70322639
-0.047242116 -0.043462723 0.7033267
-0.0028390908 -0.03690818 0.70369393
0.0028382381 -0.035951018 0.70362532
0.027443994 -0.03217572 0.7036894
0.055750597 -0.027402848 0.70334679
0.060412411 -0.026430428 0.70310974
0.065373972 -0.026528597 0.70395601
0.084170401 0.066201478 0.70354217
0.085199341 0.066266179 0.70376533
0.076530695 0.067082465 0.70332211
0.069917493 0.068027884 0.70332396
0.057692133 0.069987178 0.70355129
0.065321594 0.069108337 0.70377266
0.059700295 0.070124149 0.70399815
0.059700295 0.070124149 0.70399815
0.038815677 0.072897762 0.70378095
0.038815677 0.072897762 0.70378095
-0.04175875 -0.043656886 0.70434552
-0.035130832 -0.042726696 0.70444679
-0.011388521 -0.038910776 0.70434088
0.014250305 -0.035150737 0.70457673
0.028547211 -0.033305079 0.70495176
0.048363525 -0.029397428 0.70416248
0.049348474 -0.029419273 0.70433259
0.052312322 -0.029485136 0.70484537
0.084372349 -0.023700088 0.70408994
-0.077324726 -0.050595194 0.70568871
-0.059177265 -0.047723621 0.70565152
-0.031426486 -0.042854279 0.70513141
-0.0076150117 -0.039026946 0.70502484
0.027707333 -0.034395307 0.70588166
0.064755253 0.070468992 0.70512307
-0.063108854 -0.048765898 0.70606738
-0.05644061 -0.047831029 0.7061702
-0.048846185 -0.046930641 0.7064473
-0.019140625 -0.0421094 0.70626938
0.0086351763 -0.038378567 0.70685673
0.041119866 -0.03251338 0.70608705
0.048828572 -0.031594962 0.70636392
0.055555295 -0.030651182 0.70646703
0.076788619 -0.027835876 0.70695174
0.045069188 0.074795693 0.70672506
-0.079880416 -0.052932799 0.707569
-0.066466168 -0.051053733 0.70777744
-0.047228724 -0.04819259 0.7079159
-0.044223338 -0.047107458 0.70731848
-0.037510492 -0.046166748 0.70742244
-0.031729955 -0.045191139 0.70735151
-0.02312159 -0.044316381 0.70780683
0.075015485 0.071168542 0.70740539
0.068284154 0.072131157 0.70740825
0.054820795 0.074056149 0.70741296
-0.074442804 -0.053173423 0.7086252
-0.044437781 -0.048301935 0.70844388
0.019349411 -0.038698822 0.70878965
0.033753529 -0.035682321 0.70804513
0.057105318 -0.032908142 0.70889008
0.069698118 -0.030976921 0.70892459
0.079209343 -0.028979063 0.70842683
0.086009793 -0.028025657 0.70853168
0.067726545 0.073531717 0.7088021
-0.070790276 -0.05333513 0.70933509
-0.028104289 -0.046517402 0.7091862
-0.0019402639 -0.042685837 0.70943218
0.053331204 -0.03393805 0.7093178
0.073794268 -0.031071246 0.70963621
0.082319938 0.071666777 0.70903087
0.076586343 0.072708547 0.7092669
-0.063418172 -0.053661525 0.71076775
-0.062490247 -0.053702533 0.71094787
-0.053546332 -0.051599175 0.71026206
-0.052613087 -0.051638752 0.71044236
-0.049804121 -0.051757216 0.71098197
-0.044873141 -0.050726175 0.71072882
-0.035515796 -0.048652023 0.71013439
-0.020475842 -0.046801925 0.71061707
-0.0087699322 -0.044824094 0.71047151
0.0038983268 -0.042881608 0.71050638
0.0038983268 -0.042881608 0.71050638
0.0087618027 -0.041861981 0.71025336
0.016570279 -0.040938348 0.71054035
0.04192517 -0.037050158 0.71060836
0.076882549 -0.031142265 0.71017206
0.08102262 -0.031237632 0.71089131
0.0097906822 -0.043079019 0.71158957
0.013681727 -0.042022467 0.71115452
0.023519175 -0.041158557 0.71180618
0.023519175 -0.041158557 0.71180618
0.038095266 -0.038095236 0.7110424
-0.064980924 -0.056119919 0.7129153
-0.064980924 -0.056119919 0.7129153
-0.069634743 -0.055903941 0.71200067
-0.033474326 -0.051196039 0.71291041
-0.014765624 -0.048234373 0.71287072
-0.0058889533 -0.046130121 0.71217477
0.034420285 -0.040320933 0.71264422
0.037272703 -0.03923443 0.71202224
0.045175098 -0.038300604 0.71231365
-0.024662906 -0.050312281 0.71338761
-0.0098819137 -0.048421383 0.71379203
0.0029650081 -0.046451807 0.71382695
0.0098879095 -0.045484364 0.71393687
0.014815745 -0.044447243 0.71367735
0.068998806 -0.035485089 0.71318996
0.075933538 -0.034515232 0.71329916
-0.027695419 -0.051434338 0.71401674
0.027797941 -0.043682456 0.71490073
0.03968633 -0.04167062 0.71474975
0.03968633 -0.04167062 0.71474975
0.072482638 -0.03673777 0.71493196
0.077362679 -0.035705835 0.7146703
-0.04768547 -0.055633038 0.71506095
-0.04768547 -0.055633038 0.71506095
-0.040750358 -0.054665089 0.71517295
-0.03283982 -0.053737909 0.71547109
0.017909309 -0.045768201 0.7154265
0.045853388 -0.041866153 0.71587348
0.060605887 -0.038748056 0.71508312
0.073532723 -0.03676635 0.71511841
0.082643062 -0.03584519 0.71560472
-0.067851394 -0.059868872 0.71611536
-0.067851394 -0.059868872 0.71611536
-0.0039911238 -0.049889058 0.71610719
0.053894959 -0.040920228 0.71617329
0.053894959 -0.040920228 0.71617329
-0.080278434 -0.063219279 0.71748322
-0.076120332 -0.062098175 0.71702516
-0.074233904 -0.062195957 0.71740603
-0.059288692 -0.060293585 0.71782422
-0.056123398 -0.059129983 0.71717489
-0.036101531 -0.056157917 0.71732378
-0.030075036 -0.055137545 0.71724677
-0.023068393 -0.054160535 0.71736079
-0.023068393 -0.054160535 0.71736079
-0.018033544 -0.053098828 0.71709287
0.034083739 -0.045110822 0.71723747
0.050249144 -0.043214262 0.71784586
0.062269211 -0.041178018 0.71769118
-0.069491304 -0.062441438 0.71836197
-0.058329694 -0.06034106 0.71801525
-0.012079318 -0.053350329 0.71823871
-0.011081441 -0.05339241 0.7184304
-0.0040315059 -0.052409589 0.71854448
0.0030250617 -0.051426053 0.71865976
0.0070450678 -0.050321907 0.71819723
0.021155119 -0.048354536 0.71842623
0.034256257 -0.046346694 0.71846253
0.059415542 -0.042295814 0.71834332
0.060470264 -0.042329162 0.71853513
0.064379416 -0.041243106 0.7180742
0.064379416 -0.041243106 0.7180742
0.079605944 -0.039299101 0.71849465
-0.057660725 -0.061707079 0.71944141
-0.05572582 -0.06180501 0.7198289
-0.046466373 -0.059598178 0.71909064
-0.035484102 -0.058802217 0.71998215
-0.012140661 -0.054632992 0.71947283
0.031317912 -0.047481984 0.71911871
0.071817473 -0.041472077 0.71942258
-0.044743933 -0.061014473 0.72072482
-0.037643563 -0.060026258 0.72084212
-0.028400684 -0.057815671 0.72009772
-0.02230764 -0.05678311 0.72001892
-0.02230764 -0.05678311 0.72001892
0.023324726 -0.049691796 0.72005147
0.039651204 -0.047784805 0.72067404
0.057895709 -0.044691443 0.72043669
0.08216688 -0.04057622 0.72012079
-0.085750915 -0.068396598 0.72167516
-0.085750915 -0.068396598 0.72167516
-0.078642383 -0.067407727 0.72179234
-0.074413918 -0.066258967 0.72131902
-0.074413918 -0.066258967 0.72131902
-0.04890544 -0.062150627 0.72119689
-0.04890544 -0.062150627 0.72119689
-0.013276768 -0.057192236 0.72178274
-0.013276768 -0.057192236 0.72178274
-0.0081611471 -0.056107908 0.721506
-0.0081611471 -0.056107908 0.721506
0.035652682 -0.048895091 0.72114497
0.035652682 -0.048895091 0.72114497
0.049961355 -0.046902478 0.72137952
0.057125811 -0.045904666 0.7214964
-0.062460668 -0.065532506 0.72242385
-0.031690806 -0.060314745 0.72202277
-0.028692978 -0.06046018 0.72261786
-0.024546498 -0.059320718 0.72214031
0.015348605 -0.05320853 0.72225368
0.044083521 -0.049209535 0.72272635
0.054213192 -0.04705292 0.72216916
0.070760168 -0.045122445 0.72280157
0.079745747 -0.042939991 0.72204632
-0.052372366 -0.064695269 0.72313941
-0.025680654 -0.060606331 0.72321594
-0.025680654 -0.060606331 0.72321594
0.0082242452 -0.05551365 0.72341013
0.023686547 -0.053552181 0.7238493
0.037080251 -0.05150035 0.72388726
0.083441839 -0.044296324 0.72392088
-0.047428701 -0.064956695 0.72414112
-0.0061942181 -0.058845073 0.72445768
-0.0061942181 -0.058845073 0.72445768
0.03302443 -0.05263266 0.72437167
0.04026787 -0.05162549 0.72449142
0.046447705 -0.050576389 0.7244097
0.048590586 -0.050658256 0.72481316
0.064962938 -0.047433287 0.72416508
0.073306575 -0.04646191 0.72448599
-0.05490391 -0.06733498 0.72531545
0.00414153 -0.057981431 0.72518504
0.028041467 -0.055044383 0.72595525
0.060187224 -0.049810112 0.72574705
0.071496539 -0.047664374 0.72537798
-0.047924969 -0.067720056 0.72674572
-0.028124914 -0.064583153 0.72670138
-0.027105477 -0.064636141 0.72690773
-0.021867702 -0.063520461 0.72661823
0.0052082255 -0.059373736 0.72669697
0.032300964 -0.05522424 0.72677457
-0.051192947 -0.068953753 0.72744751
-0.010452439 -0.062714607 0.72756577
-0.004179589 -0.061648935 0.72748208
0.011514491 -0.059665978 0.72793472
0.015670687 -0.058503896 0.72743744
0.022994857 -0.05748716 0.72756022
-0.027248062 -0.066024125 0.72823173
-0.012588368 -0.063990861 0.72847998
0.05045113 -0.054655403 0.72897124
-0.052748017 -0.071737319 0.72991157
-0.043117456 -0.069408596 0.72911125
-0.039039634 -0.069638312 0.72995132
-0.022098813 -0.066296428 0.72927523
0 -0.06323269 0.7296502
0.012638082 -0.061084062 0.72948015
0.024186872 -0.058889776 0.72910106
0.046338808 -0.055817217 0.72947562
0.075976476 -0.051706225 0.7299763
-0.045385584 -0.070717037 0.73003668
-0.042324267 -0.070893139 0.73067111
0.031731263 -0.059231669 0.73057508
0.063356176 -0.053852737 0.73014718
-0.045627315 -0.07215485 0.73139393
-0.033904206 -0.069927424 0.73100901
-0.016997147 -0.067988575 0.73168874
0.022282207 -0.061541319 0.73138344
0.037173904 -0.059478253 0.73163795
-0.012790472 -0.068215847 0.73254597
0.019153306 -0.062780291 0.73211139
0.041560784 -0.059677035 0.73249495
-0.02992489 -0.07160601 0.73323971
-0.022454839 -0.070572376 0.73336816
-0.01285927 -0.069654375 0.73393011
0.038473118 -0.060915798 0.73322803
0.055721231 -0.05893591 0.73391956
-0.0021497051 -0.068790555 0.73471391
0.0032207482 -0.067635685 0.73440731
0.037574712 -0.062266678 0.73440266
0.0719271 -0.056897581 0.73439682
0.016179977 -0.066877216 0.73563439
0.043123968 -0.062529743 0.73549777
0.061336908 -0.0591847 0.73501176
0.068904027 -0.058137774 0.73514199
0.07003969 -0.058186829 0.73536128
0.0043212692 -0.069140345 0.73603326
0.032419898 -0.06483981 0.73611677
0.032419898 -0.06483981 0.73611677
0.032419898 -0.06483981 0.73611677
0.074601933 -0.05838412 0.73624325
0.044480521 -0.064008564 0.73713738
0.024002714 -0.068735063 0.7386201
0.025115201 -0.068793833 0.73884535
0.063148662 -0.062059909 0.73807395
0.07847099 -0.05994314 0.73834068
0.030706434 -0.069089472 0.73997831
0.055803958 -0.064557523 0.7393837
0.058092155 -0.064668596 0.73983836
0.061538827 -0.064835548 0.74052131
0.059567079 -0.066185623 0.74153197
0.02878068 -0.071951717 0.74246275
0.066531032 -0.066531032 0.74292177
0.035607714 -0.07232818 0.74386102
0.035607714 -0.07232818 0.74386102
0.07004001 -0.06670478 0.74362081
0.077862896 -0.065627277 0.74376112
0.079044066 -0.065684527 0.74399519
0.049200885 -0.071564943 0.74517941
0.067661121 -0.071044177 0.74746895
0.076791085 -0.07001543 0.74785411
0.073624939 -0.071359515 0.74867749
0.074824348 -0.071423262 0.74892145
-0.061052438 0.019782379 0.63990748
-0.050952978 0.02167457 0.63960147
-0.056851678 0.022268422 0.63813275
-0.046920259 0.023018217 0.63915193
-0.06643825 0.02563104 0.63806057
-0.059386376 0.017954022 0.64193249
-0.053143196 0.019636925 0.64124602
-0.060609169 0.027166238 0.64055812
-0.042981423 0.019141037 0.64326525
-0.032967806 0.025334708 0.64278638
-0.026928619 0.024671279 0.64299512
-0.063573904 0.030739039 0.64388198
-0.015018531 0.021530097 0.64518231
-0.0090054497 0.024721809 0.64574653
-0.039081678 0.02852061 0.64522791
-0.065331049 0.011185452 0.64759606
-0.07005661 0.012029946 0.6460616
-0.047577877 0.013593733 0.6479485
-0.036932237 0.01570078 0.6475172
-0.032988284 0.016892895 0.64695829
-0.024988636 0.017491605 0.64758885
0.00094788068 0.022330305 0.64682353
-0.032525301 0.030023471 0.64780033
-0.032525301 0.030023471 0.64780033
-0.032976709 0.014868163 0.64892352
-0.014676394 0.018614084 0.64806151
-0.0048926938 0.019029416 0.64914018
-0.0010820902 0.027056575 0.64940298
-0.065255262 0.007435462 0.65124387
-0.04099559 0.011295963 0.65117323
0.00090790779 0.01851486 0.65051734
0.031079104 0.02193813 0.65176588
0.019185461 0.026310988 0.65166682
-0.026636723 0.032596901 0.65140235
-0.047029115 0.035364684 0.65125334
-0.073031612 0.0047762319 0.65264529
-0.06106044 0.0059031546 0.65336502
-0.055017982 0.0070033185 0.6532129
-0.041004855 0.0092139468 0.65319079
-0.019610932 0.011840627 0.65388286
-0.026935868 0.012460284 0.65217292
0.015050055 0.018719986 0.65245956
0.037116081 0.021050058 0.65354085
0.049089719 0.023252688 0.6534363
0.0031374386 0.030263327 0.65342188
-0.027003486 0.033800758 0.65261781
-0.020961316 0.033097044 0.65278447
-0.055148847 0.037376888 0.65215451
-0.038908735 0.036143079 0.65329731
-0.074286982 0.0025993586 0.65456623
-0.043419454 0.0059888959 0.65595233
0.015124399 0.01670108 0.65442866
0.033031568 0.018980831 0.65492898
0.035034116 0.020019323 0.65422499
0.047020014 0.021040723 0.65504932
0.056953579 0.022892106 0.65495729
0.034991037 0.027174875 0.65495777
0.04514524 0.026117012 0.65537024
0.024950588 0.0286754 0.65502965
-0.033030104 0.03684647 0.65492409
-0.070782684 0.041506156 0.65415859
-0.05163455 0.040409654 0.65588361
-0.058964647 0.0026324876 0.65685374
-0.045062695 0.0048140734 0.65684313
-0.031065399 0.0068737729 0.65696496
0.025056303 0.015447345 0.657148
0.025056303 0.015447345 0.657148
0.029156834 0.01676802 0.65648806
0.031092679 0.016907692 0.65664583
0.047007613 0.018983044 0.65704286
0.052732177 0.019380908 0.65752387
0.065126032 0.023000121 0.65629047
0.049034733 0.027108196 0.65700132
0.034982629 0.028965019 0.65684563
0.019088497 0.031219572 0.65683198
-0.052982427 0.041333929 0.65665597
-0.052982427 0.041333929 0.65665597
-0.065083615 0.04326541 0.65687245
-0.066994451 -0.0010677755 0.65922624
-0.052662835 0.0022732466 0.65815628
-0.033032022 0.0049351156 0.65854716
-0.033032022 0.0049351156 0.65854716
-0.011194463 0.0073774261 0.65948486
0.0049323114 0.01100187 0.65841204
0.018367335 0.011479586 0.65998268
0.042461239 0.015301317 0.65992469
0.069001235 0.020880148 0.6585331
-0.0049556987 0.036979318 0.65929043
-0.0030469173 0.0365678 0.65914339
-0.023014078 0.039182737 0.65889728
-0.064319842 -0.0015313923 0.66008085
-0.019005988 0.0049908087 0.66061664
-0.015022026 0.0050066337 0.66120446
0.014955457 0.010544576 0.66037279
0.055031143 0.015447237 0.6616863
0.067200527 0.018432111 0.66063428
0.067200527 0.018432111 0.66063428
0.052868299 0.030871913 0.66155005
0.022738561 0.034944292 0.66131181
0.016621225 0.03633444 0.66185796
-0.018963633 0.039843664 0.66020447
-0.014963009 0.039516211 0.66046101
-0.020963714 0.041157324 0.66128939
-0.052611198 0.045059294 0.66064322
-0.044936407 0.044743977 0.66146553
-0.037496954 0.044068769 0.66187322
-0.059392866 -0.0046889186 0.66388881
-0.046803273 -0.00129354 0.66250205
-0.026318233 0.002322197 0.66209757
-0.005046891 0.0050462335 0.66267633
0.00096980296 0.0062046647 0.66246396
0.060988486 0.015034991 0.66298801
0.06697309 0.029421672 0.66214287
0.061233133 0.030811911 0.66274571
0.054702327 0.032821387 0.66388309
0.030820487 0.035391107 0.66299993
0.036971509 0.034637421 0.66313052
0.038823001 0.034539625 0.663306
0.012848364 0.038155302 0.66321141
-0.064922534 0.048983604 0.66293085
-0.077009492 0.051017154 0.66325724
-0.077009492 0.051017154 0.66325724
-0.07298135 -0.0086788535 0.66570032
-0.033117503 -0.0011765584 0.66446066
-0.015131843 0.0010793954 0.66499615
-0.012985617 0.0011797473 0.66522366
0.012917012 0.0062627196 0.66421634
0.012917012 0.0062627196 0.66421634
0.024850842 0.0072334707 0.6650818
0.054908872 0.011493395 0.66550183
0.074873298 0.015130054 0.66499794
0.053243671 0.034706891 0.66565299
0.0029484425 0.041273173 0.66501117
0.012994852 0.040165424 0.66535461
-0.0090313749 0.042802751 0.66482198
-0.015151402 0.044078089 0.66524637
-0.059081901 0.049300253 0.6641444
-0.0570563 0.049409956 0.66456473
-0.069129825 0.050917491 0.66433793
-0.054974154 -0.007080493 0.66687655
-0.052915514 -0.0068518147 0.66696644
-0.017567024 -0.0023954809 0.66799676
0.017017253 0.0047489703 0.66630524
0.028928965 0.0063405931 0.66656518
0.047072504 0.0091164336 0.66662031
0.061004169 0.010888329 0.66701138
0.069145337 0.033284649 0.66654593
-0.0051400159 0.043493807 0.66613674
-0.022133853 0.045848727 0.66606385
-0.014848463 0.045140684 0.66641325
-0.013166562 0.046283051 0.66787183
-0.046595357 0.050711107 0.6675126
-0.046595357 0.050711107 0.6675126
-0.04109779 0.050275177 0.6678803
-0.074967667 -0.012445342 0.66905189
-0.077169336 -0.011995256 0.66828227
-0.062727265 -0.0095889121 0.66813534
-0.026933864 -0.0052268133 0.66932428
-0.026771648 -0.0039957613 0.66815519
-0.010859246 -0.0028162077 0.66942048
0.0084547196 -2.9802322e-08 0.66961384
0.01677092 0.0013411343 0.66957253
0.022974603 0.0029080659 0.66899216
0.030859634 0.0044077039 0.66873187
0.041201536 0.0064002275 0.66836524
0.041201536 0.0064002275 0.66836524
0.07299839 0.010828692 0.66888505
0.060855273 0.036954731 0.6691708
0.041054763 0.039251924 0.66861451
0.025054891 0.041690588 0.66877925
0.030794736 0.041239642 0.66916752
-0.0010694789 0.045438163 0.66880125
0.0087060994 0.044472836 0.66925448
0.0087060994 0.044472836 0.66925448
-0.013044802 0.047364332 0.66903108
-0.029004872 0.049456425 0.66883659
-0.029004872 0.049456425 0.66883659
-0.022912838 0.049041882 0.66931587
-0.06101374 0.053612456 0.66840363
-0.043120831 0.052389994 0.6698072
-0.059670247 0.054832131 0.66989279
-0.071333751 0.056422308 0.66981512
-0.065066561 -0.012873452 0.67096591
-0.052993946 -0.010944244 0.67092299
-0.050853629 -0.01096341 0.67126566
-0.04490561 -0.0093056038 0.67055863
-0.039022364 -0.0088199414 0.67097843
-0.028935242 -0.0068806261 0.67062497
-0.028935242 -0.0068806261 0.67062497
-0.0068727806 -0.0032343417 0.67042947
0.017174292 0.0006057173 0.67034644
-0.0050588856 0.047760263 0.6706512
-0.021243934 0.050605562 0.67121714
-0.073063821 0.057479955 0.67067063
-0.065130956 0.05681245 0.6711607
-0.06890738 -0.016455583 0.67385799
-0.01675445 -0.0069478676 0.67253447
0.0028694686 -0.0045098141 0.67314136
0.0028694686 -0.0045098141 0.67314136
0.029162858 -0.00082147121 0.6735456
0.041203283 0.0024476945 0.67219824
0.059059031 0.0045029148 0.67290878
0.074089244 0.0057625175 0.67396295
0.07706207 0.0081547201 0.67209351
0.061030123 0.040551327 0.67299247
0.037132975 0.043253601 0.67224687
0.02312912 0.045847923 0.67287636
0.031090276 0.044592284 0.67274964
-0.019196076 0.051462308 0.67242944
-0.037159726 0.055021755 0.67348158
-0.060757302 0.057087556 0.67210948
-0.056919102 0.057328761 0.67294139
-0.075006381 -0.018623289 0.67503679
-0.029923543 -0.012468159 0.67589331
-0.035031736 -0.011539921 0.6742202
-0.021163885 -0.010789469 0.67559195
-0.015032946 -0.0092142699 0.67499292
-0.0070151975 -0.0074280053 0.6744746
0.016991917 -0.0045596361 0.67532784
0.022850242 -0.004154548 0.67582172
0.055161566 0.0012433901 0.67547941
0.053530343 0.0024706423 0.67404264
0.047189668 0.04368607 0.67421681
0.01697435 0.048852518 0.67512047
0.01697435 0.048852518 0.67512047
-0.0088007934 0.052599091 0.67519403
-0.045009844 0.058077827 0.67552483
-0.045009844 0.058077827 0.67552483
-0.063007981 -0.018809404 0.67703366
-0.054993723 -0.018471241 0.67791915
-0.055149999 -0.017188489 0.67665166
-0.055149999 -0.017188489 0.67665166
-0.048924811 -0.015822619 0.67626983
-0.011245286 -0.0099959075 0.67632413
0.017098583 -0.0058385134 0.67658401
0.043106399 -0.0025110394 0.67729485
0.050945416 -0.0012561232 0.67726493
0.062999964 0.0010068379 0.67689568
0.077059098 0.0029268526 0.67716229
0.07810092 0.042829543 0.677966
0.051493105 0.046050578 0.67735964
0.0029258202 0.052661538 0.67702496
-0.014833848 0.055158697 0.67698646
-0.0071173576 0.05442822 0.67737758
-0.01719569 0.05620116 0.67773134
-0.052851163 0.06080091 0.6772176
-0.0071636429 -0.011799186 0.67869103
0.0071534477 -0.0092572272 0.67839348
0.0071534477 -0.0092572272 0.67839348
0.070782274 -0.00084768236 0.67987204
0.073126346 0.043707728 0.6781441
0.073126346 0.043707728 0.6781441
0.017032862 0.052650511 0.67913675
-0.020604674 0.057188988 0.67826045
-0.035024468 0.059921697 0.67897332
-0.062604815 0.063025177 0.67809653
-0.079052508 -0.025110889 0.68071508
-0.072978757 -0.024753079 0.68128783
0.016853303 -0.010667302 0.68122929
0.020838454 -0.0093559772 0.68056089
0.020838454 -0.0093559772 0.68056089
0.062509425 -0.0042814612 0.68194908
0.057120122 -0.0033974648 0.68027616
0.080696888 -0.00085392594 0.68137944
0.077195875 -0 0.68002081
0.084071673 0.00084918737 0.68023872
0.084071673 0.00084918737 0.68023872
0.080478169 0.046232134 0.68191463
0.048863422 0.049288154 0.68038034
-0.013219329 0.058848202 0.68112308
-0.0068259072 0.058020234 0.68121153
-0.0049153501 0.058135487 0.68162084
-0.035034783 0.061152525 0.68027055
-0.044901464 0.062990449 0.6807248
-0.044901464 0.062990449 0.6807248
-0.071028128 0.066877082 0.68089324
-0.080071971 0.068146378 0.68087137
-0.040794406 -0.021042332 0.68256211
-0.031166613 -0.019774936 0.68279076
-0.016810192 -0.018103436 0.68334329
-0.015041275 -0.017190188 0.68272555
-0.0047450578 -0.016392499 0.68351126
0.0071227262 -0.014676295 0.68364358
0.01678073 -0.012478814 0.68297499
0.040941689 -0.0090511665 0.6833092
0.045110621 -0.0077332407 0.68266213
0.068975583 -0.0047429055 0.68337578
0.077275865 0.048351273 0.68366849
0.021424573 0.054846883 0.68211555
0.033184629 0.054301813 0.68331069
0.0030170963 0.05861415 0.68332022
-0.018794008 0.062216401 0.68383777
-0.067171469 0.067815825 0.68246442
-0.075130671 -0.029140119 0.68521607
-0.061109237 -0.026966557 0.68523115
-0.055042416 -0.026107274 0.68531668
-0.010850593 -0.018664211 0.68478966
0.021246934 -0.013442785 0.68458599
0.029103205 -0.012597784 0.68495589
0.035275578 -0.012193963 0.68549919
0.035275578 -0.012193963 0.68549919
0.05080051 -0.0091189444 0.68486762
0.044854723 0.053738356 0.68447298
0.057150088 0.0528001 0.68533361
0.021250509 0.057245746 0.68462074
-0.0047769425 0.061235584 0.68491304
-0.019125458 0.063463494 0.68510431
-0.033186164 0.065071963 0.68468499
-0.048977394 -0.026736539 0.68684494
-0.028935455 -0.023674786 0.68691051
-0.018835008 -0.021901324 0.68671966
0.012709757 -0.017093204 0.68683332
0.018894613 -0.016697422 0.68738556
0.071195602 0.051540241 0.68611842
0.080791488 0.051228326 0.68723369
0.07401415 0.052867264 0.68794298
0.040850665 0.055923171 0.68617541
-0.004822372 0.063131839 0.68690729
