# .PCD v0.7 - Point Cloud Data file format
VERSION 0.7
FIELDS x y z
SIZE 4 4 4
TYPE F F F
COUNT 1 1 1
WIDTH 1356
HEIGHT 1
VIEWPOINT 0 0 0 1 0 0 0
POINTS 1356
DATA ascii
0.022494003 -0.0069212317 0.68408823
0.022604 -0.0078244507 0.68510956
0.022714991 -0.0087365508 0.68614024
0.022827167 -0.0096576214 0.68718177
0.022940451 -0.010587901 0.68823373
0.023054868 -0.011527449 0.68929613
0.023170432 -0.012476385 0.69036913
0.02328716 -0.013434887 0.69145304
0.023405069 -0.014403105 0.69254792
0.023524089 -0.015381157 0.69365305
0.023644419 -0.016369224 0.69477034
0.023765981 -0.017367452 0.69589913
0.023888804 -0.018375963 0.69703948
0.024012903 -0.019395024 0.69819188
0.024138296 -0.020424694 0.6993562
0.024265006 -0.021465182 0.70053267
0.024392957 -0.022516578 0.70172083
0.024522362 -0.02357921 0.70292246
0.024653146 -0.024653137 0.70413685
0.024785332 -0.025738627 0.70536423
0.024918947 -0.026835799 0.70660484
0.02505401 -0.027944833 0.70785898
0.025190542 -0.029066026 0.70912677
0.025328573 -0.030199468 0.71040845
0.025468018 -0.031345278 0.71170324
0.025609111 -0.032503873 0.71301341
0.025751781 -0.033675432 0.71433806
0.025896046 -0.034860075 0.71567774
0.026041938 -0.036058068 0.71703237
0.026189482 -0.037269622 0.71840233
0.02633871 -0.038495034 0.71978796
0.026489532 -0.039734274 0.72118843
0.026642207 -0.040987998 0.72260618
0.026796652 -0.042256266 0.72404021
0.026952898 -0.043539286 0.72549105
0.027110979 -0.044837385 0.72695887
0.027270922 -0.046150804 0.72844404
0.027432766 -0.047479779 0.72994679
0.027596418 -0.04882443 0.73146641
0.027762156 -0.050185442 0.73300529
0.027929902 -0.051562935 0.73456293
0.028099686 -0.052957118 0.73613942
0.028271545 -0.054368317 0.73773521
0.02844552 -0.055796951 0.73935068
0.028621651 -0.057243317 0.74098611
0.028799975 -0.058707654 0.74264187
0.028980399 -0.060190052 0.74431723
0.029163236 -0.061691463 0.74601495
0.029348394 -0.063211888 0.74773419
0.029535919 -0.064751834 0.74947554
0.029725855 -0.066311479 0.75123912
0.029918252 -0.067891449 0.75302565
0.030113153 -0.069491863 0.75483537
0.030310461 -0.07111302 0.75666749
0.030510524 -0.072755873 0.75852513
0.030713245 -0.074420542 0.76040745
0.02847147 0.07592392 0.72980011
0.027855117 0.073248625 0.72428894
0.027264766 0.07068646 0.71901035
0.026698921 0.068230569 0.71395081
0.026156191 0.065874845 0.70909798
0.025634984 0.063612759 0.70443755
0.025134243 0.061439246 0.69996023
0.024652591 0.059348822 0.69565356
0.024189148 0.057337224 0.6915096
0.023742717 0.055399686 0.68751776
0.023312466 0.053532332 0.68367076
0.022897612 0.051731646 0.67996126
0.022497186 0.049993753 0.67638087
0.022110604 0.048315763 0.67292422
0.021737007 0.046694338 0.66958374
0.021375827 0.045126736 0.66635418
0.02102652 0.043610573 0.6632309
0.020688381 0.042142987 0.66020739
0.020361008 0.040722013 0.65728015
0.020043774 0.039345145 0.65444362
0.019736333 0.038010716 0.65169466
0.019438121 0.036716431 0.64902818
0.019148845 0.0354608 0.64644158
0.018867997 0.034241915 0.64393038
0.018595269 0.033058256 0.64149177
0.018493228 0.032191932 0.64057934
0.018564694 0.031628758 0.64121836
0.018636772 0.031061292 0.64186287
0.01870941 0.030489385 0.64251232
0.018782616 0.029913068 0.6431669
0.018856397 0.029332161 0.64382666
0.018930761 0.028746724 0.64449155
0.019005714 0.028156608 0.64516175
0.019081205 0.027561754 0.64583671
0.019157356 0.026962221 0.64651769
0.019234117 0.026357859 0.64720404
0.019311497 0.02574864 0.64789593
0.019389499 0.025134563 0.64859337
0.019468136 0.02451542 0.64929652
0.019547412 0.02389127 0.6500054
0.019627279 0.023261964 0.65071952
0.019707859 0.022627532 0.65144002
0.019789105 0.021987915 0.65216649
0.019871023 0.021342933 0.65289891
0.019953623 0.020692647 0.65363753
0.020036912 0.020036906 0.65438223
0.020120898 0.019375652 0.65513325
0.020205528 0.018708795 0.65588993
0.020290937 0.018036425 0.65665364
0.020377072 0.017358243 0.65742379
0.020463942 0.01667434 0.65820056
0.020551553 0.015984565 0.65898395
0.020639921 0.01528883 0.65977407
0.02072905 0.014587104 0.66057098
0.020818952 0.013879269 0.66137493
0.020909568 0.013165265 0.66218513
0.021001048 0.012445092 0.66300309
0.021093331 0.011718512 0.66382825
0.021186426 0.010985553 0.66466069
0.02128035 0.010246068 0.66550052
0.02137511 0.0095000565 0.6663478
0.021470714 0.0087473094 0.66720265
0.021567108 0.0079878271 0.66806453
0.021664444 0.0072214603 0.66893494
0.021762663 0.0064482093 0.66981316
0.021861777 0.0056678951 0.6706993
0.021961795 0.0048803985 0.67159367
0.022062736 0.0040856898 0.6724962
0.022164609 0.0032836497 0.67340708
0.022267347 0.002474159 0.67432576
0.022371121 0.0016570985 0.67525369
0.022475868 0.00083243847 0.67619026
0.022581598 -0 0.67713565
0.022688329 -0.00084030628 0.67808998
0.022796074 -0.0016885996 0.67905337
0.022904847 -0.0025449693 0.68002599
0.023014581 -0.0034095645 0.68100715
0.023125455 -0.0042824745 0.68199855
0.0232374 -0.0051638484 0.68299949
0.023350436 -0.0060537755 0.68401021
0.023464577 -0.0069524348 0.68503082
0.02357984 -0.0078599155 0.6860615
0.02369624 -0.0087763965 0.68710226
0.023813795 -0.0097019076 0.68815339
0.023932433 -0.010636628 0.68921417
0.02405235 -0.011580735 0.6902864
0.024173474 -0.01253438 0.69136941
0.024295824 -0.01349768 0.6924634
0.024419418 -0.014470786 0.69356859
0.024544276 -0.015453815 0.69468498
0.02467042 -0.016446918 0.69581288
0.024797769 -0.017450303 0.69695157
0.024926536 -0.018464088 0.69810301
0.025056649 -0.019488513 0.69926643
0.025188128 -0.020523638 0.70044202
0.025320994 -0.021569729 0.70163
0.025455264 -0.022626877 0.70283061
0.025590971 -0.02369535 0.70404404
0.02572803 -0.024775147 0.70526958
0.025866667 -0.025866657 0.70650923
0.026006805 -0.026970029 0.70776224
0.026148472 -0.028085411 0.70902896
0.026291691 -0.029213011 0.71030957
0.026436487 -0.03035301 0.71160424
0.026582886 -0.031505644 0.71291327
0.026730804 -0.032670975 0.7142359
0.02688049 -0.033849478 0.71557426
0.027031863 -0.035041302 0.71692783
0.02718495 -0.036246568 0.71829665
0.027339781 -0.037465602 0.71968102
0.027496386 -0.038698584 0.72108138
0.027654795 -0.039945841 0.72249782
0.02781504 -0.041207463 0.7239306
0.027977027 -0.042483658 0.72537905
0.028141042 -0.043774962 0.72684556
0.028306987 -0.045081496 0.72832942
0.028474903 -0.046403527 0.72983086
0.028644821 -0.047741354 0.73135012
0.02881678 -0.049095243 0.73288769
0.028990816 -0.050465524 0.7344439
0.029166834 -0.051852196 0.73601776
0.029345136 -0.053256005 0.73761207
0.029525634 -0.054677069 0.73922592
0.029708365 -0.056115746 0.74085981
0.02989337 -0.057572424 0.74251407
0.030080697 -0.059047282 0.74418902
0.030270385 -0.060540795 0.74588525
0.030462336 -0.062052935 0.74760151
0.030656882 -0.063584656 0.74934107
0.030853929 -0.065136075 0.75110304
0.031053528 -0.066707581 0.75288767
0.031255726 -0.068299532 0.75469565
0.031460572 -0.069912374 0.75652725
0.031668123 -0.071546525 0.7583831
0.031878427 -0.073202312 0.76026356
0.032091387 -0.074879915 0.76216769
0.029859386 0.076781273 0.7326749
0.029205717 0.074057341 0.72703886
0.028580055 0.071450144 0.72164428
0.027980756 0.06895259 0.71647698
0.02740596 0.066557318 0.71152103
0.026854416 0.064258814 0.70676547
0.026324527 0.0620507 0.70219672
0.025815144 0.05992803 0.69780469
0.025325198 0.057886153 0.69358027
0.02485341 0.055920184 0.68951243
0.024398968 0.054026306 0.68559408
0.02396076 0.052200258 0.6818158
0.023538098 0.050438792 0.67817158
0.023130007 0.048738241 0.67465287
0.022735827 0.047095656 0.67125422
0.022354933 0.045508265 0.66797006
0.021986518 0.043973029 0.66479349
0.021630116 0.042487711 0.66172057
0.021285022 0.041049719 0.65874505
0.020950828 0.039656907 0.65586364
0.020626903 0.03830713 0.65307069
0.020312844 0.036998391 0.65036285
0.020008264 0.03572908 0.64773661
0.019712625 0.034497082 0.64518762
0.019425651 0.033301115 0.64271325
0.019246619 0.03230682 0.64116961
0.019321321 0.031742185 0.6418137
0.019396605 0.03117314 0.64246279
0.01947242 0.030599535 0.64311653
0.019548889 0.030021518 0.64377582
0.01962596 0.029438943 0.64444035
0.019703642 0.028851777 0.64511013
0.01978194 0.028259933 0.64578521
0.019860864 0.02766335 0.64646572
0.019940419 0.027061999 0.64715165
0.020020615 0.02645582 0.64784312
0.020101398 0.025844634 0.64853966
0.020182896 0.025228649 0.64924234
0.020265058 0.024607599 0.64995074
0.020347891 0.023981452 0.65066499
0.020431405 0.023350179 0.65138507
0.020515608 0.022713721 0.65211105
0.020600507 0.022071958 0.65284312
0.020686045 0.02142483 0.65358061
0.020772364 0.020772368 0.65432489
0.020859405 0.020114422 0.65507537
0.020947181 0.019450933 0.65583217
0.021035695 0.018781841 0.65659541
0.021124963 0.018107086 0.65736508
0.021214992 0.01742661 0.65814126
0.021305721 0.016740203 0.65892363
0.0213973 0.016047984 0.65971315
0.021489669 0.015349746 0.66050959
0.02158284 0.014645517 0.66131294
0.021676822 0.013935119 0.66212326
0.021771627 0.013218462 0.66294068
0.021867262 0.012495607 0.66376531
0.021963671 0.011766255 0.66459656
0.022061005 0.011030525 0.66543579
0.022159208 0.010288209 0.66628247
0.022258285 0.0095392764 0.66713679
0.022358255 0.0087836087 0.66799873
0.022459129 0.0080211163 0.66886848
0.022560915 0.0072517097 0.6697461
0.02266355 0.0064752996 0.67063105
0.022767203 0.0056918263 0.67152476
0.022871807 0.0049011111 0.6724267
0.022977378 0.0041031241 0.67333686
0.023083927 0.0032977164 0.67425561
0.023191469 0.0024847984 0.67518282
0.023300016 0.0016642809 0.67611879
0.023409503 0.00083604455 0.67706275
0.023520106 -0 0.67801642
0.023631761 -0.00084397197 0.6789791
0.023744481 -0.0016960502 0.67995101
0.023858279 -0.0025562644 0.68093222
0.023973174 -0.0034247041 0.68192285
0.024089182 -0.0043016374 0.68292314
0.024206232 -0.0051870644 0.68393236
0.024324512 -0.0060811341 0.68495214
0.024443952 -0.0069839954 0.68598199
0.024564572 -0.0078957677 0.68702203
0.024686389 -0.0088165402 0.68807232
0.024809418 -0.0097465515 0.68913311
0.024933683 -0.010685861 0.69020456
0.0250591 -0.011634618 0.69128591
0.025185885 -0.012592942 0.69237912
0.025313959 -0.01356107 0.69348335
0.025443342 -0.014539063 0.69459891
0.025574051 -0.015527099 0.69572592
0.025706112 -0.016525358 0.6968646
0.025839547 -0.017533988 0.69801509
0.025974266 -0.018553019 0.69917667
0.026110504 -0.019582897 0.70035136
0.026248181 -0.020623565 0.70153844
0.026387315 -0.021675289 0.70273805
0.026527932 -0.022738218 0.70395046
0.026670055 -0.023812562 0.70517588
0.02681371 -0.02489844 0.70641452
0.02695892 -0.025996119 0.70766652
0.027105603 -0.0271056 0.70893121
0.027254 -0.028227359 0.71021074
0.027404031 -0.029361457 0.71150434
0.027555726 -0.030508131 0.7128123
0.027709106 -0.031667531 0.71413487
0.027864207 -0.032839954 0.7154721
0.028021052 -0.03402555 0.71682441
0.028179552 -0.035224438 0.71819103
0.028339976 -0.036437094 0.71957427
0.028502241 -0.037663668 0.72097337
0.028666371 -0.038904369 0.72238851
0.028832402 -0.040159404 0.72382009
0.029000372 -0.041429102 0.7252683
0.029170305 -0.042713672 0.72673351
0.029342115 -0.044013172 0.72821486
0.02951609 -0.045328289 0.72971493
0.029692141 -0.046659082 0.73123294
0.029870307 -0.048005819 0.73276901
0.030050622 -0.049368918 0.7343238
0.030233126 -0.050748467 0.73589742
0.030417861 -0.052144885 0.73749018
0.030604871 -0.053558528 0.7391026
0.030794047 -0.054989368 0.74073374
0.030985724 -0.056438267 0.74238646
0.031179802 -0.057905346 0.7440598
0.031376325 -0.059390903 0.74575424
0.031575341 -0.060895324 0.74747026
0.031776901 -0.062418908 0.74920809
0.031981047 -0.063962072 0.75096822
0.032187678 -0.065524936 0.75274986
0.032397155 -0.067108363 0.75455606
0.032609373 -0.068712592 0.7563858
0.032824393 -0.070337981 0.75823981
0.033042271 -0.071984947 0.76011837
0.033263057 -0.073653877 0.76202196
0.03348681 -0.075345308 0.7639513
0.030586474 0.074884146 0.72985017
0.029924208 0.072230846 0.72433686
0.029289888 0.069689721 0.71905625
0.0286819 0.067254096 0.71399474
0.028098755 0.064917833 0.70914018
0.027538741 0.062674373 0.70447809
0.027000718 0.060518831 0.69999915
0.026483214 0.058445692 0.69569099
0.025985271 0.056450754 0.69154572
0.025505612 0.05452925 0.68755257
0.025043342 0.052677393 0.6837042
0.024597619 0.050891608 0.67999369
0.024167398 0.04916814 0.67641211
0.023752049 0.047504097 0.67295432
0.023350656 0.045896113 0.66961282
0.022962682 0.044341773 0.66638303
0.022587316 0.042838007 0.66325814
0.022224024 0.04138267 0.66023374
0.021872303 0.039973497 0.65730572
0.021531474 0.038608164 0.65446836
0.021201169 0.037284821 0.65171862
0.020880781 0.036001354 0.64905149
0.020569995 0.034756184 0.64646423
0.020268265 0.033547491 0.64395231
0.020005409 0.032422543 0.6417641
0.020083334 0.031856298 0.64241284
0.020161871 0.031285673 0.64306664
0.020241022 0.030710518 0.64372557
0.020320738 0.030130744 0.64438921
0.020401146 0.029546469 0.64505857
0.020482192 0.028957605 0.64573324
0.020563884 0.028364033 0.64641327
0.020646231 0.027765632 0.64709884
0.02072924 0.027162462 0.64778984
0.020812918 0.026554435 0.6484865
0.020897212 0.025941372 0.64918822
0.020982254 0.025323361 0.6498962
0.021067992 0.024700433 0.65060997
0.021154433 0.024072289 0.65132958
0.021241589 0.02343899 0.65205514
0.021329464 0.022800475 0.65278667
0.02141807 0.022156626 0.65352428
0.021507414 0.021507382 0.65426815
0.021597438 0.020852715 0.65501755
0.021688288 0.020192564 0.65577382
0.021779908 0.019526809 0.65653658
0.021872303 0.018855453 0.65730572
0.021965483 0.018178344 0.65808147
0.022059465 0.017495424 0.65886384
0.022154253 0.016806662 0.65965295
0.022249788 0.016111881 0.66044825
0.022346221 0.015411168 0.66125107
0.022443494 0.014704347 0.66206086
0.022541616 0.013991356 0.66287768
0.022640605 0.013272107 0.66370171
0.022740463 0.01254648 0.66453308
0.022841206 0.011814445 0.66537178
0.022942768 0.011075824 0.66621721
0.023045318 0.010330677 0.66707093
0.023148786 0.0095787942 0.66793227
0.023253189 0.0088202059 0.66880143
0.023358537 0.0080546737 0.66967845
0.023464844 0.0072821975 0.67056346
0.023572125 0.0065026581 0.67145658
0.023680387 0.0057159662 0.67235786
0.023789568 0.0049220026 0.67326671
0.023899846 0.0041206777 0.6741848
0.02401115 0.0033118725 0.67511141
0.024123495 0.0024955571 0.67604661
0.024236893 0.0016714931 0.67699069
0.024351366 0.00083971024 0.67794365
0.024466926 -0 0.67890567
0.024583498 -0.00084769726 0.67987609
0.024701273 -0.0017035306 0.68085659
0.024820188 -0.0025675893 0.6818465
0.024940249 -0.0034399927 0.68284595
0.025061477 -0.0043209493 0.68385524
0.025183892 -0.0052104592 0.6848743
0.025307506 -0.0061087012 0.68590343
0.025432246 -0.0070157945 0.68694186
0.025558319 -0.0079318583 0.68799132
0.025685648 -0.008857131 0.68905133
0.025814246 -0.0097915828 0.69012189
0.025944144 -0.010735512 0.69120336
0.026075356 -0.011688977 0.69229561
0.026207902 -0.012652069 0.69339907
0.026341697 -0.013625026 0.6945129
0.026476972 -0.014607966 0.69563901
0.02661364 -0.015601099 0.69677681
0.026751727 -0.016604513 0.69792634
0.026891256 -0.017618418 0.69908792
0.027032249 -0.018642902 0.70026165
0.027174726 -0.019678235 0.70144773
0.027318604 -0.020724446 0.70264554
0.027464125 -0.021781862 0.70385695
0.027611203 -0.022850662 0.7050814
0.027759867 -0.023930907 0.70631897
0.027910139 -0.025022864 0.70756996
0.028062047 -0.026126742 0.70883465
0.028215617 -0.027242661 0.71011305
0.02837076 -0.028370738 0.71140462
0.02852774 -0.029511422 0.71271139
0.028686462 -0.030664831 0.71403277
0.028846962 -0.031831115 0.71536893
0.02900927 -0.033010542 0.7167201
0.029173413 -0.034203321 0.71808654
0.029339423 -0.035409659 0.71946859
0.02950721 -0.036629647 0.72086537
0.029677054 -0.037863821 0.72227937
0.029848862 -0.039112329 0.72370958
0.030022673 -0.040375322 0.72515655
0.03019852 -0.041653186 0.7266205
0.03037644 -0.042946011 0.72810161
0.030556468 -0.044254184 0.72960031
0.030738641 -0.045578003 0.73111689
0.030922862 -0.046917439 0.73265052
0.031109445 -0.048273265 0.73420382
0.031298291 -0.049645573 0.73577595
0.031489447 -0.0510346 0.73736727
0.03168295 -0.052440733 0.73897815
0.031878848 -0.053864241 0.74060899
0.032077182 -0.055305481 0.7422601
0.032277849 -0.056764483 0.74393058
0.032481194 -0.058242142 0.74562347
0.03268712 -0.059738576 0.7473377
0.032895669 -0.061253995 0.74907392
0.033106901 -0.062788934 0.75083232
0.033320863 -0.06434378 0.7526136
0.033537608 -0.065918744 0.7544179
0.033757191 -0.06751439 0.75624597
0.033979498 -0.069130719 0.75809664
0.034204926 -0.070768803 0.75997329
0.034433361 -0.072428793 0.76187497
0.034664873 -0.074111104 0.76380223
0.031998556 0.075729966 0.73272604
0.031297918 0.073028475 0.7270878
0.03062731 0.070442826 0.72169113
0.029984962 0.067965925 0.71652192
0.029368883 0.065590531 0.71156406
0.028777728 0.06331104 0.70680678
0.028209791 0.061121225 0.70223641
0.027663833 0.059016198 0.6978429
0.027138712 0.056991249 0.69361711
0.026633054 0.055041641 0.68954784
0.026145995 0.053163528 0.68562829
0.025676334 0.05135265 0.68184876
0.025223339 0.049605906 0.67820334
0.024785964 0.047919512 0.67468363
0.024363499 0.046290666 0.67128384
0.023955274 0.044716507 0.66799873
0.023560429 0.043194145 0.66482127
0.02317846 0.041721255 0.66174746
0.022808608 0.040295184 0.65877104
0.022450445 0.038914084 0.6558888
0.022103287 0.037575632 0.65309507
0.021766702 0.036277831 0.65038645
0.021440279 0.035019159 0.64775962
0.021123437 0.033797532 0.64520991
0.020815887 0.032611549 0.64273489
0.02085085 0.031971306 0.64301628
0.020932682 0.031399041 0.64367479
0.02101516 0.030822247 0.64433849
0.021098288 0.030240893 0.64500749
0.021182079 0.02965492 0.6456818
0.021266473 0.029064208 0.64636093
0.021351608 0.028468817 0.64704603
0.021437423 0.027868658 0.64773667
0.021523936 0.027263641 0.64843285
0.021611148 0.026653767 0.64913464
0.021699071 0.026038885 0.6498422
0.021787709 0.025418997 0.65055549
0.021877009 0.024793953 0.65127414
0.021967111 0.024163842 0.65199924
0.022057958 0.023528516 0.65273029
0.022149561 0.022887886 0.65346748
0.022241928 0.02224192 0.65421081
0.022335067 0.02159059 0.65496033
0.022428991 0.020933747 0.65571618
0.022523636 0.020271271 0.65647775
0.022619156 0.019603252 0.65724647
0.022715488 0.018929571 0.65802169
0.022812646 0.018250108 0.65880358
0.022910638 0.017564803 0.65959215
0.023009473 0.016873628 0.66038746
0.023109168 0.016176432 0.66118979
0.023209654 0.015473098 0.66199845
0.023311093 0.014763683 0.66281474
0.023413422 0.01404807 0.66363823
0.023516655 0.013326108 0.664469
0.023620801 0.012597769 0.6653071
0.023725877 0.011862934 0.66615272
0.023831889 0.011121541 0.66700584
0.023938853 0.010373503 0.66786653
0.024046699 0.0096186697 0.66873443
0.024155606 0.0088570416 0.66961086
0.0242655 0.0080884993 0.67049527
0.024376402 0.0073128939 0.67138773
0.024488321 0.0065302253 0.67228836
0.024601273 0.0057402849 0.67319733
0.024715273 0.004943043 0.6741147
0.024830244 0.0041384101 0.67503995
0.02494638 0.0033262074 0.67597455
0.025063608 0.0025063753 0.67691791
0.02518194 0.0016788244 0.67787015
0.025301397 0.00084337592 0.67883146
0.025421992 -0 0.679802
0.025543742 -0.00085145235 0.68078172
0.025666572 -0.0017111003 0.68177021
0.025790684 -0.0025790632 0.68276894
0.025915997 -0.0034554601 0.68377745
0.02604254 -0.0043404102 0.68479574
0.026170321 -0.0052340627 0.68582404
0.026299361 -0.0061365068 0.68686247
0.026429683 -0.0070478916 0.68791121
0.026561201 -0.0079683661 0.68896961
0.026694138 -0.0088980496 0.6900394
0.02682841 -0.009837091 0.69111991
0.02696404 -0.010785639 0.69221139
0.027101047 -0.011743784 0.69331396
0.027239457 -0.012711734 0.69442779
0.027379284 -0.013689607 0.695553
0.02752045 -0.014677584 0.69668901
0.027663184 -0.015675783 0.69783765
0.027807409 -0.016684443 0.69899833
0.027953148 -0.017703652 0.70017105
0.028100418 -0.018733621 0.70135623
0.028249251 -0.019774467 0.70255399
0.028399667 -0.020826399 0.70376444
0.028551694 -0.021889627 0.70498782
0.028705241 -0.022964209 0.70622349
0.028860567 -0.024050474 0.70747352
0.029017581 -0.025148571 0.70873702
0.029176317 -0.026258677 0.71001446
0.029336795 -0.027381033 0.71130586
0.029499048 -0.028515756 0.71261156
0.029663108 -0.029663086 0.71393186
0.029828878 -0.030823201 0.71526587
0.029996637 -0.031996429 0.71661586
0.030166293 -0.033182919 0.7179811
0.030337879 -0.034382939 0.71936196
0.030511431 -0.035596669 0.72075856
0.030686976 -0.036824375 0.72217131
0.030864555 -0.038066268 0.72360027
0.031044064 -0.039322495 0.72504491
0.031225814 -0.040593565 0.72650754
0.031409699 -0.041879594 0.72798729
0.031595767 -0.043180883 0.72948468
0.03178405 -0.044497669 0.73099989
0.031974591 -0.04583022 0.73253322
0.032167431 -0.047178894 0.73408508
0.032362465 -0.048543662 0.73565459
0.032560028 -0.049925387 0.73724449
0.032760017 -0.05132401 0.73885381
0.032962475 -0.052739948 0.74048311
0.033167455 -0.054173529 0.74213266
0.033374999 -0.055624962 0.74380285
0.033585157 -0.057094723 0.74549401
0.033797815 -0.058582872 0.74720544
0.03401335 -0.060090244 0.74893987
0.034231648 -0.061616957 0.7506966
0.03445277 -0.0631634 0.7524761
0.034676764 -0.064729959 0.75427866
0.03490369 -0.066317052 0.75610483
0.035133608 -0.067924976 0.75795501
0.035366576 -0.069554269 0.75982976
0.035602473 -0.071204931 0.76172811
0.035841718 -0.072878152 0.76365346
0.036084201 -0.074573994 0.76560473
0.033442743 0.076594681 0.73566645
0.032702308 0.073843926 0.72990012
0.031994093 0.07121262 0.72438467
0.03131577 0.068692654 0.71910208
0.030665612 0.066277295 0.71403879
0.030042022 0.063960463 0.70918238
0.029443171 0.06173566 0.70451868
0.028867841 0.059598148 0.70003814
0.028314456 0.057542324 0.69572848
0.027781995 0.055564016 0.69158173
0.027269088 0.053658515 0.68758738
0.026774775 0.051822156 0.68373775
0.026298158 0.050051361 0.68002594
0.025838122 0.048342288 0.67644334
0.025393995 0.046692193 0.67298454
0.024964791 0.045097679 0.66964203
0.024549935 0.043556362 0.66641116
0.024148563 0.042065233 0.66328537
0.023760105 0.040622145 0.66026014
0.023384022 0.039224803 0.65733135
0.023019586 0.037870944 0.65449315
0.022666404 0.036558717 0.6517427
0.022323828 0.035286039 0.64907479
0.021991521 0.034051359 0.64648682
0.021668894 0.032852858 0.6439743
0.021623926 0.032087117 0.64362407
0.021709099 0.031513244 0.64428741
0.021794949 0.030934781 0.64495593
0.021881478 0.030351728 0.64562982
0.021968698 0.029764056 0.64630908
0.022056615 0.029171646 0.64699376
0.022145174 0.028574407 0.64768344
0.022234514 0.02797246 0.64837921
0.022324577 0.027365625 0.64908057
0.022415372 0.026753843 0.64978766
0.022506909 0.026137054 0.65050054
0.0225992 0.025515258 0.65121925
0.022692246 0.024888247 0.65194392
0.022785991 0.02425608 0.65267396
0.022880586 0.023618698 0.65341067
0.022975972 0.022975981 0.65415347
0.023072155 0.02232787 0.65490258
0.023169145 0.021674365 0.65565795
0.023266958 0.021015316 0.65641963
0.023365598 0.020350695 0.65718782
0.023465076 0.019680381 0.65796256
0.02356533 0.019004285 0.65874332
0.023666523 0.018322468 0.65953135
0.023768587 0.017634779 0.66032624
0.023871535 0.0169411 0.66112792
0.023975378 0.016241401 0.66193664
0.024080131 0.015535563 0.66275245
0.024185801 0.014823586 0.66357541
0.024292322 0.014105231 0.66440499
0.024399869 0.013380557 0.66524255
0.02450837 0.012649506 0.66608751
0.024617843 0.011911839 0.66694009
0.024728296 0.011167645 0.66780019
0.024839746 0.010416657 0.66866821
0.024952203 0.0096589029 0.66954398
0.025065599 0.0088942349 0.67042708
0.025180116 0.008122623 0.67131889
0.025295684 0.0073439181 0.67221892
0.025412319 0.0065580308 0.67312723
0.025530035 0.0057648122 0.67404401
0.025648843 0.0049642622 0.67496926
0.025768766 0.0041562915 0.6759032
0.025889724 0.0033406317 0.67684519
0.026011912 0.002517283 0.67779678
0.026135262 0.001686126 0.67875737
0.026259786 0.00084707141 0.67972714
0.026385503 2.9802322e-08 0.68070614
0.026512429 -0.00085526705 0.68169469
0.026640581 -0.0017187297 0.68269277
0.026769979 -0.0025906265 0.68370044
0.026900543 -0.0034710169 0.68471718
0.027032485 -0.0043600798 0.68574476
0.027165726 -0.0052579045 0.68678242
0.027300289 -0.0061645806 0.68783033
0.027436193 -0.0070802867 0.68888873
0.027573453 -0.0080052018 0.68995768
0.027712096 -0.0089393854 0.69103742
0.027852034 -0.0098829567 0.69212723
0.027993498 -0.010836184 0.69322896
0.028136408 -0.011799127 0.69434184
0.028280785 -0.012771964 0.69546628
0.028426649 -0.013754845 0.69660223
0.028574029 -0.014747858 0.69774997
0.028722942 -0.015751302 0.69890976
0.028873304 -0.016765147 0.70008069
0.029025361 -0.017789751 0.70126486
0.029179029 -0.018825203 0.70246166
0.029334335 -0.019871652 0.7036711
0.0294913 -0.020929307 0.70489347
0.029649956 -0.021998346 0.70612907
0.029810328 -0.023078978 0.70737803
0.02997232 -0.024171203 0.7086395
0.030136205 -0.025275528 0.70991588
0.030301897 -0.026391983 0.7112062
0.030469418 -0.027520776 0.71251088
0.030638799 -0.028662086 0.71382999
0.03081008 -0.02981621 0.71516383
0.030983282 -0.030983299 0.71651274
0.031158311 -0.032163441 0.71787584
0.031335462 -0.033357143 0.71925545
0.031514641 -0.034564435 0.72065085
0.03169588 -0.035785675 0.72206229
0.031879216 -0.037021011 0.72349006
0.032064684 -0.038270742 0.72493446
0.032252323 -0.039535075 0.72639573
0.032442026 -0.040814161 0.72787309
0.03263412 -0.042108536 0.72936916
0.032828506 -0.043418348 0.73088294
0.03302522 -0.044743836 0.7324149
0.033224303 -0.046085328 0.73396528
0.033425801 -0.047443062 0.73553455
0.03362976 -0.048817396 0.73712289
0.033836223 -0.050208539 0.73873085
0.034045078 -0.051616728 0.7403574
0.034256686 -0.05304262 0.74200535
0.034470946 -0.054486334 0.74367386
0.034687899 -0.055948198 0.74536347
0.034907598 -0.057428628 0.74707443
0.035130102 -0.058927894 0.74880725
0.03535546 -0.060446441 0.75056237
0.035583552 -0.061984271 0.75233871
0.035814784 -0.063542366 0.75413948
0.036049042 -0.065120846 0.75596374
0.036286384 -0.066720158 0.7578122
0.03652687 -0.068340629 0.75968504
0.036770567 -0.069982678 0.76158285
0.037017539 -0.071646839 0.76350617
0.037267659 -0.073333114 0.76545405
0.037521373 -0.075042754 0.76743001
0.034138571 0.074678153 0.73277718
0.033390936 0.071999192 0.72713673
0.032675344 0.06943509 0.72173798
0.031989913 0.066978902 0.71656686
0.031332523 0.064623326 0.71160722
0.030701727 0.06236288 0.70684826
0.030095713 0.060191423 0.70227611
0.029513156 0.058104038 0.6978811
0.028952839 0.056096137 0.69365382
0.02841329 0.05416286 0.6895833
0.027893586 0.052300483 0.68566239
0.027392456 0.050504833 0.68188167
0.026909107 0.048772722 0.67823511
0.026442429 0.047100604 0.67471433
0.025991665 0.045485407 0.67131352
0.025556093 0.04392454 0.6680274
0.025134798 0.042414963 0.66484898
0.02472725 0.0409545 0.66177428
0.024332628 0.039540559 0.65879703
0.023950478 0.038171113 0.65591395
0.023580072 0.036843866 0.6531195
0.023220953 0.035557061 0.65041012
0.022872675 0.03430903 0.64778256
0.022534622 0.033097714 0.6452322
0.022402687 0.032203853 0.6442368
0.022491185 0.031628251 0.64490443
0.022580454 0.031048149 0.64557791
0.022670429 0.030463427 0.6462568
0.022761129 0.029873967 0.64694101
0.022852557 0.029279828 0.64763081
0.022944722 0.028680921 0.64832616
0.023037633 0.028077096 0.64902711
0.023131229 0.027468324 0.64973325
0.02322566 0.026854664 0.65044564
0.023320863 0.026235968 0.65116394
0.023416854 0.025612175 0.65188813
0.023513636 0.024983257 0.65261829
0.023611221 0.024349093 0.65335447
0.023709621 0.023709655 0.65409684
0.023808768 0.023064733 0.65484488
0.023908824 0.022414505 0.65559971
0.024009723 0.021758854 0.65636098
0.02411148 0.021097571 0.65712863
0.024214102 0.020430654 0.65790284
0.024317602 0.019758046 0.65868372
0.024421988 0.019079655 0.65947127
0.024527198 0.018395424 0.66026497
0.024633396 0.017705262 0.66106617
0.024740519 0.017009109 0.66187435
0.024848577 0.016306877 0.66268963
0.024957582 0.015598476 0.66351199
0.025067549 0.014883876 0.66434163
0.02517849 0.014162928 0.6651786
0.025290331 0.013435513 0.66602236
0.025403259 0.012701631 0.66687435
0.025517197 0.011961192 0.66773391
0.025632162 0.011214048 0.66860127
0.025748165 0.010460168 0.66947651
0.025865227 0.0096994638 0.67035961
0.025983356 0.0089317858 0.67125088
0.02610248 0.0081570745 0.67214954
0.026222792 0.0073751509 0.67305732
0.026344217 0.0065860748 0.67397332
0.026466774 0.005789578 0.67489797
0.026590474 0.0049857199 0.6758312
0.026715338 0.0041742921 0.67677325
0.02684138 0.0033552051 0.67772412
0.026968615 0.00252828 0.67868412
0.027096966 0.0016935766 0.67965239
0.027226644 0.0008508563 0.68063068
0.027357567 -0 0.68161845
0.027489757 -0.00085905194 0.68261576
0.027623229 -0.0017264485 0.68362278
0.027758004 -0.0026022792 0.68463957
0.0278941 -0.0034867525 0.68566632
0.028031435 -0.0043798983 0.68670243
0.028170235 -0.0052819252 0.68774956
0.028310414 -0.006192863 0.68880713
0.028451994 -0.0071129799 0.68987525
0.028594999 -0.0080423355 0.69095415
0.028739449 -0.0089810789 0.69204402
0.028885366 -0.0099293292 0.6931448
0.029032659 -0.010887265 0.69425607
0.029181575 -0.011854976 0.69537956
0.029332027 -0.012832791 0.69651461
0.029484039 -0.013820618 0.69766146
0.029637635 -0.014818817 0.69882023
0.029792838 -0.015827447 0.69999117
0.029949676 -0.016846687 0.70117444
0.030108176 -0.017876744 0.70237029
0.030268239 -0.01891765 0.70357782
0.030430136 -0.019969761 0.70479923
0.030593775 -0.021033198 0.70603371
0.030759182 -0.022108167 0.70728165
0.030926386 -0.02319479 0.70854318
0.031095421 -0.024293303 0.70981842
0.031266313 -0.025403857 0.71110767
0.031438962 -0.02652663 0.71241027
0.031613659 -0.02766192 0.71372819
0.031790312 -0.028809965 0.71506101
0.031968947 -0.029970884 0.71640867
0.032149605 -0.031144947 0.71777159
0.032332312 -0.032332301 0.71915001
0.032517113 -0.033533245 0.72054422
0.032703891 -0.034747869 0.72195339
0.032892972 -0.035976708 0.72337997
0.033084255 -0.037219763 0.724823
0.033277772 -0.038477391 0.72628295
0.03347357 -0.039749891 0.72776014
0.033671685 -0.041037351 0.72925478
0.033872154 -0.042340159 0.73076719
0.034074876 -0.043658465 0.73229665
0.034280196 -0.044992745 0.73384565
0.034488 -0.046343267 0.73541343
0.034698341 -0.04771024 0.73700035
0.034911264 -0.049093932 0.73860669
0.035126816 -0.05049479 0.74023294
0.035345048 -0.051913053 0.74187934
0.035565838 -0.05334875 0.74354506
0.035789575 -0.054802775 0.74523306
0.036016144 -0.056275219 0.7469424
0.036245599 -0.057766408 0.74867344
0.036478002 -0.05927676 0.75042677
0.036713399 -0.060806572 0.75220281
0.036951851 -0.062356263 0.75400174
0.037193429 -0.06392616 0.75582427
0.037437994 -0.065516472 0.75766945
0.037685987 -0.067128181 0.75954044
0.037937287 -0.068761349 0.76143628
0.038191963 -0.070416421 0.76335776
0.038450081 -0.072093904 0.76530504
0.038711712 -0.073794186 0.76727885
0.038976926 -0.075517774 0.76927972
0.035607491 0.075531036 0.73571885
0.034818977 0.072803348 0.72995019
0.034064777 0.070194066 0.72443265
0.033342414 0.0676952 0.71914798
0.032650188 0.065300345 0.71408373
0.031985991 0.063002706 0.70922458
0.031348277 0.060796648 0.70455921
0.030735614 0.058677077 0.70007712
0.030146323 0.056638539 0.69576597
0.029579317 0.05467692 0.69161791
0.029033137 0.052787513 0.68762219
0.028506765 0.05096665 0.68377131
0.027999235 0.049210817 0.68005836
0.027509369 0.047516197 0.67647457
0.027036441 0.04588002 0.6730147
0.026579406 0.044299036 0.66967118
0.026137657 0.042770714 0.66643941
0.025710264 0.04129225 0.66331273
0.025296627 0.039861321 0.66028661
0.024896165 0.038475901 0.65735686
0.024508107 0.037133515 0.65451801
0.024132039 0.035832405 0.65176672
0.023767265 0.034570575 0.64909804
0.023413422 0.033346415 0.64650941
0.023187067 0.032321364 0.64485347
0.023279069 0.031744182 0.64552659
0.023371734 0.031162292 0.64620447
0.023465211 0.030575871 0.64688832
0.023559434 0.029984742 0.64757764
0.023654422 0.029388785 0.64827257
0.023750177 0.02878809 0.64897311
0.023846712 0.028182507 0.6496793
0.023944033 0.027571946 0.65039134
0.024042152 0.02695635 0.6511091
0.024141004 0.026335627 0.65183228
0.024240749 0.025709867 0.65256202
0.024341319 0.025078952 0.65329778
0.024442729 0.024442732 0.65403968
0.024544986 0.023801208 0.65478778
0.024648102 0.023154259 0.65554214
0.02475209 0.022501886 0.65630287
0.024856878 0.02184391 0.6570695
0.024962639 0.021180421 0.65784323
0.025069302 0.02051124 0.65862352
0.025176883 0.019836336 0.6594106
0.025285389 0.019155592 0.66020435
0.025394833 0.018468976 0.66100502
0.02550523 0.01777637 0.66181272
0.025616508 0.017077684 0.66262674
0.025728846 0.016372889 0.66344863
0.025842173 0.015661925 0.66427767
0.0259565 0.014944673 0.6651141
0.026071848 0.014221013 0.66595793
0.026188223 0.013490915 0.66680932
0.026305642 0.012754261 0.6676684
0.026424028 0.012010932 0.6685344
0.026543578 0.011260897 0.6694091
0.02666421 0.010504097 0.67029154
0.026785946 0.0097403526 0.67118216
0.026908802 0.008969605 0.67208093
0.027032785 0.0081917644 0.672988
0.027157918 0.0074067116 0.67390341
0.027284119 0.0066143274 0.67482668
0.027411595 0.0058145523 0.67575932
0.027540267 0.0050072968 0.67670059
0.027670154 0.0041924715 0.67765081
0.02780127 0.0033698678 0.67861009
0.027933637 0.0025394261 0.67957842
0.028067268 0.001701057 0.68055606
0.028202085 0.0008546114 0.68154234
0.028338302 -0 0.68253887
0.028475845 -0.00086289644 0.68354511
0.028614728 -0.0017342567 0.68456113
0.028754972 -0.0026140809 0.68558717
0.028896598 -0.0035026073 0.68662328
0.029039625 -0.0043999553 0.68766963
0.029183967 -0.0053062141 0.68872559
0.029329861 -0.0062214732 0.68979287
0.029477222 -0.0071460307 0.690871
0.029626071 -0.0080798268 0.69195992
0.029776432 -0.0090231597 0.69305992
0.029928325 -0.009976089 0.69417113
0.030081775 -0.010938853 0.69529378
0.030236691 -0.011911422 0.69642711
0.030393329 -0.012894124 0.69757295
0.030551597 -0.013887078 0.69873095
0.030711522 -0.014890432 0.69990087
0.030873131 -0.015904307 0.70108312
0.031036451 -0.016928971 0.70227802
0.031201506 -0.017964482 0.70348549
0.0313682 -0.01901108 0.704705
0.031536814 -0.020068884 0.70593852
0.03170725 -0.021138161 0.70718539
0.031879537 -0.022219062 0.70844585
0.032053709 -0.023311794 0.70972008
0.032229789 -0.024416476 0.71100825
0.03240782 -0.025533438 0.71231067
0.032587826 -0.026662797 0.71362758
0.032769706 -0.027804613 0.71495813
0.032953769 -0.028959334 0.71630466
0.033139907 -0.030127168 0.71766639
0.033328161 -0.031308264 0.71904367
0.033518568 -0.03250286 0.72043669
0.033711161 -0.033711195 0.72184563
0.033905983 -0.034933388 0.72327089
0.034103066 -0.036169946 0.72471273
0.034302305 -0.03742069 0.72617036
0.034504037 -0.038686335 0.72764617
0.034708157 -0.039966941 0.72913945
0.03491471 -0.041262805 0.73065054
0.035123728 -0.042574257 0.7321797
0.035335269 -0.043901384 0.73372734
0.035549372 -0.045244664 0.73529363
0.035765924 -0.046604067 0.73687786
0.035985295 -0.047980398 0.73848271
0.03620737 -0.049373686 0.74010736
0.036432207 -0.05078432 0.74175233
0.036659852 -0.052212477 0.74341762
0.036890361 -0.053658694 0.74510407
0.037123788 -0.05512318 0.74681169
0.037360009 -0.056606054 0.74853987
0.037599433 -0.058108211 0.75029147
0.03784195 -0.059629768 0.75206566
0.03808761 -0.061170995 0.7538628
0.038336486 -0.062732428 0.7556836
0.038588636 -0.064314365 0.75752819
0.03884412 -0.065917313 0.75939739
0.039102819 -0.067541212 0.76128995
0.03936518 -0.069187254 0.76320928
0.039631087 -0.070855558 0.7651546
0.039900612 -0.072546571 0.76712644
0.040173832 -0.074260712 0.76912522
0.037110355 0.076403707 0.7387284
0.03627944 0.073625892 0.73282838
0.035484765 0.070969522 0.72718567
0.034724157 0.068426996 0.72178489
0.033995613 0.065991431 0.7166118
0.033296876 0.063655794 0.71165025
0.032626417 0.06141445 0.70688963
0.031982295 0.059261322 0.70231593
0.031363115 0.057191551 0.69791937
0.030767573 0.055200666 0.69369066
0.030194113 0.053283721 0.68961871
0.029641749 0.05143711 0.6856966
0.029109124 0.049656749 0.68191463
0.028595407 0.04793933 0.67826688
0.028099407 0.046281397 0.67474502
0.027620321 0.04467994 0.67134321
0.027157389 0.043132365 0.66805607
0.026709631 0.041635573 0.6648767
0.026276482 0.040187567 0.66180104
0.025857078 0.038785636 0.65882307
0.02545093 0.037427872 0.65593916
0.025057267 0.036111951 0.65314388
0.024675671 0.034836203 0.65043437
0.024305452 0.033598721 0.64780557
0.023977196 0.032439739 0.64547473
0.024072681 0.031860858 0.64615273
0.024168931 0.031277448 0.64683616
0.02426588 0.03068924 0.64752454
0.024363685 0.030096352 0.64821905
0.024462279 0.029498637 0.64891911
0.024561677 0.028896064 0.64962494
0.024661886 0.028288633 0.65033644
0.024762914 0.027676195 0.65105379
0.024864774 0.02705875 0.65177703
0.024967398 0.02643609 0.65250576
0.02507095 0.025808364 0.6532411
0.025175367 0.025175363 0.65398252
0.025280656 0.024537116 0.65473008
0.025386831 0.023893505 0.65548396
0.025493899 0.02324447 0.65624428
0.025601873 0.022589892 0.65701091
0.025710769 0.021929771 0.65778416
0.025820512 0.021263957 0.65856344
0.025931276 0.020592481 0.65934992
0.026042998 0.019915253 0.6601432
0.026155684 0.019232154 0.66094333
0.02626935 0.018543094 0.66175044
0.026384011 0.017848015 0.66256464
0.026499674 0.017146856 0.66338587
0.02661627 0.016439438 0.66421378
0.026733985 0.015725881 0.66504967
0.026852744 0.015005946 0.66589296
0.026972564 0.014279574 0.66674376
0.027093459 0.013546735 0.66760218
0.027215442 0.01280728 0.66846824
0.027338527 0.012061119 0.66934228
0.027462732 0.011308193 0.67022419
0.027587976 0.010548353 0.67111349
0.027714461 0.0097815692 0.67201161
0.027842114 0.0090077519 0.67291802
0.027970947 0.0082267523 0.67383289
0.028100979 0.0074384809 0.67475617
0.028232224 0.0066428781 0.67568809
0.028364703 0.0058397949 0.67662877
0.028498327 0.0050291121 0.67757761
0.028633321 0.0042107999 0.67853612
0.028769597 0.0033846498 0.6795038
0.028907178 0.0025506318 0.68048072
0.029046083 0.0017085671 0.68146706
0.029186325 0.00085842609 0.68246281
0.029327931 -0 0.68346834
0.029470809 -0.00086680055 0.68448281
0.029615195 -0.0017420948 0.68550807
0.029761001 -0.002625972 0.68654341
0.029908253 -0.0035186112 0.68758893
0.030056968 -0.0044201314 0.68864489
0.030207168 -0.0053306818 0.68971145
0.030358879 -0.0062503517 0.69078869
0.030512005 -0.0071793199 0.69187599
0.030666802 -0.0081176758 0.6929751
0.030823173 -0.0090656579 0.69408548
0.030981151 -0.010023296 0.69520724
0.031140756 -0.010990888 0.69634056
0.031302013 -0.011968404 0.69748545
0.031464949 -0.012956172 0.69864249
0.031629469 -0.013954133 0.69981062
0.031795841 -0.014962733 0.70099199
0.031963971 -0.015981942 0.70218587
0.032133892 -0.01701206 0.70339239
0.032305624 -0.018053144 0.70461178
0.032479204 -0.019105405 0.70584428
0.032654662 -0.02016905 0.7070902
0.032831889 -0.021244138 0.70834857
0.033011191 -0.022331089 0.70962179
0.033192456 -0.02342996 0.71090883
0.033375725 -0.024540991 0.71221018
0.033561029 -0.0256643 0.71352589
0.033748399 -0.026800215 0.71485639
0.033937879 -0.027948827 0.71620184
0.034129351 -0.029110312 0.71756142
0.034323145 -0.03028512 0.7189374
0.034519147 -0.031473309 0.72032923
0.034717403 -0.032675207 0.72173697
0.034917947 -0.033890963 0.72316098
0.035120822 -0.035120815 0.72460151
0.035326075 -0.036365062 0.72605884
0.035533577 -0.037623763 0.72753227
0.035743691 -0.038897544 0.72902429
0.035956305 -0.040186435 0.73053396
0.036171466 -0.041490763 0.73206168
0.036389213 -0.042810857 0.73360789
0.036609601 -0.044146866 0.73517275
0.036832675 -0.045499146 0.73675668
0.037058484 -0.046868056 0.73836005
0.037286904 -0.048253626 0.73998201
0.037518334 -0.04965663 0.74162531
0.037752654 -0.051077157 0.74328911
0.037989918 -0.052515507 0.7449739
0.038230184 -0.053972006 0.7466799
0.038473509 -0.055447102 0.74840772
0.038719952 -0.056941122 0.75015759
0.038969573 -0.058454365 0.75193
0.03922224 -0.059986949 0.7537241
0.039478399 -0.061539859 0.75554299
0.039737925 -0.063113153 0.75738579
0.040000889 -0.064707309 0.75925297
0.040267356 -0.066322684 0.76114511
0.040537395 -0.067959756 0.76306254
0.04081108 -0.069618911 0.76500583
0.041088276 -0.071300238 0.76697415
0.041369479 -0.073004961 0.76897091
0.041654553 -0.074733198 0.77099508
0.038648527 0.077297062 0.74180961
0.037773114 0.074467003 0.73577118
0.036936477 0.071762294 0.73000026
0.036136255 0.069175154 0.72448051
0.035369821 0.066697359 0.71919388
0.034635369 0.064322859 0.71412778
0.033930656 0.062044621 0.7092669
0.033254053 0.059857279 0.70459986
0.032604031 0.057755709 0.70011616
0.031978812 0.055734485 0.69580352
0.031377241 0.053789586 0.69165403
0.030797768 0.051916212 0.687657
0.030239312 0.050110877 0.68380487
0.029700853 0.048369944 0.68009073
0.029181132 0.046689838 0.6765058
0.028679388 0.045067579 0.67304492
0.028194509 0.043500096 0.66970032
0.027725846 0.041984886 0.66646761
0.027272422 0.040519029 0.66333997
0.026833672 0.039100468 0.66031361
0.026408732 0.03772679 0.65738249
0.025997045 0.036395878 0.6545428
0.025598072 0.035105914 0.65179074
0.025211085 0.033854872 0.6491214
0.024835698 0.032641202 0.64653206
0.024872148 0.031978458 0.64678353
0.024971964 0.031393319 0.64747202
0.025072582 0.030803472 0.64816606
0.025174016 0.030208826 0.6488657
0.025276195 0.029609263 0.64957052
0.025379287 0.029004931 0.65028161
0.025483225 0.028395593 0.65099853
0.025588011 0.027781278 0.65172136
0.02569367 0.027161896 0.65245014
0.0258002 0.026537359 0.65318495
0.025907619 0.025907606 0.6539259
0.026015854 0.025272518 0.6546725
0.026125081 0.024632186 0.65542591
0.026235227 0.023986489 0.65618569
0.026346307 0.023335278 0.6569519
0.02645833 0.022678554 0.65772462
0.026571311 0.022016227 0.65850389
0.026685262 0.021348208 0.65928996
0.026800107 0.020674348 0.6600821
0.026916031 0.019994766 0.6608817
0.027032964 0.019309253 0.66168827
0.027150916 0.018617809 0.66250193
0.027269904 0.017920226 0.66332263
0.027389936 0.017216533 0.6641506
0.02751103 0.016506642 0.6649859
0.02763311 0.015790343 0.66582799
0.027756371 0.015067756 0.66667813
0.027880734 0.014338642 0.66753602
0.028006218 0.013603032 0.66840154
0.028132837 0.012860745 0.66927493
0.028260607 0.012111694 0.67015624
0.028389541 0.011355788 0.6710456
0.028519657 0.010592997 0.67194313
0.028650871 0.0098231733 0.67284817
0.0287834 0.0090462267 0.67376232
0.02891716 0.0082620382 0.674685
0.02905217 0.007470578 0.67561626
0.029188445 0.0066716671 0.67655623
0.029326007 0.0058652163 0.67750514
0.029464869 0.005051136 0.67846292
0.029604949 0.0042292476 0.67942917
0.029746471 0.0033995807 0.68040538
0.029889356 0.0025619268 0.681391
0.030033616 0.0017161965 0.68238604
0.030179281 0.00086224079 0.6833908
0.030326361 2.9802322e-08 0.68440533
0.030474884 -0.00087070465 0.68542981
0.030624753 -0.0017499924 0.68646359
0.030776221 -0.0026379824 0.68750834
0.030929193 -0.0035347641 0.68856353
0.031083696 -0.0044404864 0.6896292
0.031239746 -0.0053553581 0.69070566
0.031397372 -0.0062794685 0.69179285
0.031556599 -0.0072129667 0.69289124
0.031717449 -0.0081559122 0.69400066
0.03187982 -0.0091085136 0.69512069
0.03204399 -0.01007098 0.69625312
0.032209858 -0.0110434 0.69739723
0.032377455 -0.012025923 0.69855332
0.032546803 -0.013018727 0.6997214
0.032717932 -0.014022022 0.70090181
0.032890871 -0.015035838 0.70209467
0.033065513 -0.016060412 0.70329934
0.033242159 -0.017095983 0.70451778
0.033420697 -0.01814267 0.70574927
0.033601165 -0.019200653 0.70699406
0.033783589 -0.020270109 0.70825243
0.033968009 -0.021351308 0.70952451
0.034154452 -0.022444367 0.71081054
0.034342811 -0.023549348 0.7121098
0.034533404 -0.024666727 0.71342444
0.034726121 -0.025796562 0.71475381
0.034921005 -0.026939094 0.71609807
0.035118084 -0.0280945 0.71745747
0.035317406 -0.02926302 0.71883237
0.035519 -0.030444831 0.72022283
0.035722755 -0.031640142 0.72162831
0.035929017 -0.032849371 0.72305101
0.036137674 -0.034072638 0.72449034
0.036348771 -0.035310268 0.72594643
0.03656235 -0.036562353 0.72741961
0.03677845 -0.03782925 0.72891021
0.036997121 -0.039111227 0.73041856
0.037218239 -0.040408373 0.73194379
0.037442185 -0.041721284 0.73348844
0.037668847 -0.043050081 0.73505199
0.037898265 -0.044395119 0.73663449
0.038130496 -0.045756608 0.73823637
0.038365591 -0.047134876 0.73985797
0.038603604 -0.048530251 0.74149972
0.038844407 -0.049942821 0.74316072
0.039088413 -0.051373363 0.74484384
0.039335512 -0.052821994 0.74654818
0.039585747 -0.054289013 0.74827427
0.039839189 -0.055774838 0.75002241
0.040095896 -0.057279855 0.75179315
0.040355936 -0.058804333 0.75358677
0.040619366 -0.060348809 0.755404
0.040886059 -0.061913192 0.75724351
0.041156482 -0.063498586 0.75910884
0.041430507 -0.06510511 0.76099902
0.041708205 -0.066733122 0.76291442
0.041989651 -0.068383157 0.7648558
0.042274918 -0.070055604 0.76682353
0.04256409 -0.071750879 0.76881814
0.042857025 -0.073469162 0.77083874
0.04315424 -0.075211704 0.7728889
0.039301306 0.075327516 0.73878199
0.038421161 0.072573274 0.73287958
0.037579406 0.069939435 0.7272346
0.036773745 0.067418545 0.7218318
0.036002059 0.065003723 0.7166568
0.035261948 0.062687904 0.71169341
0.034551788 0.060465634 0.70693099
0.033869538 0.058330864 0.70235574
0.033213839 0.056279004 0.69795853
0.032582924 0.054304868 0.69372749
0.031975526 0.052404344 0.68965423
0.031390477 0.050573558 0.68573081
0.030826339 0.048808396 0.68194759
0.030282229 0.0471057 0.67829871
0.029756892 0.045461923 0.67477572
0.029249569 0.043874353 0.67137361
0.028759159 0.042339861 0.66808474
0.028284922 0.040856034 0.66490442
0.027826164 0.039420426 0.66182792
0.027381958 0.038030505 0.65884906
0.026951803 0.036684394 0.65596437
0.026534867 0.035379827 0.65316832
0.026130714 0.034115136 0.65045804
0.02573861 0.032888263 0.64782846
0.025677541 0.032096922 0.64741898
0.02578097 0.031510085 0.64811254
0.025885237 0.030918479 0.64881188
0.02599035 0.030322075 0.6495167
0.026096322 0.029720783 0.65022743
0.026203161 0.029114634 0.65094388
0.026310796 0.028503388 0.65166563
0.026419399 0.027887166 0.652394
0.026528908 0.027265817 0.65312839
0.026639324 0.026639342 0.65386879
0.026750663 0.026007593 0.65461552
0.02686294 0.025370568 0.65536845
0.026976161 0.024728179 0.65612769
0.027090253 0.024080247 0.6568929
0.027205406 0.02342689 0.65766507
0.027321538 0.022767961 0.65844387
0.027438667 0.022103369 0.65922934
0.027556803 0.021433055 0.6600216
0.027675962 0.02075699 0.66082072
0.027796157 0.020074993 0.66162676
0.027917307 0.019387037 0.66243917
0.02803961 0.01869306 0.66325933
0.028162992 0.017993033 0.66408676
0.028287463 0.017286777 0.66492152
0.028413039 0.016574264 0.66576362
0.028539734 0.015855402 0.66661328
0.028667565 0.015130132 0.66747051
0.028796548 0.014398277 0.6683355
0.028926594 0.013659775 0.66920757
0.029057922 0.012914598 0.67008829
0.029190449 0.012162685 0.67097706
0.029324189 0.011403859 0.67187393
0.029459162 0.010638028 0.67277908
0.029595379 0.009865135 0.67369258
0.029732864 0.0090850294 0.67461455
0.029871527 0.008297652 0.6755445
0.030011598 0.0075028837 0.67648375
0.030152986 0.0067006648 0.677432
0.030295715 0.0058908165 0.67838913
0.030439798 0.0050733089 0.67935538
0.030585259 0.0042479336 0.68033087
0.030732118 0.0034146905 0.68131572
0.030880282 0.0025733411 0.68230939
0.031029994 0.0017238855 0.68331325
0.031181166 0.0008661449 0.68432707
0.031333815 -2.9802322e-08 0.68535078
0.031487972 -0.00087466836 0.68638456
0.031643648 -0.0017580092 0.68742859
0.03180087 -0.0026500821 0.68848294
0.031959545 -0.0035510659 0.689547
0.032119934 -0.0044610798 0.69062263
0.032281939 -0.0053803325 0.69170904
0.032445587 -0.0063088536 0.69280648
0.032610901 -0.0072468817 0.69391513
0.032777909 -0.0081944764 0.69503516
0.032946639 -0.0091518462 0.69616663
0.033117112 -0.01011914 0.69730985
0.033289231 -0.011096418 0.6984641
0.033463281 -0.012083977 0.69963133
0.033639155 -0.013081878 0.70081079
0.033816893 -0.014090329 0.70200264
0.033996515 -0.015109569 0.70320725
0.034178056 -0.016139627 0.70442462
0.034361545 -0.017180771 0.70565522
0.034546878 -0.018233061 0.70689809
0.034734361 -0.019296885 0.70815533
0.034923892 -0.020372301 0.7094264
0.035115503 -0.02145946 0.71071136
0.035309222 -0.022558659 0.7120105
0.035505097 -0.023670048 0.71332401
0.035703156 -0.024793833 0.71465224
0.035903282 -0.025930136 0.7159943
0.036105823 -0.027079374 0.71735257
