# .PCD v0.7 - Point Cloud Data file format
VERSION 0.7
FIELDS x y z
SIZE 4 4 4
TYPE F F F
COUNT 1 1 1
WIDTH 1313
HEIGHT 1
VIEWPOINT 0 0 0 1 0 0 0
POINTS 1313
DATA ascii
-0.017526181 0.012518704 0.67670703
-0.017453067 0.011635393 0.67586648
-0.017380502 0.010759383 0.67503226
-0.017308597 0.0098906457 0.6742056
-0.017237224 0.009029001 0.67338508
-0.017166495 0.0081745088 0.6725719
-0.017096346 0.00732705 0.67176551
-0.017026711 0.0064863563 0.67096496
-0.016957697 0.0056525767 0.67017156
-0.016889181 0.0048254728 0.66938394
-0.016821276 0.0040050745 0.66860324
-0.016753858 0.0031912029 0.6678282
-0.016687034 0.002383858 0.66705996
-0.016620686 0.0015829206 0.66629726
-0.016554918 0.00078830123 0.66554111
-0.016489614 -0 0.66479039
-0.016424878 -0.00078210235 0.66404617
-0.016360592 -0.0015581548 0.66330713
-0.016296864 -0.0023281276 0.66257447
-0.016233575 -0.0030921102 0.66184688
-0.01617083 -0.0038501918 0.66112554
-0.016108567 -0.0046024621 0.66040981
-0.016046729 -0.0053489208 0.65969884
-0.015985416 -0.0060896575 0.65899396
-0.015924521 -0.0068247914 0.65829396
-0.015864136 -0.0075543523 0.65759975
-0.015804159 -0.0082783699 0.65691018
-0.015744682 -0.0089969635 0.65622646
-0.015685603 -0.0097101331 0.65554726
-0.015627014 -0.010417998 0.65487367
-0.015568812 -0.011120558 0.65420461
-0.015511091 -0.011817962 0.65354103
-0.015453796 -0.01251021 0.65288234
-0.015396875 -0.013197303 0.652228
-0.015340419 -0.013879448 0.65157896
-0.015284329 -0.014556527 0.6509341
-0.015228693 -0.015228689 0.65029454
-0.015173417 -0.015895933 0.64965904
-0.015118585 -0.016558439 0.64902866
-0.015064102 -0.017216116 0.64840233
-0.015010056 -0.017869145 0.64778101
-0.014956351 -0.018517375 0.64716363
-0.014903074 -0.019161105 0.64655113
-0.014850131 -0.019800156 0.64594245
-0.014797607 -0.020434767 0.64533865
-0.014745453 -0.021064907 0.64473903
-0.014693622 -0.021690577 0.64414322
-0.014642197 -0.022311896 0.64355201
-0.01469767 -0.023096323 0.64418972
-0.014772495 -0.023917347 0.64504993
-0.014848132 -0.024746895 0.6459195
-0.014924501 -0.025584847 0.64679742
-0.015001661 -0.026431471 0.64768451
-0.015079621 -0.027286947 0.64858073
-0.015158397 -0.028151304 0.64948636
-0.015238001 -0.02902478 0.65040153
-0.015318445 -0.029907435 0.6513263
-0.015399743 -0.030799478 0.65226096
-0.015481907 -0.031701058 0.65320551
-0.015564954 -0.032612264 0.6541602
-0.015648896 -0.033533365 0.65512526
-0.015733749 -0.034464419 0.65610075
-0.015819527 -0.035405576 0.65708685
-0.015906297 -0.036357254 0.65808439
-0.01599397 -0.037319243 0.65909231
-0.016082617 -0.038291961 0.66011143
-0.016172251 -0.039275467 0.66114187
-0.016262893 -0.04027003 0.66218388
-0.016354553 -0.04127574 0.66323769
-0.016447254 -0.042292923 0.66430336
-0.01654101 -0.043321669 0.66538125
-0.016635843 -0.044362247 0.66647148
-0.016731769 -0.045414776 0.66757429
-0.016828865 -0.046479732 0.6686905
-0.016927036 -0.047556907 0.66981912
-0.017026359 -0.048646748 0.67096096
-0.017126855 -0.049749434 0.67211628
-0.017228544 -0.050865233 0.67328537
-0.017331449 -0.051994354 0.67446834
-0.01743559 -0.053137034 0.67566556
-0.017540989 -0.054293543 0.67687726
-0.017647672 -0.055464119 0.67810374
-0.017755723 -0.056649208 0.67934591
-0.017865041 -0.057848692 0.68060261
-0.017975714 -0.059063047 0.68187499
-0.018087765 -0.060292542 0.68316311
-0.018201223 -0.061537415 0.68446743
-0.018316112 -0.062798113 0.68578827
-0.018432463 -0.064074785 0.68712586
-0.018550301 -0.065367728 0.68848062
-0.018669724 -0.0666776 0.68985349
-0.018790625 -0.068004161 0.69124341
-0.018913101 -0.069348037 0.69265145
-0.019037187 -0.070709556 0.69407797
-0.019162908 -0.072089046 0.69552326
-0.019290302 -0.073486894 0.69698787
-0.021592032 0.074492544 0.73586047
-0.021475654 0.07301724 0.73445565
-0.021360429 0.071557462 0.73306477
-0.021246528 0.07011354 0.73168987
-0.021133741 0.068684697 0.73032838
-0.02102224 0.067271173 0.72898245
-0.020911908 0.06587249 0.72765064
-0.020802638 0.064488202 0.72633159
-0.020694593 0.063118517 0.72502738
-0.020587575 0.06176275 0.72373557
-0.020481747 0.060421169 0.72245812
-0.020376915 0.059093088 0.72119266
-0.020273237 0.057778746 0.71994114
-0.020170521 0.056477457 0.7187013
-0.020068927 0.05518955 0.71747494
-0.019968351 0.053914547 0.71626091
-0.019868694 0.052652061 0.71505797
-0.019770112 0.051402241 0.7138679
-0.019672418 0.05016467 0.71268868
-0.019575769 0.048939407 0.71152198
-0.019479983 0.047725946 0.71036577
-0.019385209 0.046524525 0.70922172
-0.019291274 0.045334488 0.70808786
-0.019198325 0.044156104 0.70696586
-0.019106189 0.042988896 0.70585364
-0.019015009 0.041833013 0.70475304
-0.018924618 0.040687948 0.70366192
-0.018835161 0.039553851 0.70258206
-0.018746542 0.038430452 0.70151234
-0.018658683 0.037317336 0.70045179
-0.018571714 0.036214858 0.69940197
-0.018485481 0.035122424 0.69836104
-0.018400116 0.034040183 0.69733065
-0.018315464 0.032967836 0.69630879
-0.01823166 0.031905413 0.69529718
-0.018148549 0.030852556 0.69429392
-0.018066259 0.029809356 0.69330066
-0.017984647 0.028775454 0.69231546
-0.017903835 0.027750939 0.69133997
-0.017823746 0.026735604 0.69037318
-0.017744303 0.025729239 0.68941426
-0.017665632 0.024731904 0.68846464
-0.017587589 0.023743242 0.68752259
-0.017510299 0.022763401 0.6865896
-0.017433621 0.021792024 0.68566394
-0.017357673 0.020829231 0.68474722
-0.017282324 0.019874662 0.68383765
-0.017207688 0.018928468 0.68293667
-0.017133631 0.017990321 0.68204278
-0.017060271 0.01706028 0.68115723
-0.016987475 0.016138107 0.68027854
-0.016915357 0.015223831 0.67940795
-0.01684385 0.014317274 0.67854482
-0.016772885 0.013418317 0.67768824
-0.016702576 0.012526929 0.67683947
-0.016632793 0.011642963 0.67599714
-0.01656365 0.010766357 0.67516249
-0.016495021 0.0098970234 0.67433411
-0.016427018 0.0090348721 0.67351323
-0.016359514 0.0081797838 0.67269838
-0.01629262 0.0073316991 0.67189085
-0.016226215 0.0064904988 0.67108929
-0.016160404 0.005656153 0.67029488
-0.016095126 0.0048285425 0.66950691
-0.016030317 0.0040076077 0.6687246
-0.015966082 0.0031931698 0.66794926
-0.015902307 0.0023853481 0.66717935
-0.015839092 0.0015839338 0.66641629
-0.015776327 0.00078880787 0.66565871
-0.015714107 -0 0.66490763
-0.015652325 -0.00078263879 0.66416186
-0.015591079 -0.0015590787 0.66342252
-0.015530258 -0.0023295581 0.66268837
-0.015469962 -0.0030939579 0.66196054
-0.015410081 -0.0038525164 0.66123772
-0.015350712 -0.0046052337 0.66052103
-0.015291749 -0.0053521097 0.65980929
-0.015233287 -0.0060932934 0.65910357
-0.015175269 -0.0068289042 0.65840328
-0.015117643 -0.0075588226 0.65770763
-0.015060502 -0.0082832873 0.65701795
-0.015003744 -0.0090022385 0.65633273
-0.014947458 -0.0097158551 0.65565336
-0.014891547 -0.010424078 0.65497845
-0.014836099 -0.011127084 0.65430915
-0.014781016 -0.011824816 0.6536442
-0.014726386 -0.012517422 0.6529848
-0.014672114 -0.013204902 0.65232968
-0.014618284 -0.013887376 0.65167987
-0.014564804 -0.014564782 0.6510343
-0.014511758 -0.015237331 0.65039396
-0.014459097 -0.015904993 0.64975834
-0.014406772 -0.016567796 0.64912671
-0.01435487 -0.017225862 0.6485002
-0.014303297 -0.017879128 0.64787763
-0.014252135 -0.018527776 0.64726001
-0.014201295 -0.019171745 0.64664638
-0.01415086 -0.019811213 0.64603758
-0.014100738 -0.020446062 0.64543259
-0.014051015 -0.02107656 0.64483231
-0.014001597 -0.021702498 0.64423573
-0.013952566 -0.022324085 0.64364398
-0.014007905 -0.023113042 0.64431196
-0.014079271 -0.023934782 0.64517343
-0.014151368 -0.024764895 0.64604366
-0.014224251 -0.025603652 0.64692348
-0.014297844 -0.026451021 0.64781177
-0.014372202 -0.027307212 0.64870942
-0.014447339 -0.028172284 0.64961636
-0.014523264 -0.029046506 0.65053284
-0.014599994 -0.029929996 0.6514591
-0.014677536 -0.030822814 0.65239513
-0.014755908 -0.031725228 0.65334111
-0.014835121 -0.032637268 0.65429729
-0.014915188 -0.033559144 0.65526378
-0.014996124 -0.034491092 0.65624082
-0.015077946 -0.035433173 0.65722847
-0.015160663 -0.036385566 0.65822697
-0.015244342 -0.037348628 0.65923709
-0.015328902 -0.03832227 0.66025782
-0.015414404 -0.03930673 0.66128987
-0.015500864 -0.040302217 0.66233355
-0.015588301 -0.041308999 0.66338897
-0.015676729 -0.042327166 0.66445643
-0.015766168 -0.043356955 0.66553605
-0.015856631 -0.044398606 0.666628
-0.015948139 -0.045452207 0.66773266
-0.016040765 -0.046518207 0.66885072
-0.016134417 -0.047596514 0.66998124
-0.016229169 -0.048687518 0.67112494
-0.01632504 -0.049791366 0.67228222
-0.01642205 -0.050908357 0.67345327
-0.016520221 -0.052038699 0.67463827
-0.016619572 -0.053182632 0.67583752
-0.016720127 -0.054340422 0.67705137
-0.016821904 -0.055512249 0.67827988
-0.01692499 -0.05669868 0.67952424
-0.017029284 -0.057899565 0.68078321
-0.017134873 -0.059115291 0.68205774
-0.01724178 -0.060346216 0.68334824
-0.017350027 -0.061592579 0.68465495
-0.017459642 -0.062854707 0.68597811
-0.017570652 -0.064132899 0.68731809
-0.017683083 -0.065427393 0.68867528
-0.017797029 -0.066738844 0.69005072
-0.017912384 -0.068067104 0.6914432
-0.018029246 -0.069412589 0.69285381
-0.018147644 -0.070775807 0.69428295
-0.018267604 -0.072157025 0.69573104
-0.01838916 -0.073556632 0.69719839
-0.020529877 0.074555844 0.73608214
-0.020419039 0.073078662 0.7346738
-0.020309482 0.071617693 0.73328173
-0.020201005 0.070171893 0.73190337
-0.020093769 0.068741858 0.73054075
-0.019987578 0.067326546 0.72919148
-0.01988259 0.065926462 0.72785741
-0.019778613 0.064540714 0.72653627
-0.019675804 0.063169688 0.72522998
-0.019573972 0.06181255 0.72393608
-0.019473273 0.060469657 0.72265655
-0.019373607 0.059140474 0.72139013
-0.019274872 0.057824582 0.72013557
-0.019177221 0.05652231 0.71889472
-0.019080471 0.055232972 0.71766543
-0.018984774 0.053956717 0.7164495
-0.018889952 0.052693009 0.71524465
-0.018796153 0.051442146 0.71405274
-0.018703202 0.050203353 0.71287167
-0.018611243 0.048976958 0.71170324
-0.018520107 0.047762394 0.71054518
-0.018429935 0.04655984 0.70939946
-0.018340636 0.045368969 0.70826483
-0.018252125 0.044189364 0.70714015
-0.01816454 0.043021291 0.70602727
-0.018077714 0.041864216 0.70492399
-0.017991791 0.040718257 0.70383221
-0.017906606 0.039582998 0.70274985
-0.017822295 0.038458645 0.70167851
-0.017738706 0.037344664 0.70061648
-0.017655965 0.036241204 0.69956511
-0.017573994 0.035147995 0.69852352
-0.017492712 0.03406477 0.69749069
-0.017412243 0.032991618 0.69646829
-0.017332448 0.031928211 0.69545436
-0.017253445 0.03087461 0.6944505
-0.017175093 0.029830426 0.69345498
-0.017097518 0.028795809 0.69246924
-0.017020572 0.02777043 0.69149154
-0.016944382 0.026754349 0.69052345
-0.016868806 0.02574715 0.68956316
-0.016793964 0.024748981 0.68861216
-0.016719723 0.023759604 0.68766886
-0.016646195 0.022778988 0.68673456
-0.01657325 0.021806926 0.6858077
-0.016501004 0.020843387 0.68488967
-0.016429383 0.019888192 0.68397969
-0.016358323 0.018941224 0.68307674
-0.016287934 0.01800245 0.68218231
-0.016218089 0.017071664 0.68129486
-0.016148899 0.016148895 0.68041569
-0.016080236 0.015233934 0.67954332
-0.016012216 0.014326721 0.67867899
-0.01594471 0.013427109 0.67782122
-0.015877828 0.012535155 0.67697144
-0.015811449 0.011650532 0.67612797
-0.015745677 0.010773361 0.67529219
-0.015680397 0.0099034011 0.6744628
-0.015615708 0.0090406537 0.67364085
-0.015551552 0.008185029 0.67282563
-0.015487867 0.0073363781 0.67201638
-0.015424755 0.0064946413 0.67121446
-0.015362103 0.0056596994 0.67041838
-0.015300009 0.0048315823 0.6696294
-0.015238364 0.0040101111 0.66884613
-0.015177265 0.0031952262 0.66806978
-0.015116602 0.0023868382 0.66729897
-0.015056474 0.0015848577 0.66653496
-0.014996772 0.00078928471 0.66577631
-0.014937592 -0 0.66502434
-0.014878826 -0.00078308582 0.66427767
-0.01482057 -0.0015600622 0.6635375
-0.014762769 -0.0023309588 0.66280305
-0.014705369 -0.0030958652 0.66207367
-0.014648461 -0.0038548708 0.66135061
-0.014591945 -0.0046079755 0.66063249
-0.01453591 -0.0053553283 0.65992045
-0.014480256 -0.0060968995 0.6592133
-0.014425075 -0.0068329275 0.65851212
-0.014370265 -0.007563293 0.65781569
-0.014315917 -0.0082881451 0.65712517
-0.014261933 -0.0090075433 0.65643919
-0.014208399 -0.0097215474 0.65575898
-0.014155221 -0.010430157 0.6550833
-0.014102485 -0.011133552 0.65441322
-0.014050139 -0.011831701 0.6537481
-0.013998138 -0.012524664 0.65308732
-0.013946561 -0.013212532 0.65243196
-0.013895323 -0.013895303 0.6517809
-0.0138445 -0.014573157 0.65113515
-0.013794008 -0.015246034 0.65049362
-0.013743922 -0.015913993 0.64985716
-0.013694158 -0.016577154 0.64922488
-0.013644794 -0.017235547 0.64859766
-0.013595744 -0.017889142 0.64797437
-0.013547086 -0.018538117 0.64735609
-0.013498776 -0.019182473 0.64674222
-0.013450768 -0.01982218 0.64613223
-0.013403141 -0.020457417 0.64552706
-0.01335581 -0.021088123 0.64492565
-0.013308851 -0.021714449 0.64432895
-0.013262182 -0.022336304 0.643736
-0.013317142 -0.023129761 0.64443433
-0.013385038 -0.023952156 0.64529705
-0.013453631 -0.024783015 0.64616865
-0.01352297 -0.025622487 0.64704967
-0.013592986 -0.026470542 0.64793932
-0.013663732 -0.027327478 0.64883828
-0.013735218 -0.028193325 0.64974654
-0.013807456 -0.029068321 0.65066445
-0.013880457 -0.029952526 0.65159202
-0.013954234 -0.030846238 0.65252948
-0.014028801 -0.031749398 0.65347695
-0.014104168 -0.032662272 0.65443462
-0.014180349 -0.033585042 0.65540254
-0.014257358 -0.034517795 0.65638107
-0.014335209 -0.03546077 0.65737027
-0.014413914 -0.036414117 0.65837032
-0.014493533 -0.037378043 0.65938205
-0.014573991 -0.038352609 0.66040432
-0.014655348 -0.039338052 0.66143811
-0.014737617 -0.040334523 0.66248345
-0.014820815 -0.041342288 0.6635406
-0.014904959 -0.042361468 0.66460979
-0.014990062 -0.043392301 0.66569114
-0.015076144 -0.044434935 0.66678488
-0.01516322 -0.045489669 0.66789126
-0.015251307 -0.046556622 0.66901058
-0.015340475 -0.047636181 0.6701436
-0.01543064 -0.048728377 0.67128927
-0.015521872 -0.049833357 0.67244846
-0.015614188 -0.05095154 0.67362148
-0.015707608 -0.052083135 0.6748085
-0.015802154 -0.053228319 0.67600989
-0.015897846 -0.054387361 0.67722571
-0.015994702 -0.055560589 0.67845649
-0.016092803 -0.056748301 0.679703
-0.016192058 -0.057950497 0.68096411
-0.016292544 -0.059167653 0.68224096
-0.016394285 -0.060400009 0.68353373
-0.016497305 -0.061647803 0.68484271
-0.016601628 -0.062911391 0.68616825
-0.016707279 -0.064191103 0.68751073
-0.016814282 -0.065487206 0.68887037
-0.016922729 -0.066800237 0.69024831
-0.017032519 -0.068130046 0.69164336
-0.017143743 -0.06947729 0.69305658
-0.017256429 -0.070842206 0.69448847
-0.017370608 -0.072225153 0.69593924
-0.017486306 -0.073626548 0.69740927
-0.019465826 0.074618995 0.73630303
-0.019360645 0.073140234 0.73489231
-0.019256679 0.071677625 0.73349786
-0.019153738 0.070230395 0.73211724
-0.019051978 0.06879884 0.73075235
-0.018951293 0.067382395 0.72940195
-0.018851584 0.065980554 0.72806466
-0.018753001 0.064593673 0.72674239
-0.018655362 0.063220948 0.72543287
-0.018558815 0.061862707 0.7241379
-0.018463181 0.060518175 0.72285527
-0.018368609 0.05918777 0.72158682
-0.01827492 0.057870567 0.72033024
-0.018182261 0.056567013 0.71908748
-0.01809046 0.055276424 0.71785623
-0.017999656 0.053998977 0.71663833
-0.017909762 0.052734315 0.71543264
-0.017820686 0.051481992 0.71423793
-0.017732564 0.050242275 0.71305603
-0.017645236 0.049014539 0.71188474
-0.017558837 0.047799051 0.7107259
-0.01747321 0.046595216 0.7095775
-0.017388484 0.045403272 0.70844108
-0.017304504 0.044222623 0.70731473
-0.017221402 0.043053508 0.70620012
-0.017139025 0.041895419 0.70509529
-0.017057501 0.040748507 0.70400184
-0.016976748 0.039612442 0.70291877
-0.016896691 0.038486928 0.70184499
-0.016817449 0.037372112 0.70078218
-0.016738882 0.036267579 0.69972843
-0.016661111 0.035173476 0.69868535
-0.016583996 0.034089327 0.69765109
-0.016507655 0.033015341 0.6966272
-0.01643195 0.03195104 0.69561177
-0.016356999 0.030896544 0.69460648
-0.016282666 0.029851586 0.69360954
-0.016209068 0.028816134 0.69262242
-0.016136132 0.02779001 0.69164419
-0.016063789 0.026773006 0.69067389
-0.015992152 0.025765121 0.68971306
-0.01592109 0.024766147 0.68875998
-0.015850717 0.023776054 0.68781614
-0.015780905 0.022794634 0.68687975
-0.015711764 0.021821916 0.68595243
-0.015643166 0.020857543 0.68503237
-0.015575224 0.019901663 0.68412113
-0.015507813 0.018953979 0.68321699
-0.015441038 0.01801455 0.68232131
-0.01537478 0.017083079 0.68143266
-0.015309143 0.016159654 0.68055236
-0.015244011 0.015244037 0.67967874
-0.015179484 0.014336169 0.67881328
-0.0151155 0.013436019 0.67795515
-0.015052002 0.012543321 0.67710352
-0.014989086 0.011658192 0.67625964
-0.014926643 0.010780394 0.67542213
-0.01486477 0.0099098682 0.67459226
-0.014803355 0.009046495 0.67376864
-0.014742497 0.0081902742 0.67295235
-0.014682088 0.0073410571 0.67214209
-0.014622221 0.006498754 0.67133915
-0.014562791 0.0056633055 0.67054206
-0.014503891 0.0048345923 0.66975206
-0.014445465 0.0040126443 0.6689685
-0.014387459 0.0031972229 0.66819048
-0.014329967 0.0023883283 0.66741931
-0.014272884 0.0015858412 0.66665375
-0.014216301 0.00078976154 0.66589481
-0.014160119 -2.9802322e-08 0.66514128
-0.014104425 -0.00078359246 0.66439432
-0.01404912 -0.0015610158 0.66365254
-0.013994294 -0.0023323894 0.6629172
-0.01393985 -0.0030977428 0.66218698
-0.013885872 -0.0038571954 0.66146302
-0.013832265 -0.0046107471 0.66074401
-0.013779116 -0.0053585768 0.6600312
-0.013726329 -0.0061005652 0.65932316
-0.013673989 -0.0068369806 0.65862119
-0.013622046 -0.0075677931 0.65792447
-0.013570454 -0.0082930624 0.65723252
-0.013519294 -0.0090128779 0.65654635
-0.013468475 -0.0097272396 0.65586483
-0.013418079 -0.010436267 0.6551888
-0.013368017 -0.011140019 0.65451741
-0.013318369 -0.011838585 0.65385151
-0.013269046 -0.012531906 0.65318996
-0.01322013 -0.013220131 0.65253389
-0.013171531 -0.01390326 0.65188205
-0.01312333 -0.014581501 0.65123558
-0.013075439 -0.015254647 0.65059322
-0.013027937 -0.015923053 0.64995611
-0.012980778 -0.016586512 0.64932358
-0.012933919 -0.017245233 0.64869511
-0.012887438 -0.017899215 0.64807171
-0.01284125 -0.018548489 0.64745224
-0.012795432 -0.019193172 0.64683771
-0.012749901 -0.019833177 0.64622706
-0.01270473 -0.020468742 0.64562118
-0.01265984 -0.021099746 0.64501911
-0.012615304 -0.02172634 0.64442176
-0.012571043 -0.022348553 0.64382815
-0.012625378 -0.02314651 0.64455694
-0.012689794 -0.023969591 0.64542085
-0.012754871 -0.024801135 0.6462937
-0.012820618 -0.025641233 0.64717555
-0.012887087 -0.026490092 0.648067
-0.012954208 -0.027347773 0.64896727
-0.013022033 -0.028214365 0.64987695
-0.013090571 -0.029090136 0.65079618
-0.013159836 -0.029975146 0.65172517
-0.013229835 -0.030869603 0.65266407
-0.013300585 -0.031773627 0.65361297
-0.013372094 -0.032687336 0.65457207
-0.013444377 -0.03361094 0.65554154
-0.013517446 -0.034544557 0.65652156
-0.013591314 -0.035488427 0.65751231
-0.013665992 -0.036442637 0.6585139
-0.013741497 -0.037407428 0.65952659
-0.013817885 -0.038383007 0.66055113
-0.013895082 -0.039369375 0.66158652
-0.013973145 -0.040366858 0.6626336
-0.014052092 -0.041375607 0.66369241
-0.014131934 -0.0423958 0.66476327
-0.01421269 -0.043427676 0.66584641
-0.014294375 -0.044471383 0.666942
-0.014377004 -0.04552722 0.66805029
-0.014460593 -0.046595246 0.66917133
-0.01454521 -0.047675967 0.67030621
-0.014630772 -0.048769236 0.67145383
-0.014717348 -0.049875468 0.67261499
-0.014804953 -0.050994813 0.67378998
-0.014893607 -0.0521276 0.67497903
-0.014983331 -0.053274095 0.67618251
-0.015074142 -0.054434419 0.67740047
-0.015166059 -0.055608869 0.67863327
-0.015259106 -0.056797773 0.67988122
-0.015353356 -0.058001548 0.68114537
-0.015448722 -0.059220076 0.68242437
-0.015545279 -0.060453862 0.68371952
-0.015643051 -0.061703146 0.68503082
-0.015742062 -0.062968224 0.68635875
-0.015842333 -0.064249456 0.68770367
-0.01594389 -0.065547109 0.68906581
-0.016046757 -0.06686148 0.69044542
-0.016151022 -0.068193227 0.69184387
-0.016256588 -0.06954208 0.69325978
-0.016363544 -0.070908695 0.69469428
-0.016471917 -0.072293401 0.6961478
-0.016581733 -0.073696613 0.69762069
-0.018399971 0.074682266 0.73652428
-0.018300464 0.073201865 0.73511118
-0.018202111 0.071737766 0.7337144
-0.018104808 0.070289254 0.73233259
-0.018008459 0.068855852 0.7309643
-0.017913211 0.067437947 0.72961164
-0.017818885 0.066034704 0.72827214
-0.017725626 0.064646423 0.72694778
-0.017633261 0.063272268 0.72563601
-0.01754193 0.061912686 0.72433901
-0.017451465 0.060566843 0.72305429
-0.017362002 0.059235096 0.72178376
-0.017273452 0.05791688 0.72052628
-0.017185729 0.056611836 0.71928048
-0.017098961 0.055320144 0.71804833
-0.017012997 0.054041296 0.71682745
-0.016927963 0.052775413 0.71561992
-0.016843703 0.051521927 0.7144233
-0.016760349 0.050281048 0.71323955
-0.016677747 0.049052209 0.71206653
-0.016596023 0.047835588 0.71090591
-0.016515097 0.046630859 0.70975667
-0.016434887 0.045437634 0.70861763
-0.01635552 0.044256091 0.7074905
-0.016276849 0.043085784 0.70637333
-0.016198998 0.041926801 0.70526773
-0.016121823 0.040778697 0.70417172
-0.016045446 0.039641708 0.70308709
-0.015969722 0.03851518 0.7020117
-0.015894774 0.037399471 0.70094734
-0.015820464 0.036293983 0.69989204
-0.015746908 0.035198957 0.69884741
-0.01567403 0.034114093 0.6978125
-0.015601766 0.033039063 0.69678628
-0.015530224 0.031973958 0.69577026
-0.015459276 0.030918539 0.69476271
-0.015389033 0.029872835 0.69376516
-0.015319366 0.028836429 0.69277585
-0.015250384 0.02780953 0.69179618
-0.015181964 0.026791662 0.69082457
-0.015114212 0.025783092 0.68986237
-0.015047006 0.024783313 0.68890798
-0.01498045 0.023792475 0.68796277
-0.014914427 0.02281031 0.68702519
-0.014849036 0.021836817 0.68609655
-0.014784217 0.020871818 0.68517601
-0.014719906 0.019915164 0.68426275
-0.014656208 0.018966854 0.68335813
-0.014593004 0.01802668 0.68246055
-0.014530395 0.017094582 0.68157142
-0.014468271 0.016170412 0.68068916
-0.014406726 0.01525417 0.67981517
-0.014345651 0.014345676 0.67894781
-0.014285143 0.013444811 0.67808855
-0.014225093 0.012551576 0.67723578
-0.014165596 0.011665791 0.67639083
-0.014106545 0.010787338 0.67555225
-0.014048032 0.0099162459 0.6747213
-0.013989955 0.0090523362 0.67389649
-0.013932405 0.0081955194 0.67307919
-0.013875325 0.0073457658 0.67226863
-0.013818664 0.0065028667 0.67146397
-0.013762512 0.0056669414 0.67066652
-0.013706766 0.0048377216 0.66987485
-0.013651517 0.0040151477 0.66909027
-0.013596666 0.0031992197 0.6683113
-0.013542298 0.0023898184 0.66753924
-0.01348832 0.0015868545 0.6667726
-0.013434815 0.00079029799 0.66601282
-0.013381688 -0 0.66525829
-0.013329023 -0.0007840395 0.66451043
-0.013276772 -0.0015619695 0.66376841
-0.013224885 -0.0023338199 0.66303152
-0.013173445 -0.0030996501 0.66230106
-0.01312236 -0.00385952 0.66157556
-0.013071714 -0.0046135187 0.66085625
-0.013021414 -0.0053617656 0.66014206
-0.012971542 -0.0061042607 0.65943378
-0.012922009 -0.0068410933 0.65873033
-0.012872893 -0.0075722933 0.65803283
-0.01282411 -0.00829795 0.65734005
-0.012775734 -0.0090181828 0.65665311
-0.012727683 -0.0097329319 0.65597063
-0.012680031 -0.010442376 0.65529394
-0.012632696 -0.011146486 0.65462172
-0.012585751 -0.01184541 0.65395504
-0.012539154 -0.012539178 0.65329331
-0.012492863 -0.013227731 0.65263587
-0.012446949 -0.013911307 0.65198386
-0.012401335 -0.014589816 0.65133607
-0.012356091 -0.015263408 0.65069366
-0.012311138 -0.015932053 0.65005517
-0.01226655 -0.01659593 0.64942199
-0.012222245 -0.017254919 0.6487928
-0.012178296 -0.017909259 0.64816862
-0.012134627 -0.01855883 0.6475485
-0.012091305 -0.019203842 0.64693332
-0.012048255 -0.019844174 0.64632189
-0.012005546 -0.020480067 0.64571542
-0.011963139 -0.021111429 0.64511323
-0.011920995 -0.021738291 0.64451468
-0.011879182 -0.022360831 0.6439209
-0.011932611 -0.023163289 0.64467961
-0.011993538 -0.023987085 0.64554489
-0.012055089 -0.024819314 0.64641899
-0.012117275 -0.025660098 0.64730209
-0.012180143 -0.026509732 0.64819491
-0.012243629 -0.027368098 0.64909655
-0.012307782 -0.028235465 0.65000755
-0.012372608 -0.029111981 0.65092814
-0.012438123 -0.029997826 0.65185851
-0.012504335 -0.030893087 0.65279883
-0.012571256 -0.031797886 0.65374923
-0.012638896 -0.0327124 0.65470976
-0.012707268 -0.033636898 0.65568078
-0.012776385 -0.034571379 0.65666229
-0.012846258 -0.035516113 0.65765458
-0.012916897 -0.036471248 0.65865773
-0.01298832 -0.037436932 0.65967202
-0.013060578 -0.038413465 0.66069818
-0.013133603 -0.039400816 0.66173524
-0.013207448 -0.040399253 0.66278392
-0.013282128 -0.041408986 0.66384447
-0.013357658 -0.042430192 0.66491711
-0.013434052 -0.043463111 0.66600198
-0.013511324 -0.044507861 0.66709936
-0.013589489 -0.045564741 0.66820937
-0.013668566 -0.046633959 0.66933239
-0.013748568 -0.047715604 0.67046845
-0.013829559 -0.048810214 0.6716187
-0.013911462 -0.049917638 0.67278183
-0.013994342 -0.051038176 0.67395878
-0.014078215 -0.052172184 0.67514992
-0.014163098 -0.053319871 0.67635536
-0.014249013 -0.054481506 0.67757547
-0.014335975 -0.055657327 0.67881048
-0.014424005 -0.056847513 0.68006051
-0.014513176 -0.058052689 0.68132693
-0.014603402 -0.059272647 0.68260825
-0.014694758 -0.060507804 0.6839056
-0.014787264 -0.061758578 0.68521923
-0.014880943 -0.063025147 0.6865496
-0.014975815 -0.064307898 0.68789691
-0.015071905 -0.065607101 0.68926156
-0.015169236 -0.066923082 0.69064379
-0.015267833 -0.068256199 0.69204396
-0.015367778 -0.06960699 0.69346333
-0.01546898 -0.070975333 0.69490051
-0.015571525 -0.072361827 0.69635683
-0.015675439 -0.073766768 0.69783247
-0.017332308 0.074745566 0.73674589
-0.017238574 0.073263943 0.73533154
-0.017145772 0.071797907 0.7339313
-0.01705404 0.070347905 0.7325471
-0.016963208 0.068913013 0.73117661
-0.016873414 0.067493677 0.72982168
-0.016784566 0.066089243 0.72848111
-0.016696574 0.064699233 0.72715336
-0.016609572 0.063324004 0.72584069
-0.016523402 0.061962754 0.72454041
-0.016438192 0.060615808 0.72325474
-0.016353786 0.059282511 0.72198111
-0.016270312 0.057962984 0.7207216
-0.016187616 0.056656629 0.71947384
-0.016105825 0.055363804 0.71823967
-0.016024789 0.054083675 0.71701694
-0.015944632 0.05281657 0.7158075
-0.015865205 0.051561892 0.71460903
-0.015786633 0.05031988 0.71342349
-0.015708834 0.049090087 0.71224964
-0.015631733 0.047872186 0.71108621
-0.015555451 0.046666354 0.70993519
-0.015479846 0.045472056 0.70879441
-0.015405035 0.04428947 0.70766556
-0.015330882 0.043118089 0.70654672
-0.015257499 0.041958123 0.70543945
-0.015184755 0.040809005 0.70434189
-0.015112763 0.039671004 0.70325553
-0.01504145 0.038543701 0.70217949
-0.014970747 0.037426889 0.70111269
-0.014900765 0.036320627 0.70005679
-0.014831374 0.035224557 0.69900972
-0.014762687 0.034138709 0.69797331
-0.014694574 0.033062756 0.69694561
-0.014627145 0.031996876 0.69592816
-0.014560274 0.030940562 0.69491917
-0.014494068 0.029894024 0.6939202
-0.014428406 0.028856814 0.69292939
-0.014363391 0.027829081 0.69194841
-0.01429896 0.026810557 0.6909762
-0.014235049 0.025801033 0.69001186
-0.014171762 0.024800599 0.68905699
-0.014108983 0.023808867 0.6881097
-0.014046808 0.022826046 0.68717158
-0.013985128 0.021851778 0.68624085
-0.013924038 0.020886064 0.68531907
-0.013863428 0.019928664 0.68440449
-0.013803395 0.018979669 0.68349868
-0.01374383 0.018038779 0.6825999
-0.013684825 0.017106026 0.68170965
-0.013626276 0.016181171 0.68082619
-0.013568274 0.015264302 0.67995101
-0.013510716 0.014355123 0.67908251
-0.013453692 0.013453692 0.67822212
-0.013397148 0.012559861 0.67736888
-0.01334103 0.011673421 0.67652214
-0.013285426 0.010794431 0.6756832
-0.013230238 0.0099226832 0.6748504
-0.013175553 0.0090581775 0.67402536
-0.013121272 0.0082007945 0.67320627
-0.01306748 0.0073504448 0.67239463
-0.013014084 0.0065070093 0.67158896
-0.012961168 0.0056705177 0.67079049
-0.012908635 0.0048407614 0.66999781
-0.012856571 0.0040176809 0.66921222
-0.012804881 0.0032011867 0.6684323
-0.012753649 0.0023913085 0.66765928
-0.012702824 0.0015878677 0.66689241
-0.012652361 0.00079077482 0.66613096
-0.012602338 -0 0.66537619
-0.012552669 -0.00078454614 0.66462672
-0.01250343 -0.001562953 0.66388381
-0.012454536 -0.0023351908 0.66314602
-0.012406063 -0.0031015277 0.66241461
-0.012357926 -0.0038618743 0.66168833
-0.0123102 -0.0046162903 0.66096818
-0.012262804 -0.0053650141 0.66025299
-0.012215809 -0.0061078668 0.65954387
-0.012169173 -0.0068451762 0.65884018
-0.012122852 -0.0075767636 0.65814126
-0.012076923 -0.0083028674 0.65744823
-0.012031301 -0.0090234876 0.65675986
-0.01198606 -0.0097386837 0.65607727
-0.01194112 -0.010448426 0.65539914
-0.011896555 -0.011153013 0.65472674
-0.011852284 -0.011852294 0.65405869
-0.011808377 -0.01254639 0.65339619
-0.011764758 -0.013235331 0.65273809
-0.011721496 -0.013919294 0.6520853
-0.011678515 -0.014598131 0.65143675
-0.011635884 -0.015272081 0.65079349
-0.011593527 -0.015941113 0.65015441
-0.011551514 -0.016605288 0.64952046
-0.011509804 -0.017264694 0.64889109
-0.011468358 -0.017919272 0.64826572
-0.011427246 -0.018569291 0.64764541
-0.011386392 -0.019214541 0.64702898
-0.011345863 -0.019855291 0.64641744
-0.011305588 -0.020491391 0.64580977
-0.011265632 -0.021123052 0.64520681
-0.011225924 -0.021750242 0.64460766
-0.011186528 -0.02237308 0.64401323
-0.011238839 -0.023180127 0.64480257
-0.011296265 -0.024004549 0.64566904
-0.01135428 -0.024837494 0.64654446
-0.011412894 -0.025679052 0.64742887
-0.011472118 -0.026529253 0.64832246
-0.011531993 -0.027388483 0.64922589
-0.011592461 -0.028256625 0.65013832
-0.011653567 -0.029133916 0.65106034
-0.011715321 -0.030020535 0.65199214
-0.011777732 -0.030916512 0.65293378
-0.011840812 -0.031822175 0.6538856
-0.011904571 -0.032737553 0.65484768
-0.011969021 -0.033662856 0.65582013
-0.012034172 -0.034598261 0.65680325
-0.012100036 -0.035543859 0.65779704
-0.012166627 -0.036499858 0.65880179
-0.012233953 -0.037466496 0.65981764
-0.012302029 -0.038443804 0.66084486
-0.012370907 -0.039432257 0.66188419
-0.01244052 -0.040431648 0.66293448
-0.01251092 -0.041442424 0.66399682
-0.012582121 -0.042464644 0.66507113
-0.01265414 -0.043498605 0.66615784
-0.012726985 -0.044544458 0.66725695
-0.012800675 -0.045602411 0.66836882
-0.012875223 -0.046672702 0.66949368
-0.012950645 -0.04775551 0.67063171
-0.013026956 -0.048851103 0.67178315
-0.013104215 -0.049959809 0.6729489
-0.013182351 -0.051081598 0.67412794
-0.013261425 -0.052216858 0.67532098
-0.013341453 -0.053365767 0.67652851
-0.013422453 -0.054528713 0.67775071
-0.013504443 -0.055705816 0.67898786
-0.013587439 -0.056897372 0.68024021
-0.013671462 -0.05810371 0.681508
-0.013756582 -0.059325248 0.68279243
-0.013842717 -0.060561895 0.68409204
-0.013929937 -0.0618141 0.68540812
-0.014018265 -0.063082188 0.68674088
-0.014107718 -0.06436643 0.68809062
-0.014198322 -0.065667242 0.68945777
-0.014290096 -0.066984802 0.69084245
-0.014383065 -0.068319559 0.69224524
-0.014477306 -0.069672018 0.69366729
-0.014572734 -0.071042061 0.6951071
-0.014669429 -0.072430342 0.69656616
-0.014767415 -0.073837072 0.69804466
-0.016262908 0.074809372 0.73696911
-0.016174808 0.073325783 0.73555124
-0.016087733 0.071858525 0.73414969
-0.016001517 0.070406705 0.7327621
-0.015916292 0.068970591 0.73139042
-0.015831897 0.067549437 0.73003209
-0.015748465 0.066143543 0.72868925
-0.015665837 0.064752102 0.72735941
-0.015584141 0.063375473 0.72604454
-0.015503225 0.062012911 0.72474223
-0.015423211 0.060664624 0.72345442
-0.015343953 0.059329987 0.72217882
-0.015265571 0.058009177 0.72091728
-0.015187985 0.056701839 0.71966851
-0.01511112 0.055407435 0.71843141
-0.015035094 0.054126352 0.71720773
-0.014959765 0.052857876 0.71599531
-0.01488525 0.051602215 0.71479607
-0.014811411 0.050358772 0.71360767
-0.014738361 0.049127907 0.71243191
-0.01466597 0.047908843 0.71126682
-0.014594345 0.046701938 0.710114
-0.014523418 0.045506716 0.70897245
-0.014453116 0.044322878 0.70784092
-0.014383551 0.043150693 0.70672131
-0.014314594 0.041989505 0.70561147
-0.014246351 0.040839523 0.70451313
-0.014178701 0.039700359 0.70342433
-0.014111746 0.038572103 0.70234668
-0.014045365 0.037454337 0.70127833
-0.01397966 0.036347151 0.70022076
-0.013914512 0.035250127 0.69917226
-0.013850024 0.034163386 0.69813436
-0.013786077 0.033086628 0.69710511
-0.01372277 0.032019794 0.69608623
-0.013660043 0.030962765 0.69507664
-0.013597834 0.029915273 0.69407541
-0.013536241 0.028877318 0.69308406
-0.013475151 0.027848661 0.69210088
-0.013414661 0.026829362 0.69112724
-0.013354662 0.025819033 0.69016159
-0.013295247 0.024817795 0.68920541
-0.01323631 0.023825347 0.6882568
-0.013177942 0.022841752 0.68731731
-0.013120037 0.021866709 0.68638539
-0.013062686 0.020900279 0.68546236
-0.013005836 0.019942313 0.68454731
-0.01294943 0.018992513 0.68363947
-0.012893558 0.018050998 0.68274027
-0.012838121 0.01711753 0.68184805
-0.012783203 0.016192049 0.68096411
-0.012728709 0.015274495 0.68008703
-0.012674722 0.01436469 0.67921811
-0.012621146 0.013462573 0.67835581
-0.012568065 0.012568086 0.6775015
-0.012515386 0.01168102 0.67665368
-0.01246319 0.010801435 0.67581356
-0.012411383 0.0099290907 0.67497975
-0.012360049 0.0090640485 0.67415357
-0.012309095 0.0082060695 0.67333347
-0.012258602 0.0073551536 0.67252076
-0.01220852 0.0065111816 0.67171478
-0.012158806 0.0056741238 0.67091465
-0.012109536 0.0048438013 0.67012167
-0.012060623 0.0040201843 0.66933435
-0.012012144 0.0032032728 0.66855407
-0.011964012 0.0023928285 0.66777945
-0.011916305 0.0015888512 0.66701162
-0.011868937 0.00079125166 0.66624922
-0.011821982 -0 0.66549355
-0.01177536 -0.00078499317 0.66474313
-0.011729143 -0.0015638769 0.66399926
-0.011683286 -0.0023366809 0.66326129
-0.01163775 -0.0031033456 0.66252834
-0.011592604 -0.0038641989 0.6618017
-0.011547769 -0.0046191216 0.66108012
-0.011503318 -0.0053682029 0.66036463
-0.011459171 -0.0061115324 0.65965414
-0.011415397 -0.0068492293 0.65894961
-0.01137192 -0.0075812936 0.65824986
-0.01132881 -0.0083077848 0.657556
-0.011285989 -0.0090287924 0.65686685
-0.011243526 -0.0097444057 0.65618336
-0.011201345 -0.010454595 0.65550452
-0.011159516 -0.011159509 0.65483123
-0.011117999 -0.011859208 0.654163
-0.011076754 -0.012553692 0.65349925
-0.011035848 -0.01324302 0.65284085
-0.010995209 -0.013927251 0.65218681
-0.010954903 -0.014606535 0.65153807
-0.010914857 -0.015280783 0.65089351
-0.010875136 -0.015950173 0.65025425
-0.01083567 -0.016614676 0.64961904
-0.010796522 -0.017274439 0.64898896
-0.010757623 -0.017929345 0.64836293
-0.010719036 -0.018579662 0.64774185
-0.010680694 -0.01922524 0.64712471
-0.010642655 -0.019866288 0.64651251
-0.010604857 -0.020502746 0.64590412
-0.010567356 -0.021134704 0.64530063
-0.01053012 -0.021762252 0.6447013
-0.010493114 -0.022385299 0.64410567
-0.01054406 -0.023196936 0.64492565
-0.010597975 -0.024022073 0.64579338
-0.010652443 -0.024855673 0.64667004
-0.010707476 -0.025697947 0.64755577
-0.01076308 -0.026548922 0.64845073
-0.010819264 -0.027408808 0.64935499
-0.010876071 -0.028277785 0.65026927
-0.010933442 -0.029155821 0.65119267
-0.010991424 -0.030043215 0.6521259
-0.011050024 -0.030940086 0.65306902
-0.011109252 -0.031846493 0.65402228
-0.011169117 -0.032762766 0.65498579
-0.011229632 -0.033688903 0.65595978
-0.011290806 -0.034625143 0.65694433
-0.011352651 -0.035571635 0.65793973
-0.011415177 -0.036528558 0.65894604
-0.011478393 -0.03749609 0.65996349
-0.011542317 -0.038474411 0.66099238
-0.011606955 -0.039463669 0.66203272
-0.01167236 -0.040464193 0.66308534
-0.011738466 -0.041475922 0.66414934
-0.011805326 -0.042499155 0.66522545
-0.011872952 -0.043534189 0.66631389
-0.011941358 -0.044581056 0.66741484
-0.012010555 -0.045640111 0.66852856
-0.01208056 -0.046711504 0.66965526
-0.012151386 -0.047795445 0.6707952
-0.012223047 -0.04889217 0.67194855
-0.012295601 -0.050002128 0.67311627
-0.012368979 -0.051125139 0.67429733
-0.012443237 -0.052261591 0.67549247
-0.012518392 -0.053411812 0.67670202
-0.01259446 -0.05457598 0.67792636
-0.012671459 -0.055754423 0.67916566
-0.012749406 -0.056947321 0.68042016
-0.012828316 -0.058155 0.68169016
-0.012908258 -0.059377998 0.68297684
-0.012989152 -0.060616046 0.68427885
-0.013071069 -0.061869711 0.68559724
-0.013154024 -0.063139319 0.68693244
-0.01323804 -0.064425141 0.68828458
-0.013323136 -0.065727472 0.68965417
-0.013409332 -0.067046642 0.69104153
-0.013496651 -0.068383008 0.69244689
-0.013585116 -0.069736928 0.69387066
-0.0136748 -0.071108937 0.69531417
-0.013765623 -0.072498947 0.69677597
-0.01385766 -0.073907524 0.69825727
-0.015191609 0.074872941 0.7371915
-0.015109245 0.073387742 0.73577112
-0.015027837 0.071918935 0.73436731
-0.014947233 0.070465535 0.73297739
-0.014867556 0.06902793 0.73160338
-0.014788659 0.067605287 0.73024285
-0.01471066 0.066197991 0.72889781
-0.01463348 0.064805418 0.7275669
-0.01455704 0.063427091 0.72624874
-0.014481459 0.062063396 0.72494537
-0.014406595 0.06071353 0.72365439
-0.014332564 0.059377789 0.72237778
-0.014259229 0.058055401 0.72111315
-0.014186701 0.056746811 0.71986246
-0.014114846 0.055451214 0.7186234
-0.014043775 0.05416885 0.71739781
-0.013973417 0.052899361 0.7161845
-0.013903703 0.051642329 0.71498233
-0.013834737 0.050397962 0.7137931
-0.013766396 0.049165696 0.7126146
-0.013698782 0.047945738 0.71144861
-0.013631774 0.046737492 0.71029305
-0.013565472 0.045541227 0.70914978
-0.013499759 0.044356346 0.70801657
-0.013434734 0.043183059 0.70689523
-0.013370276 0.042020857 0.70578372
-0.013306489 0.040869921 0.70468378
-0.013243256 0.039729744 0.70359337
-0.013180672 0.038600564 0.70251405
-0.013118677 0.037481964 0.7014451
-0.01305721 0.036373675 0.70038509
-0.012996369 0.035275847 0.69933593
-0.012936041 0.034188122 0.69829559
-0.012876321 0.033110559 0.69726574
-0.0128171 0.032042742 0.69624454
-0.01275847 0.030984879 0.69523352
-0.012700326 0.029936492 0.69423085
-0.012642756 0.028897732 0.69323814
-0.01258566 0.027868241 0.69225347
-0.012529124 0.026848108 0.69127858
-0.012473093 0.025837123 0.69031239
-0.012417515 0.02483502 0.68935394
-0.012362476 0.023841918 0.68840486
-0.012307878 0.022857487 0.68746334
-0.012253804 0.021881789 0.68653083
-0.012200159 0.020914555 0.68560576
-0.012147026 0.019955814 0.68468952
-0.012094309 0.019005358 0.68378049
-0.012042092 0.018063128 0.68288004
-0.011990281 0.017128974 0.68198657
-0.011938956 0.016202837 0.6811015
-0.011888027 0.015284598 0.68022323
-0.011837572 0.014374197 0.67935318
-0.011787544 0.013471484 0.67849052
-0.011737894 0.012576312 0.67763436
-0.011688704 0.011688679 0.67678607
-0.011639883 0.010808498 0.67594415
-0.011591507 0.0099355876 0.67510992
-0.011543493 0.0090698898 0.67428201
-0.011495914 0.0082113743 0.67346156
-0.011448687 0.0073598623 0.67264712
-0.011401886 0.0065153539 0.67184007
-0.011355426 0.0056777 0.67103887
-0.011309383 0.0048469007 0.67024487
-0.011263672 0.0040227473 0.66945666
-0.011218367 0.0032052696 0.66867542
-0.011173389 0.0023942888 0.66789973
-0.011128807 0.0015898347 0.66713101
-0.011084579 0.0007917583 0.66636825
-0.011040663 -0 0.66561103
-0.010997131 -0.00078552961 0.66486037
-0.010953907 -0.0015648305 0.66411489
-0.010911055 -0.0023381114 0.66337597
-0.010868503 -0.0031052828 0.66264218
-0.010826315 -0.0038665235 0.66191471
-0.010784419 -0.0046218932 0.66119218
-0.010742881 -0.0053714216 0.66047585
-0.010701627 -0.0061152279 0.65976453
-0.010660723 -0.0068533421 0.65905917
-0.01062013 -0.0075857937 0.65835917
-0.010579811 -0.0083127022 0.65766388
-0.010539833 -0.009034127 0.65697443
-0.01050012 -0.009750098 0.6562897
-0.010460739 -0.010460764 0.65561056
-0.01042162 -0.011166006 0.65493596
-0.010382825 -0.011866063 0.65426695
-0.010344285 -0.012560934 0.65360236
-0.010306061 -0.013250649 0.65294325
-0.010268088 -0.013935268 0.65228844
-0.010230426 -0.01461491 0.65163893
-0.010193006 -0.015289485 0.65099365
-0.010155892 -0.015959263 0.65035367
-0.010119014 -0.016624093 0.64971769
-0.010082436 -0.017284155 0.64908695
-0.01004612 -0.017939508 0.64846075
-0.010010035 -0.018590033 0.64783841
-0.0099742385 -0.019236028 0.64722115
-0.0099386666 -0.019877315 0.6466077
-0.0099033779 -0.020514131 0.64599919
-0.0098683089 -0.021146357 0.64539444
-0.0098335166 -0.021774232 0.64479452
-0.0097989393 -0.022397578 0.64419824
-0.0098482715 -0.023213774 0.64504892
-0.0098986654 -0.024039596 0.64591789
-0.009949577 -0.024873942 0.64679587
-0.010001017 -0.025716901 0.64768296
-0.010052989 -0.026568621 0.64857918
-0.010105506 -0.027429223 0.64948475
-0.010158605 -0.028299004 0.65040046
-0.010212233 -0.029177815 0.65132523
-0.010266431 -0.030065954 0.65225989
-0.010321207 -0.030963629 0.65320444
-0.010376571 -0.031870902 0.65415913
-0.010432531 -0.032787949 0.65512413
-0.010489099 -0.03371495 0.65609962
-0.010546284 -0.034652054 0.65708572
-0.010604096 -0.03559947 0.6580826
-0.010662545 -0.036557317 0.65909058
-0.010721641 -0.037525743 0.66010964
-0.010781396 -0.038504988 0.66114008
-0.010841821 -0.03949523 0.66218209
-0.010902963 -0.040496707 0.66323644
-0.010964762 -0.041509479 0.66430217
-0.011027267 -0.042533755 0.66538
-0.011090488 -0.043569803 0.66647017
-0.011154437 -0.044617742 0.66757292
-0.011219129 -0.0456779 0.66868854
-0.011284575 -0.046750337 0.66981709
-0.011350789 -0.047835499 0.670959
-0.011417786 -0.048933357 0.67211425
-0.011485577 -0.050044268 0.67328328
-0.011554219 -0.05116868 0.67446691
-0.011623645 -0.052306384 0.67566413
-0.011693911 -0.053457886 0.67687589
-0.01176503 -0.054623336 0.67810225
-0.011837021 -0.05580309 0.6793437
-0.011909898 -0.056997329 0.6806004
-0.011983678 -0.058206439 0.68187273
-0.012058378 -0.059430569 0.68316084
-0.01213406 -0.060670316 0.68446594
-0.012210652 -0.061925411 0.68578672
-0.012288217 -0.06319657 0.68712431
-0.012366774 -0.064483911 0.68847895
-0.012446342 -0.065787822 0.68985105
-0.012526941 -0.067108631 0.69124097
-0.01260859 -0.068446636 0.69264895
-0.012691312 -0.069802195 0.69407541
-0.012775174 -0.071175963 0.69552153
-0.012860103 -0.072567701 0.69698608
-0.012946166 -0.073978126 0.69847023
-0.01411849 0.074936569 0.73741424
-0.014041878 0.07344982 0.73599154
-0.013966157 0.071979463 0.73458529
-0.013891249 0.070524812 0.73319417
-0.013817078 0.069085389 0.73181677
-0.013743755 0.067661554 0.7304551
-0.013671146 0.06625247 0.72910672
-0.01359936 0.064858466 0.72777355
-0.013528265 0.063478768 0.72645324
-0.013457969 0.062113732 0.72514778
-0.013388339 0.060762465 0.72385466
-0.013319486 0.059425384 0.72257608
-0.013251279 0.058101773 0.72130942
-0.013183825 0.056791842 0.72005677
-0.013117054 0.055495232 0.71881676
-0.013050899 0.054211438 0.71758819
-0.012985464 0.052940756 0.71637297
-0.012920626 0.051682502 0.71516889
-0.012856489 0.050436974 0.71397781
-0.012792931 0.049203545 0.71279746
-0.012730051 0.047982514 0.71162969
-0.012667732 0.046773195 0.71047246
-0.012606074 0.045575827 0.70932734
-0.012545013 0.044390053 0.70819342
-0.01248449 0.043215543 0.7070694
-0.012424598 0.042052448 0.70595723
-0.012365228 0.040900379 0.70485461
-0.012306473 0.039759398 0.70376348
-0.012248224 0.038629025 0.70268178
-0.012190573 0.037509441 0.70161116
-0.012133413 0.036400259 0.70054966
-0.012076835 0.035301507 0.69949895
-0.012020735 0.034212828 0.69845712
-0.011965199 0.033134401 0.69742578
-0.01191013 0.032065719 0.69640309
-0.01185561 0.031006992 0.69539058
-0.011801586 0.029957891 0.69438732
-0.011748009 0.028918207 0.69339234
-0.01169496 0.02788803 0.69240719
-0.011642345 0.026866943 0.69143009
-0.011590243 0.025855124 0.69046253
-0.011538563 0.024852306 0.68950278
-0.011487384 0.023858428 0.68855232
-0.011436615 0.022873223 0.68760949
-0.011386336 0.021896809 0.68667579
-0.011336453 0.02092886 0.68574941
-0.011287048 0.019969434 0.68483192
-0.011238073 0.019018292 0.68392241
-0.011189478 0.018075287 0.68302
-0.011141344 0.017140538 0.68212605
-0.011093581 0.016213715 0.68123907
-0.011046266 0.01529482 0.68036038
-0.010999313 0.014383703 0.67948842
-0.010952797 0.013480365 0.67862457
-0.010906633 0.012584537 0.67776728
-0.010860897 0.011696339 0.67691791
-0.010815503 0.010815501 0.67607486
-0.010770525 0.0099420249 0.67523962
-0.010725882 0.009075731 0.67441058
-0.010681646 0.0082166493 0.67358905
-0.010637772 0.0073646009 0.67277431
-0.010594221 0.0065195262 0.67196548
-0.010551061 0.0056813657 0.67116404
-0.010508216 0.0048499703 0.67036825
-0.010465752 0.0040253103 0.66957974
-0.010423596 0.0032072663 0.66879684
-0.010381812 0.0023958087 0.6680209
-0.010340327 0.0015908182 0.66725051
-0.010299208 0.00079226494 0.66648686
-0.010258379 -0 0.66572863
-0.010217907 -0.00078597665 0.66497701
-0.010177719 -0.001565814 0.6642307
-0.01013788 -0.0023395121 0.66349089
-0.010098319 -0.0031071603 0.6627562
-0.010059097 -0.0038688779 0.66202778
-0.01002018 -0.0046246648 0.66130507
-0.0099815298 -0.00537467 0.66058725
-0.0099432077 -0.0061189234 0.65987563
-0.0099051483 -0.0068573952 0.65916884
-0.0098674102 -0.0075903535 0.65846801
-0.0098299272 -0.0083176196 0.65777189
-0.0097927591 -0.0090394914 0.65708166
-0.0097558405 -0.00975582 0.65639603
-0.0097192293 -0.010466874 0.65571612
-0.0096828612 -0.011172563 0.65504074
-0.0096467957 -0.011872977 0.65437102
-0.0096109975 -0.012568235 0.65370619
-0.0095754331 -0.013258278 0.65304571
-0.0095401611 -0.013943285 0.65239072
-0.0095051192 -0.014623255 0.65173995
-0.0094703622 -0.015298247 0.65109444
-0.0094358297 -0.015968293 0.65045315
-0.0094015775 -0.01663357 0.64981711
-0.0093675433 -0.01729393 0.64918506
-0.0093337847 -0.017949581 0.64855814
-0.0093002394 -0.018600464 0.64793515
-0.0092669623 -0.019246757 0.64731717
-0.0092338938 -0.019888371 0.64670306
-0.0092010899 -0.020525485 0.64609385
-0.0091684898 -0.021158069 0.64548838
-0.0091361469 -0.021786213 0.6448878
-0.0091050845 -0.022412479 0.64431089
-0.0091514718 -0.023230642 0.64517236
-0.0091983341 -0.024057209 0.6460427
-0.0092456788 -0.024892241 0.64692193
-0.0092935143 -0.025735885 0.64781022
-0.0093418462 -0.026588351 0.64870781
-0.0093906838 -0.027449667 0.64961475
-0.0094400346 -0.028320104 0.65053129
-0.0094899368 -0.029199779 0.65145802
-0.009540339 -0.030088753 0.652394
-0.0095912805 -0.030987203 0.65334004
-0.0096427677 -0.03189531 0.65429616
-0.009694811 -0.032813191 0.65526265
-0.0097474195 -0.033741027 0.65623963
-0.0098006018 -0.034679085 0.65722728
-0.0098543679 -0.035627335 0.65822583
-0.0099087274 -0.036586046 0.65923524
-0.0099636894 -0.037555426 0.66025597
-0.010019264 -0.038535655 0.66128802
-0.010075463 -0.03952679 0.6623317
-0.010132296 -0.040529162 0.66338718
-0.010189807 -0.041543067 0.66445518
-0.01024794 -0.042568356 0.66553473
-0.010306741 -0.043605447 0.66662681
-0.010366221 -0.044654459 0.66773134
-0.010426391 -0.04571569 0.66884875
-0.010487263 -0.046789318 0.66997927
-0.010548851 -0.047875553 0.67112291
-0.010611165 -0.048974633 0.67228019
-0.010674221 -0.050086737 0.67345119
-0.010738069 -0.051212341 0.6746369
-0.010802647 -0.052351296 0.67583621
-0.010868006 -0.05350405 0.67704999
-0.01093416 -0.054670811 0.67827845
-0.011001126 -0.055851847 0.67952204
-0.011068915 -0.057047486 0.68078101
-0.011137546 -0.058257908 0.68205553
-0.011207034 -0.059483469 0.68334591
-0.011277435 -0.060724616 0.6846534
-0.011348684 -0.061981261 0.68597656
-0.011420839 -0.06325388 0.68731654
-0.011493918 -0.06454277 0.68867368
-0.011567938 -0.065848261 0.69004828
-0.011642919 -0.06717065 0.6914407
-0.011718877 -0.068510354 0.69285131
-0.011795831 -0.069867641 0.69428051
-0.011873804 -0.071242809 0.69572848
-0.011952861 -0.072636604 0.69719672
-0.012032931 -0.074048817 0.69868362
-0.013043543 0.075000346 0.7376374
-0.012972765 0.073512316 0.73621345
-0.01290269 0.072040021 0.73480368
-0.012833428 0.07058385 0.73341018
-0.012764848 0.069142938 0.73203051
-0.012697053 0.067717612 0.73066652
-0.012629976 0.066307366 0.72931707
-0.012563546 0.064911664 0.72798055
-0.012497867 0.063530862 0.72665924
-0.012432817 0.062164098 0.72535056
-0.012368495 0.060811728 0.72405648
-0.012304781 0.059473127 0.72277462
-0.012241774 0.058148414 0.72150707
-0.012179355 0.056836993 0.72025126
-0.012117622 0.055539101 0.71900934
-0.012056461 0.054254055 0.7177788
-0.011995964 0.052982181 0.71656173
