# .PCD v0.7 - Point Cloud Data file format
VERSION 0.7
FIELDS x y z
SIZE 4 4 4
TYPE F F F
COUNT 1 1 1
WIDTH 1361
HEIGHT 1
VIEWPOINT 0 0 0 1 0 0 0
POINTS 1361
DATA ascii
0.031183807 -0.0044548213 0.65447009
0.03140983 -0.0052349865 0.65576929
0.031639054 -0.0060264766 0.65708685
0.031871747 -0.0068296492 0.6584245
0.032107893 -0.0076447427 0.65978187
0.03234756 -0.0084719956 0.66115952
0.032590836 -0.009311676 0.66255784
0.032837689 -0.010164052 0.66397679
0.03308842 -0.011029452 0.66541803
0.03334301 -0.011908203 0.66688138
0.033601545 -0.012800574 0.66836751
0.033864122 -0.013706923 0.66987687
0.034130719 -0.014627427 0.67140925
0.034401666 -0.015562654 0.67296672
0.034676947 -0.016512841 0.6745491
0.034956671 -0.017478347 0.676157
0.035240944 -0.018459558 0.677791
0.035529882 -0.019456834 0.67945188
0.035823461 -0.02047053 0.68113935
0.036122069 -0.021501213 0.68285584
0.036425695 -0.022549242 0.68460113
0.036734469 -0.023615032 0.68637598
0.037048522 -0.024699003 0.68818122
0.037367851 -0.025801599 0.69001675
0.037692875 -0.026923478 0.69188499
0.038023606 -0.028065056 0.69378608
0.03836019 -0.02922681 0.69572085
0.038702782 -0.030409336 0.69769007
0.039051399 -0.031613022 0.69969398
0.039406512 -0.032838732 0.7017352
0.039768137 -0.034086972 0.70381385
0.040136464 -0.03535831 0.70593107
0.040511675 -0.036653429 0.70808786
0.040893804 -0.037972778 0.71028435
0.04128338 -0.039317518 0.7125237
0.041680448 -0.040688068 0.71480608
0.04208523 -0.04208526 0.71713287
0.042497952 -0.043509811 0.71950519
0.042918846 -0.044962585 0.7219246
0.043347973 -0.046444267 0.72439122
0.043785963 -0.047956049 0.72690892
0.04423289 -0.049498677 0.72947788
0.044689037 -0.051073164 0.73209983
0.045154691 -0.052680463 0.7347765
0.045629945 -0.054321349 0.7375083
0.046115518 -0.055997372 0.7402994
0.046611536 -0.057709485 0.74315059
0.047118343 -0.059458852 0.74606383
0.047636293 -0.061246634 0.74904096
0.048165515 -0.063073903 0.75208306
0.048706878 -0.064942479 0.7551949
0.036489751 0.067039281 0.68009144
0.036376741 0.065985709 0.67945695
0.036264431 0.064938635 0.67882639
0.036152683 0.063897729 0.67819899
0.036041744 0.062863529 0.67757612
0.03593149 0.061835587 0.67695713
0.035821907 0.060813934 0.67634189
0.035712864 0.0597983 0.67572963
0.035604611 0.058789015 0.67512184
0.03549701 0.057785809 0.67451775
0.035390057 0.056788713 0.67391729
0.035283744 0.055797547 0.67332041
0.035177946 0.054812163 0.67272639
0.035072908 0.053832829 0.67213666
0.034968492 0.052859366 0.67155039
0.034864694 0.051891655 0.6709677
0.034761515 0.050929666 0.67038834
0.034658819 0.04997316 0.66981173
0.034556851 0.049022496 0.66923928
0.034455478 0.048077375 0.66867018
0.034354702 0.047137827 0.66810429
0.034254398 0.046203613 0.66754115
0.034154791 0.045274943 0.66698194
0.034055762 0.044351667 0.666426
0.033957306 0.043433785 0.66587317
0.033859417 0.042521119 0.66532356
0.033761978 0.041613609 0.6647765
0.03366521 0.040711433 0.66423321
0.033568997 0.039814383 0.66369301
0.033473331 0.038922518 0.66315591
0.033378206 0.038035601 0.66262186
0.033283517 0.037153721 0.66209018
0.033189468 0.036276877 0.6615622
0.033095952 0.03540495 0.66103715
0.033002958 0.034537971 0.66051507
0.032910381 0.03367576 0.6599952
0.032818425 0.032818466 0.65947896
0.032726984 0.031965911 0.65896559
0.03263605 0.031118125 0.65845501
0.032545622 0.030275017 0.6579473
0.032455586 0.029436499 0.65744185
0.032366153 0.02860263 0.65693974
0.032277212 0.02777341 0.65644038
0.032188758 0.02694872 0.65594375
0.032100685 0.026128441 0.65544927
0.032013193 0.025312752 0.65495801
0.031926177 0.024501503 0.65446949
0.031839635 0.023694605 0.65398365
0.031753559 0.022892118 0.65350032
0.031667847 0.022093862 0.65301913
0.031582698 0.021299988 0.65254104
0.031498004 0.020510346 0.65206552
0.031413764 0.019724905 0.65159261
0.031329975 0.018943697 0.65112209
0.03124653 0.018166572 0.65065366
0.031163627 0.017393678 0.65018821
0.031081162 0.016624808 0.64972526
0.030999135 0.015860051 0.64926463
0.030917538 0.015099287 0.64880651
0.030836275 0.014342487 0.64835024
0.030755533 0.01358968 0.64789695
0.03067521 0.012840807 0.64744604
0.030595308 0.012095809 0.64699733
0.030515727 0.011354685 0.6465506
0.030436654 0.010617435 0.64610666
0.030357985 0.00988397 0.64566499
0.030279724 0.0091543794 0.64522552
0.030201867 0.0084284246 0.64478844
0.030124318 0.0077061951 0.64435303
0.030047255 0.0069877207 0.64392042
0.029970586 0.006272912 0.64348996
0.029894309 0.0055617392 0.64306164
0.029818416 0.0048541725 0.64263558
0.029742824 0.004150182 0.64221114
0.029667696 0.003449738 0.64178938
0.029783279 0.0027705431 0.64243829
0.029984472 0.0020919144 0.64356792
0.030188497 0.0014041364 0.6447134
0.030395314 0.00070682168 0.64587456
0.030604985 -0 0.64705175
0.030817568 -0.00071668625 0.64824528
0.031033032 -0.0014433861 0.64945495
0.031251624 -0.0021803379 0.65068221
0.03147332 -0.0029277205 0.65192693
0.031698182 -0.003685832 0.65318942
0.031926278 -0.0044548213 0.65447009
0.032157682 -0.0052349865 0.65576929
0.032392364 -0.0060264766 0.65708685
0.0326306 -0.0068296492 0.6584245
0.032872364 -0.0076447427 0.65978187
0.033117741 -0.0084719956 0.66115952
0.033366807 -0.009311676 0.66255784
0.033619538 -0.010164052 0.66397679
0.03387624 -0.011029452 0.66541803
0.034136891 -0.011908203 0.66688138
0.034401581 -0.012800574 0.66836751
0.034670413 -0.013706923 0.66987687
0.034943357 -0.014627427 0.67140925
0.03522075 -0.015562654 0.67296672
0.03550259 -0.016512841 0.6745491
0.035788972 -0.017478347 0.676157
0.036080014 -0.018459558 0.677791
0.036375832 -0.019456834 0.67945188
0.036676403 -0.02047053 0.68113935
0.036982119 -0.021501213 0.68285584
0.037292972 -0.022549242 0.68460113
0.0376091 -0.023615032 0.68637598
0.03793063 -0.024699003 0.68818122
0.038257562 -0.025801599 0.69001675
0.038590323 -0.026923478 0.69188499
0.038928926 -0.028065056 0.69378608
0.039273527 -0.02922681 0.69572085
0.039624278 -0.030409336 0.69769007
0.039981194 -0.031613022 0.69969398
0.04034476 -0.032838732 0.7017352
0.040714998 -0.034086972 0.70381385
0.041092094 -0.03535831 0.70593107
0.041476242 -0.036653429 0.70808786
0.041867465 -0.037972778 0.71028435
0.042266317 -0.039317518 0.7125237
0.042672839 -0.040688068 0.71480608
0.043087255 -0.04208526 0.71713287
0.043509807 -0.043509811 0.71950519
0.043940727 -0.044962585 0.7219246
0.044380069 -0.046444267 0.72439122
0.044828486 -0.047956049 0.72690892
0.045286056 -0.049498677 0.72947788
0.045753062 -0.051073164 0.73209983
0.046229806 -0.052680463 0.7347765
0.04671637 -0.054321349 0.7375083
0.047213506 -0.055997372 0.7402994
0.047721338 -0.057709485 0.74315059
0.048240207 -0.059458852 0.74606383
0.048770491 -0.061246634 0.74904096
0.049312316 -0.063073903 0.75208306
0.049866565 -0.064942479 0.7551949
0.03733835 0.067039281 0.68009144
0.037222713 0.065985709 0.67945695
0.037107788 0.064938635 0.67882639
0.03699344 0.063897729 0.67819899
0.036879927 0.062863529 0.67757612
0.036767107 0.061835587 0.67695713
0.036654975 0.060813934 0.67634189
0.036543395 0.0597983 0.67572963
0.036432624 0.058789015 0.67512184
0.036322519 0.057785809 0.67451775
0.036213078 0.056788713 0.67391729
0.036104299 0.055797547 0.67332041
0.035996042 0.054812163 0.67272639
0.035888556 0.053832829 0.67213666
0.035781711 0.052859366 0.67155039
0.0356755 0.051891655 0.6709677
0.035569921 0.050929666 0.67038834
0.035464842 0.04997316 0.66981173
0.0353605 0.049022496 0.66923928
0.03525677 0.048077375 0.66867018
0.03515365 0.047137827 0.66810429
0.035051011 0.046203613 0.66754115
0.03494909 0.045274943 0.66698194
0.034847755 0.044351667 0.666426
0.034747012 0.043433785 0.66587317
0.034646846 0.042521119 0.66532356
0.034547143 0.041613609 0.6647765
0.034448124 0.040711433 0.66423321
0.034349672 0.039814383 0.66369301
0.034251779 0.038922518 0.66315591
0.034154445 0.038035601 0.66262186
0.034057554 0.037153721 0.66209018
0.033961315 0.036276877 0.6615622
0.033865623 0.03540495 0.66103715
0.033770468 0.034537971 0.66051507
0.033675738 0.03367576 0.6599952
0.033581644 0.032818466 0.65947896
0.033488076 0.031965911 0.65896559
0.033395026 0.031118125 0.65845501
0.033302493 0.030275017 0.6579473
0.033210367 0.029436499 0.65744185
0.033118855 0.02860263 0.65693974
0.033027846 0.02777341 0.65644038
0.032937333 0.02694872 0.65594375
0.032847211 0.026128441 0.65544927
0.032757685 0.025312752 0.65495801
0.03266865 0.024501503 0.65446949
0.032580089 0.023694605 0.65398365
0.032492016 0.022892118 0.65350032
0.032404311 0.022093862 0.65301913
0.03231718 0.021299988 0.65254104
0.032230515 0.020510346 0.65206552
0.032144316 0.019724905 0.65159261
0.032058574 0.018943697 0.65112209
0.031973191 0.018166572 0.65065366
0.031888362 0.017393678 0.65018821
0.03180398 0.016624808 0.64972526
0.031720046 0.015860051 0.64926463
0.031636547 0.015099287 0.64880651
0.031553399 0.014342487 0.64835024
0.031470776 0.01358968 0.64789695
0.031388585 0.012840807 0.64744604
0.031306826 0.012095809 0.64699733
0.031225394 0.011354685 0.6465506
0.031144481 0.010617435 0.64610666
0.031063985 0.00988397 0.64566499
0.030983904 0.0091543794 0.64522552
0.030904235 0.0084284246 0.64478844
0.030824883 0.0077061951 0.64435303
0.03074603 0.0069877207 0.64392042
0.030667577 0.006272912 0.64348996
0.030589525 0.0055617392 0.64306164
0.030511869 0.0048541725 0.64263558
0.030434515 0.004150182 0.64221114
0.030357642 0.003449738 0.64178938
0.030475913 0.0027705431 0.64243829
0.030681785 0.0020919144 0.64356792
0.030890554 0.0014041364 0.6447134
0.03110218 0.00070682168 0.64587456
0.031316727 -0 0.64705175
0.031534255 -0.00071668625 0.64824528
0.031754728 -0.0014433861 0.64945495
0.031978406 -0.0021803379 0.65068221
0.032205258 -0.0029277205 0.65192693
0.032435346 -0.003685832 0.65318942
0.032668751 -0.0044548213 0.65447009
0.032905534 -0.0052349865 0.65576929
0.033145674 -0.0060264766 0.65708685
0.033389453 -0.0068296492 0.6584245
0.033636838 -0.0076447427 0.65978187
0.033887923 -0.0084719956 0.66115952
0.034142781 -0.009311676 0.66255784
0.034401387 -0.010164052 0.66397679
0.034664057 -0.011029452 0.66541803
0.034930769 -0.011908203 0.66688138
0.035201617 -0.012800574 0.66836751
0.035476699 -0.013706923 0.66987687
0.035755992 -0.014627427 0.67140925
0.03603984 -0.015562654 0.67296672
0.036328234 -0.016512841 0.6745491
0.036621276 -0.017478347 0.676157
0.036919087 -0.018459558 0.677791
0.037221778 -0.019456834 0.67945188
0.037529342 -0.02047053 0.68113935
0.037842166 -0.021501213 0.68285584
0.038160253 -0.022549242 0.68460113
0.038483731 -0.023615032 0.68637598
0.038812738 -0.024699003 0.68818122
0.039147273 -0.025801599 0.69001675
0.039487775 -0.026923478 0.69188499
0.03983425 -0.028065056 0.69378608
0.040186863 -0.02922681 0.69572085
0.040545773 -0.030409336 0.69769007
0.040910989 -0.031613022 0.69969398
0.041283008 -0.032838732 0.7017352
0.041661859 -0.034086972 0.70381385
0.042047724 -0.03535831 0.70593107
0.042440806 -0.036653429 0.70808786
0.042841125 -0.037972778 0.71028435
0.043249253 -0.039317518 0.7125237
0.04366523 -0.040688068 0.71480608
0.044089288 -0.04208526 0.71713287
0.044521663 -0.043509811 0.71950519
0.044962604 -0.044962585 0.7219246
0.045412164 -0.046444267 0.72439122
0.045871008 -0.047956049 0.72690892
0.046339218 -0.049498677 0.72947788
0.046817087 -0.051073164 0.73209983
0.047304913 -0.052680463 0.7347765
0.047802795 -0.054321349 0.7375083
0.048311494 -0.055997372 0.7402994
0.048831135 -0.057709485 0.74315059
0.049362071 -0.059458852 0.74606383
0.049904682 -0.061246634 0.74904096
0.050459113 -0.063073903 0.75208306
0.051026251 -0.064942479 0.7551949
0.038186949 0.067039281 0.68009144
0.038068682 0.065985709 0.67945695
0.037951149 0.064938635 0.67882639
0.037834201 0.063897729 0.67819899
0.037718106 0.062863529 0.67757612
0.037602723 0.061835587 0.67695713
0.037488043 0.060813934 0.67634189
0.03737393 0.0597983 0.67572963
0.03726064 0.058789015 0.67512184
0.037148032 0.057785809 0.67451775
0.037036102 0.056788713 0.67391729
0.03692485 0.055797547 0.67332041
0.036814131 0.054812163 0.67272639
0.036704205 0.053832829 0.67213666
0.036594931 0.052859366 0.67155039
0.036486309 0.051891655 0.6709677
0.036378328 0.050929666 0.67038834
0.036270857 0.04997316 0.66981173
0.036164146 0.049022496 0.66923928
0.036058061 0.048077375 0.66867018
0.035952598 0.047137827 0.66810429
0.035847627 0.046203613 0.66754115
0.035743386 0.045274943 0.66698194
0.035639748 0.044351667 0.666426
0.035536714 0.043433785 0.66587317
0.035434276 0.042521119 0.66532356
0.035332303 0.041613609 0.6647765
0.035231035 0.040711433 0.66423321
0.035130348 0.039814383 0.66369301
0.035030231 0.038922518 0.66315591
0.034930684 0.038035601 0.66262186
0.034831587 0.037153721 0.66209018
0.034733165 0.036276877 0.6615622
0.034635298 0.03540495 0.66103715
0.034537978 0.034537971 0.66051507
0.034441095 0.03367576 0.6599952
0.034344863 0.032818466 0.65947896
0.034249168 0.031965911 0.65896559
0.034154005 0.031118125 0.65845501
0.034059372 0.030275017 0.6579473
0.033965148 0.029436499 0.65744185
0.033871558 0.02860263 0.65693974
0.033778477 0.02777341 0.65644038
0.033685911 0.02694872 0.65594375
0.03359374 0.026128441 0.65544927
0.03350218 0.025312752 0.65495801
0.033411115 0.024501503 0.65446949
0.033320546 0.023694605 0.65398365
0.033230469 0.022892118 0.65350032
0.033140771 0.022093862 0.65301913
0.033051662 0.021299988 0.65254104
0.032963026 0.020510346 0.65206552
0.032874867 0.019724905 0.65159261
0.032787178 0.018943697 0.65112209
0.032699857 0.018166572 0.65065366
0.032613099 0.017393678 0.65018821
0.032526799 0.016624808 0.64972526
0.032440953 0.015860051 0.64926463
0.032355562 0.015099287 0.64880651
0.032270517 0.014342487 0.64835024
0.03218602 0.01358968 0.64789695
0.032101966 0.012840807 0.64744604
0.032018345 0.012095809 0.64699733
0.031935066 0.011354685 0.6465506
0.031852309 0.010617435 0.64610666
0.031769983 0.00988397 0.64566499
0.031688083 0.0091543794 0.64522552
0.031606607 0.0084284246 0.64478844
0.031525448 0.0077061951 0.64435303
0.031444803 0.0069877207 0.64392042
0.031364568 0.006272912 0.64348996
0.031284738 0.0055617392 0.64306164
0.031205319 0.0048541725 0.64263558
0.03112621 0.004150182 0.64221114
0.03104759 0.003449738 0.64178938
0.031168547 0.0027705431 0.64243829
0.0313791 0.0020919144 0.64356792
0.031592611 0.0014041364 0.6447134
0.031809047 0.00070682168 0.64587456
0.03202847 -0 0.64705175
0.032250941 -0.00071668625 0.64824528
0.032476425 -0.0014433861 0.64945495
0.032705188 -0.0021803379 0.65068221
0.032937191 -0.0029277205 0.65192693
0.033172514 -0.003685832 0.65318942
0.033411223 -0.0044548213 0.65447009
0.03365339 -0.0052349865 0.65576929
0.033898983 -0.0060264766 0.65708685
0.034148302 -0.0068296492 0.6584245
0.034401312 -0.0076447427 0.65978187
0.034658104 -0.0084719956 0.66115952
0.034918755 -0.009311676 0.66255784
0.035183236 -0.010164052 0.66397679
0.035451878 -0.011029452 0.66541803
0.035724651 -0.011908203 0.66688138
0.036001656 -0.012800574 0.66836751
0.03628299 -0.013706923 0.66987687
0.036568627 -0.014627427 0.67140925
0.036858927 -0.015562654 0.67296672
0.037153874 -0.016512841 0.6745491
0.037453577 -0.017478347 0.676157
0.037758157 -0.018459558 0.677791
0.038067728 -0.019456834 0.67945188
0.038382284 -0.02047053 0.68113935
0.03870222 -0.021501213 0.68285584
0.039027531 -0.022549242 0.68460113
0.039358359 -0.023615032 0.68637598
0.039694846 -0.024699003 0.68818122
0.040036984 -0.025801599 0.69001675
0.040385224 -0.026923478 0.69188499
0.040739574 -0.028065056 0.69378608
0.0411002 -0.02922681 0.69572085
0.041467268 -0.030409336 0.69769007
0.041840784 -0.031613022 0.69969398
0.042221259 -0.032838732 0.7017352
0.042608719 -0.034086972 0.70381385
0.04300335 -0.03535831 0.70593107
0.043405369 -0.036653429 0.70808786
0.04381479 -0.037972778 0.71028435
0.04423219 -0.039317518 0.7125237
0.044657622 -0.040688068 0.71480608
0.04509132 -0.04208526 0.71713287
0.045533519 -0.043509811 0.71950519
0.045984481 -0.044962585 0.7219246
0.046444256 -0.046444267 0.72439122
0.046913531 -0.047956049 0.72690892
0.047392383 -0.049498677 0.72947788
0.047881115 -0.051073164 0.73209983
0.048380028 -0.052680463 0.7347765
0.04888922 -0.054321349 0.7375083
0.049409479 -0.055997372 0.7402994
0.049940929 -0.057709485 0.74315059
0.050483938 -0.059458852 0.74606383
0.051038884 -0.061246634 0.74904096
0.051605914 -0.063073903 0.75208306
0.052185938 -0.064942479 0.7551949
0.039035548 0.067039281 0.68009144
0.038914654 0.065985709 0.67945695
0.038794506 0.064938635 0.67882639
0.038674962 0.063897729 0.67819899
0.038556285 0.062863529 0.67757612
0.038438339 0.061835587 0.67695713
0.038321111 0.060813934 0.67634189
0.038204461 0.0597983 0.67572963
0.038088653 0.058789015 0.67512184
0.037973545 0.057785809 0.67451775
0.037859131 0.056788713 0.67391729
0.037745401 0.055797547 0.67332041
0.037632223 0.054812163 0.67272639
0.037519854 0.053832829 0.67213666
0.037408151 0.052859366 0.67155039
0.037297115 0.051891655 0.6709677
0.037186734 0.050929666 0.67038834
0.037076879 0.04997316 0.66981173
0.036967795 0.049022496 0.66923928
0.036859352 0.048077375 0.66867018
0.036751542 0.047137827 0.66810429
0.036644239 0.046203613 0.66754115
0.036537681 0.045274943 0.66698194
0.036431745 0.044351667 0.666426
0.03632642 0.043433785 0.66587317
0.036221702 0.042521119 0.66532356
0.036117464 0.041613609 0.6647765
0.036013946 0.040711433 0.66423321
0.03591102 0.039814383 0.66369301
0.035808679 0.038922518 0.66315591
0.035706919 0.038035601 0.66262186
0.035605624 0.037153721 0.66209018
0.035505012 0.036276877 0.6615622
0.035404969 0.03540495 0.66103715
0.035305489 0.034537971 0.66051507
0.035206452 0.03367576 0.6599952
0.035108082 0.032818466 0.65947896
0.035010263 0.031965911 0.65896559
0.034912985 0.031118125 0.65845501
0.034816246 0.030275017 0.6579473
0.034719929 0.029436499 0.65744185
0.034624256 0.02860263 0.65693974
0.034529109 0.02777341 0.65644038
0.034434486 0.02694872 0.65594375
0.034340266 0.026128441 0.65544927
0.034246672 0.025312752 0.65495801
0.034153584 0.024501503 0.65446949
0.034061003 0.023694605 0.65398365
0.033968922 0.022892118 0.65350032
0.033877235 0.022093862 0.65301913
0.033786144 0.021299988 0.65254104
0.033695538 0.020510346 0.65206552
0.033605419 0.019724905 0.65159261
0.033515781 0.018943697 0.65112209
0.033426519 0.018166572 0.65065366
0.033337831 0.017393678 0.65018821
0.033249613 0.016624808 0.64972526
0.033161864 0.015860051 0.64926463
0.033074573 0.015099287 0.64880651
0.032987643 0.014342487 0.64835024
0.032901268 0.01358968 0.64789695
0.032815341 0.012840807 0.64744604
0.032729864 0.012095809 0.64699733
0.032644734 0.011354685 0.6465506
0.03256014 0.010617435 0.64610666
0.032475982 0.00988397 0.64566499
0.032392263 0.0091543794 0.64522552
0.032308973 0.0084284246 0.64478844
0.032226015 0.0077061951 0.64435303
0.032143574 0.0069877207 0.64392042
0.032061558 0.006272912 0.64348996
0.031979959 0.0055617392 0.64306164
0.03189877 0.0048541725 0.64263558
0.031817902 0.004150182 0.64221114
0.031737536 0.003449738 0.64178938
0.031861182 0.0027705431 0.64243829
0.032076411 0.0020919144 0.64356792
0.032294668 0.0014041364 0.6447134
0.032515917 0.00070682168 0.64587456
0.032740217 -0 0.64705175
0.032967631 -0.00071668625 0.64824528
0.033198126 -0.0014433861 0.64945495
0.03343197 -0.0021803379 0.65068221
0.033669129 -0.0029277205 0.65192693
0.033909682 -0.003685832 0.65318942
0.034153692 -0.0044548213 0.65447009
0.034401242 -0.0052349865 0.65576929
0.034652296 -0.0060264766 0.65708685
0.034907155 -0.0068296492 0.6584245
0.035165787 -0.0076447427 0.65978187
0.035428282 -0.0084719956 0.66115952
0.035694726 -0.009311676 0.66255784
0.035965085 -0.010164052 0.66397679
0.036239699 -0.011029452 0.66541803
0.036518533 -0.011908203 0.66688138
0.036801692 -0.012800574 0.66836751
0.037089277 -0.013706923 0.66987687
0.037381262 -0.014627427 0.67140925
0.037678014 -0.015562654 0.67296672
0.037979513 -0.016512841 0.6745491
0.038285881 -0.017478347 0.676157
0.038597226 -0.018459558 0.677791
0.038913678 -0.019456834 0.67945188
0.039235219 -0.02047053 0.68113935
0.039562266 -0.021501213 0.68285584
0.039894808 -0.022549242 0.68460113
0.04023299 -0.023615032 0.68637598
0.040576953 -0.024699003 0.68818122
0.040926695 -0.025801599 0.69001675
0.041282672 -0.026923478 0.69188499
0.041644901 -0.028065056 0.69378608
0.042013537 -0.02922681 0.69572085
0.042388763 -0.030409336 0.69769007
0.042770583 -0.031613022 0.69969398
0.043159507 -0.032838732 0.7017352
0.04355558 -0.034086972 0.70381385
0.043958984 -0.03535831 0.70593107
0.044369932 -0.036653429 0.70808786
0.04478845 -0.037972778 0.71028435
0.045215126 -0.039317518 0.7125237
0.045650017 -0.040688068 0.71480608
0.046093345 -0.04208526 0.71713287
0.046545375 -0.043509811 0.71950519
0.047006357 -0.044962585 0.7219246
0.047476351 -0.046444267 0.72439122
0.047956053 -0.047956049 0.72690892
0.048445545 -0.049498677 0.72947788
0.04894514 -0.051073164 0.73209983
0.049455136 -0.052680463 0.7347765
0.049975649 -0.054321349 0.7375083
0.050507467 -0.055997372 0.7402994
0.051050726 -0.057709485 0.74315059
0.051605802 -0.059458852 0.74606383
0.052173082 -0.061246634 0.74904096
0.052752711 -0.063073903 0.75208306
0.053345628 -0.064942479 0.7551949
0.039884146 0.067039281 0.68009144
0.039760623 0.065985709 0.67945695
0.039637864 0.064938635 0.67882639
0.039515723 0.063897729 0.67819899
0.039394468 0.062863529 0.67757612
0.039273955 0.061835587 0.67695713
0.039154179 0.060813934 0.67634189
0.039034992 0.0597983 0.67572963
0.038916666 0.058789015 0.67512184
0.038799055 0.057785809 0.67451775
0.038682152 0.056788713 0.67391729
0.038565952 0.055797547 0.67332041
0.038450316 0.054812163 0.67272639
0.038335502 0.053832829 0.67213666
0.038221374 0.052859366 0.67155039
0.038107924 0.051891655 0.6709677
0.037995141 0.050929666 0.67038834
0.037882894 0.04997316 0.66981173
0.037771445 0.049022496 0.66923928
0.03766064 0.048077375 0.66867018
0.03755049 0.047137827 0.66810429
0.037440851 0.046203613 0.66754115
0.03733198 0.045274943 0.66698194
0.037223741 0.044351667 0.666426
0.037116125 0.043433785 0.66587317
0.037009131 0.042521119 0.66532356
0.036902629 0.041613609 0.6647765
0.03679686 0.040711433 0.66423321
0.036691692 0.039814383 0.66369301
0.03658713 0.038922518 0.66315591
0.036483157 0.038035601 0.66262186
0.036379658 0.037153721 0.66209018
0.036276862 0.036276877 0.6615622
0.036174644 0.03540495 0.66103715
0.036072999 0.034537971 0.66051507
0.035971813 0.03367576 0.6599952
0.035871301 0.032818466 0.65947896
0.035771355 0.031965911 0.65896559
0.035671961 0.031118125 0.65845501
0.035573121 0.030275017 0.6579473
0.03547471 0.029436499 0.65744185
0.035376959 0.02860263 0.65693974
0.035279743 0.02777341 0.65644038
0.035183061 0.02694872 0.65594375
0.035086796 0.026128441 0.65544927
0.034991164 0.025312752 0.65495801
0.034896057 0.024501503 0.65446949
0.034801461 0.023694605 0.65398365
0.034707379 0.022892118 0.65350032
0.034613695 0.022093862 0.65301913
0.034520622 0.021299988 0.65254104
0.034428049 0.020510346 0.65206552
0.034335975 0.019724905 0.65159261
0.034244388 0.018943697 0.65112209
0.034153182 0.018166572 0.65065366
0.034062568 0.017393678 0.65018821
0.033972435 0.016624808 0.64972526
0.033882774 0.015860051 0.64926463
0.033793587 0.015099287 0.64880651
0.033704765 0.014342487 0.64835024
0.033616509 0.01358968 0.64789695
0.033528715 0.012840807 0.64744604
0.033441383 0.012095809 0.64699733
0.033354402 0.011354685 0.6465506
0.033267971 0.010617435 0.64610666
0.033181984 0.00988397 0.64566499
0.033096444 0.0091543794 0.64522552
0.033011343 0.0084284246 0.64478844
0.032926582 0.0077061951 0.64435303
0.032842349 0.0069877207 0.64392042
0.032758549 0.006272912 0.64348996
0.032675173 0.0055617392 0.64306164
0.032592222 0.0048541725 0.64263558
0.032509595 0.004150182 0.64221114
0.032427482 0.003449738 0.64178938
0.032553814 0.0027705431 0.64243829
0.032773726 0.0020919144 0.64356792
0.032996729 0.0014041364 0.6447134
0.033222783 0.00070682168 0.64587456
0.033451959 -0 0.64705175
0.033684317 -0.00071668625 0.64824528
0.033919826 -0.0014433861 0.64945495
0.034158751 -0.0021803379 0.65068221
0.03440107 -0.0029277205 0.65192693
0.034646846 -0.003685832 0.65318942
0.034896165 -0.0044548213 0.65447009
0.035149097 -0.0052349865 0.65576929
0.035405606 -0.0060264766 0.65708685
0.035666004 -0.0068296492 0.6584245
0.035930261 -0.0076447427 0.65978187
0.036198463 -0.0084719956 0.66115952
0.036470696 -0.009311676 0.66255784
0.036746938 -0.010164052 0.66397679
0.037027515 -0.011029452 0.66541803
0.037312411 -0.011908203 0.66688138
0.037601728 -0.012800574 0.66836751
0.037895564 -0.013706923 0.66987687
0.0381939 -0.014627427 0.67140925
0.038497102 -0.015562654 0.67296672
0.038805157 -0.016512841 0.6745491
0.039118178 -0.017478347 0.676157
0.039436296 -0.018459558 0.677791
0.039759628 -0.019456834 0.67945188
0.040088162 -0.02047053 0.68113935
0.040422317 -0.021501213 0.68285584
0.040762089 -0.022549242 0.68460113
0.041107621 -0.023615032 0.68637598
0.041459061 -0.024699003 0.68818122
0.041816406 -0.025801599 0.69001675
0.042180125 -0.026923478 0.69188499
0.042550225 -0.028065056 0.69378608
0.042926874 -0.02922681 0.69572085
0.043310259 -0.030409336 0.69769007
0.043700375 -0.031613022 0.69969398
0.044097759 -0.032838732 0.7017352
0.044502437 -0.034086972 0.70381385
0.044914614 -0.03535831 0.70593107
0.045334496 -0.036653429 0.70808786
0.045762114 -0.037972778 0.71028435
0.04619807 -0.039317518 0.7125237
0.046642408 -0.040688068 0.71480608
0.047095377 -0.04208526 0.71713287
0.047557231 -0.043509811 0.71950519
0.048028234 -0.044962585 0.7219246
0.048508447 -0.046444267 0.72439122
0.048998576 -0.047956049 0.72690892
0.049498715 -0.049498677 0.72947788
0.050009161 -0.051073164 0.73209983
0.050530251 -0.052680463 0.7347765
0.051062077 -0.054321349 0.7375083
0.051605456 -0.055997372 0.7402994
0.052160528 -0.057709485 0.74315059
0.052727669 -0.059458852 0.74606383
0.05330728 -0.061246634 0.74904096
0.053899512 -0.063073903 0.75208306
0.054505315 -0.064942479 0.7551949
0.040732745 0.067039281 0.68009144
0.040606596 0.065985709 0.67945695
0.040481225 0.064938635 0.67882639
0.040356483 0.063897729 0.67819899
0.040232647 0.062863529 0.67757612
0.040109571 0.061835587 0.67695713
0.039987247 0.060813934 0.67634189
0.039865524 0.0597983 0.67572963
0.039744679 0.058789015 0.67512184
0.039624568 0.057785809 0.67451775
0.03950518 0.056788713 0.67391729
0.039386507 0.055797547 0.67332041
0.039268408 0.054812163 0.67272639
0.039151151 0.053832829 0.67213666
0.039034594 0.052859366 0.67155039
0.03891873 0.051891655 0.6709677
0.038803548 0.050929666 0.67038834
0.038688917 0.04997316 0.66981173
0.03857509 0.049022496 0.66923928
0.038461931 0.048077375 0.66867018
0.038349435 0.047137827 0.66810429
0.038237467 0.046203613 0.66754115
0.038126279 0.045274943 0.66698194
0.038015734 0.044351667 0.666426
0.037905831 0.043433785 0.66587317
0.037796557 0.042521119 0.66532356
0.03768779 0.041613609 0.6647765
0.037579771 0.040711433 0.66423321
0.037472367 0.039814383 0.66369301
0.037365578 0.038922518 0.66315591
0.037259396 0.038035601 0.66262186
0.037153691 0.037153721 0.66209018
0.037048709 0.036276877 0.6615622
0.036944315 0.03540495 0.66103715
0.03684051 0.034537971 0.66051507
0.03673717 0.03367576 0.6599952
0.03663452 0.032818466 0.65947896
0.036532447 0.031965911 0.65896559
0.03643094 0.031118125 0.65845501
0.036329996 0.030275017 0.6579473
0.036229495 0.029436499 0.65744185
0.036129661 0.02860263 0.65693974
0.036030378 0.02777341 0.65644038
0.035931636 0.02694872 0.65594375
0.035833322 0.026128441 0.65544927
0.035735659 0.025312752 0.65495801
0.035638522 0.024501503 0.65446949
0.035541918 0.023694605 0.65398365
0.035445832 0.022892118 0.65350032
0.035350159 0.022093862 0.65301913
0.035255104 0.021299988 0.65254104
0.035160564 0.020510346 0.65206552
0.035066526 0.019724905 0.65159261
0.034972992 0.018943697 0.65112209
0.034879845 0.018166572 0.65065366
0.034787305 0.017393678 0.65018821
0.034695253 0.016624808 0.64972526
0.034603685 0.015860051 0.64926463
0.034512598 0.015099287 0.64880651
0.034421887 0.014342487 0.64835024
0.034331758 0.01358968 0.64789695
0.034242097 0.012840807 0.64744604
0.034152903 0.012095809 0.64699733
0.034064069 0.011354685 0.6465506
0.033975799 0.010617435 0.64610666
0.033887986 0.00988397 0.64566499
0.033800624 0.0091543794 0.64522552
0.033713713 0.0084284246 0.64478844
0.033627145 0.0077061951 0.64435303
0.033541121 0.0069877207 0.64392042
0.033455539 0.006272912 0.64348996
0.033370391 0.0055617392 0.64306164
0.033285674 0.0048541725 0.64263558
0.033201288 0.004150182 0.64221114
0.033117428 0.003449738 0.64178938
0.033246446 0.0027705431 0.64243829
0.03347104 0.0020919144 0.64356792
0.033698786 0.0014041364 0.6447134
0.03392965 0.00070682168 0.64587456
0.034163702 -0 0.64705175
0.034401007 -0.00071668625 0.64824528
0.034641523 -0.0014433861 0.64945495
0.034885533 -0.0021803379 0.65068221
0.035133008 -0.0029277205 0.65192693
0.035384014 -0.003685832 0.65318942
0.035638638 -0.0044548213 0.65447009
0.035896949 -0.0052349865 0.65576929
0.036158919 -0.0060264766 0.65708685
0.036424857 -0.0068296492 0.6584245
0.036694735 -0.0076447427 0.65978187
0.036968641 -0.0084719956 0.66115952
0.037246667 -0.009311676 0.66255784
0.037528787 -0.010164052 0.66397679
0.037815336 -0.011029452 0.66541803
0.038106292 -0.011908203 0.66688138
0.038401768 -0.012800574 0.66836751
0.038701855 -0.013706923 0.66987687
0.039006535 -0.014627427 0.67140925
0.039316189 -0.015562654 0.67296672
0.039630797 -0.016512841 0.6745491
0.039950483 -0.017478347 0.676157
0.040275365 -0.018459558 0.677791
0.040605575 -0.019456834 0.67945188
0.040941101 -0.02047053 0.68113935
0.041282367 -0.021501213 0.68285584
0.041629367 -0.022549242 0.68460113
0.041982252 -0.023615032 0.68637598
0.042341169 -0.024699003 0.68818122
0.042706117 -0.025801599 0.69001675
0.043077573 -0.026923478 0.69188499
0.043455549 -0.028065056 0.69378608
0.043840215 -0.02922681 0.69572085
0.04423175 -0.030409336 0.69769007
0.04463017 -0.031613022 0.69969398
0.04503601 -0.032838732 0.7017352
0.045449302 -0.034086972 0.70381385
0.045870241 -0.03535831 0.70593107
0.046299063 -0.036653429 0.70808786
0.046735775 -0.037972778 0.71028435
0.047181007 -0.039317518 0.7125237
0.047634795 -0.040688068 0.71480608
0.048097406 -0.04208526 0.71713287
0.048569087 -0.043509811 0.71950519
0.049050108 -0.044962585 0.7219246
0.049540542 -0.046444267 0.72439122
0.050041102 -0.047956049 0.72690892
0.050551876 -0.049498677 0.72947788
0.051073186 -0.051073164 0.73209983
0.051605362 -0.052680463 0.7347765
0.052148502 -0.054321349 0.7375083
0.052703448 -0.055997372 0.7402994
0.053270325 -0.057709485 0.74315059
0.053849537 -0.059458852 0.74606383
0.054441474 -0.061246634 0.74904096
0.055046309 -0.063073903 0.75208306
0.055665001 -0.064942479 0.7551949
0.041581344 0.067039281 0.68009144
0.041452568 0.065985709 0.67945695
0.041324582 0.064938635 0.67882639
0.04119724 0.063897729 0.67819899
0.041070826 0.062863529 0.67757612
0.040945187 0.061835587 0.67695713
0.040820312 0.060813934 0.67634189
0.040696055 0.0597983 0.67572963
0.040572692 0.058789015 0.67512184
0.040450078 0.057785809 0.67451775
0.040328201 0.056788713 0.67391729
0.040207058 0.055797547 0.67332041
0.0400865 0.054812163 0.67272639
0.039966799 0.053832829 0.67213666
0.039847814 0.052859366 0.67155039
0.039729536 0.051891655 0.6709677
0.039611954 0.050929666 0.67038834
0.039494935 0.04997316 0.66981173
0.039378736 0.049022496 0.66923928
0.039263222 0.048077375 0.66867018
0.039148383 0.047137827 0.66810429
0.03903408 0.046203613 0.66754115
0.038920574 0.045274943 0.66698194
0.038807727 0.044351667 0.666426
0.038695533 0.043433785 0.66587317
0.038583986 0.042521119 0.66532356
0.03847295 0.041613609 0.6647765
0.038362682 0.040711433 0.66423321
0.038253043 0.039814383 0.66369301
0.03814403 0.038922518 0.66315591
0.038035631 0.038035601 0.66262186
0.037927728 0.037153721 0.66209018
0.037820555 0.036276877 0.6615622
0.03771399 0.03540495 0.66103715
0.03760802 0.034537971 0.66051507
0.037502527 0.03367576 0.6599952
0.037397742 0.032818466 0.65947896
0.037293538 0.031965911 0.65896559
0.037189916 0.031118125 0.65845501
0.037086871 0.030275017 0.6579473
0.036984276 0.029436499 0.65744185
0.036882363 0.02860263 0.65693974
0.036781009 0.02777341 0.65644038
0.036680214 0.02694872 0.65594375
0.036579851 0.026128441 0.65544927
0.036480151 0.025312752 0.65495801
0.036380995 0.024501503 0.65446949
0.036282375 0.023694605 0.65398365
0.036184289 0.022892118 0.65350032
0.036086619 0.022093862 0.65301913
0.035989586 0.021299988 0.65254104
0.035893075 0.020510346 0.65206552
0.035797078 0.019724905 0.65159261
0.035701595 0.018943697 0.65112209
0.035606511 0.018166572 0.65065366
0.035512041 0.017393678 0.65018821
0.035418071 0.016624808 0.64972526
0.035324596 0.015860051 0.64926463
0.035231613 0.015099287 0.64880651
0.035139009 0.014342487 0.64835024
0.035047002 0.01358968 0.64789695
0.034955472 0.012840807 0.64744604
0.034864418 0.012095809 0.64699733
0.034773737 0.011354685 0.6465506
0.034683626 0.010617435 0.64610666
0.034593984 0.00988397 0.64566499
0.034504805 0.0091543794 0.64522552
0.03441608 0.0084284246 0.64478844
0.034327712 0.0077061951 0.64435303
0.034239896 0.0069877207 0.64392042
0.03415253 0.006272912 0.64348996
0.034065604 0.0055617392 0.64306164
0.033979125 0.0048541725 0.64263558
0.033892982 0.004150182 0.64221114
0.033807378 0.003449738 0.64178938
0.033939082 0.0027705431 0.64243829
0.034168351 0.0020919144 0.64356792
0.034400843 0.0014041364 0.6447134
0.03463652 0.00070682168 0.64587456
0.034875445 -0 0.64705175
0.035117693 -0.00071668625 0.64824528
0.03536322 -0.0014433861 0.64945495
0.035612315 -0.0021803379 0.65068221
0.035864942 -0.0029277205 0.65192693
0.036121182 -0.003685832 0.65318942
0.036381107 -0.0044548213 0.65447009
0.036644805 -0.0052349865 0.65576929
0.036912229 -0.0060264766 0.65708685
0.037183709 -0.0068296492 0.6584245
0.03745921 -0.0076447427 0.65978187
0.037738822 -0.0084719956 0.66115952
0.038022641 -0.009311676 0.66255784
0.038310636 -0.010164052 0.66397679
0.038603157 -0.011029452 0.66541803
0.038900174 -0.011908203 0.66688138
0.039201804 -0.012800574 0.66836751
0.039508142 -0.013706923 0.66987687
0.03981917 -0.014627427 0.67140925
0.040135276 -0.015562654 0.67296672
0.04045644 -0.016512841 0.6745491
0.040782783 -0.017478347 0.676157
0.041114435 -0.018459558 0.677791
0.041451529 -0.019456834 0.67945188
0.041794039 -0.02047053 0.68113935
0.042142414 -0.021501213 0.68285584
0.042496644 -0.022549242 0.68460113
0.042856883 -0.023615032 0.68637598
0.043223273 -0.024699003 0.68818122
0.043595824 -0.025801599 0.69001675
0.043975022 -0.026923478 0.69188499
0.044360872 -0.028065056 0.69378608
0.044753551 -0.02922681 0.69572085
0.045153245 -0.030409336 0.69769007
0.045559965 -0.031613022 0.69969398
0.045974262 -0.032838732 0.7017352
0.046396159 -0.034086972 0.70381385
0.046825875 -0.03535831 0.70593107
0.047263622 -0.036653429 0.70808786
0.047709435 -0.037972778 0.71028435
0.048163939 -0.039317518 0.7125237
0.048627187 -0.040688068 0.71480608
0.049099434 -0.04208526 0.71713287
0.049580939 -0.043509811 0.71950519
0.050071985 -0.044962585 0.7219246
0.050572637 -0.046444267 0.72439122
0.051083624 -0.047956049 0.72690892
0.051605042 -0.049498677 0.72947788
0.052137211 -0.051073164 0.73209983
0.052680474 -0.052680463 0.7347765
0.053234931 -0.054321349 0.7375083
0.053801436 -0.055997372 0.7402994
0.054380123 -0.057709485 0.74315059
0.054971397 -0.059458852 0.74606383
0.055575673 -0.061246634 0.74904096
0.05619311 -0.063073903 0.75208306
0.056824692 -0.064942479 0.7551949
0.042429943 0.067039281 0.68009144
0.042298537 0.065985709 0.67945695
0.042167943 0.064938635 0.67882639
0.042038001 0.063897729 0.67819899
0.041909009 0.062863529 0.67757612
0.041780803 0.061835587 0.67695713
0.04165338 0.060813934 0.67634189
0.041526586 0.0597983 0.67572963
0.041400708 0.058789015 0.67512184
0.041275591 0.057785809 0.67451775
0.041151226 0.056788713 0.67391729
0.041027609 0.055797547 0.67332041
0.040904593 0.054812163 0.67272639
0.040782448 0.053832829 0.67213666
0.040661037 0.052859366 0.67155039
0.040540341 0.051891655 0.6709677
0.040420361 0.050929666 0.67038834
0.040300954 0.04997316 0.66981173
0.040182386 0.049022496 0.66923928
0.040064514 0.048077375 0.66867018
0.039947327 0.047137827 0.66810429
0.039830696 0.046203613 0.66754115
0.039714873 0.045274943 0.66698194
0.039599724 0.044351667 0.666426
0.039485238 0.043433785 0.66587317
0.039371416 0.042521119 0.66532356
0.039258115 0.041613609 0.6647765
0.039145593 0.040711433 0.66423321
0.039033718 0.039814383 0.66369301
0.038922478 0.038922518 0.66315591
0.03881187 0.038035601 0.66262186
0.038701762 0.037153721 0.66209018
0.038592406 0.036276877 0.6615622
0.038483664 0.03540495 0.66103715
0.03837553 0.034537971 0.66051507
0.038267884 0.03367576 0.6599952
0.038160961 0.032818466 0.65947896
0.03805463 0.031965911 0.65896559
0.037948895 0.031118125 0.65845501
0.037843745 0.030275017 0.6579473
0.037739057 0.029436499 0.65744185
0.037635062 0.02860263 0.65693974
0.037531644 0.02777341 0.65644038
0.037428789 0.02694872 0.65594375
0.037326377 0.026128441 0.65544927
0.037224643 0.025312752 0.65495801
0.037123464 0.024501503 0.65446949
0.037022829 0.023694605 0.65398365
0.036922742 0.022892118 0.65350032
0.036823079 0.022093862 0.65301913
0.036724068 0.021299988 0.65254104
0.036625586 0.020510346 0.65206552
0.03652763 0.019724905 0.65159261
0.036430199 0.018943697 0.65112209
0.036333174 0.018166572 0.65065366
0.036236778 0.017393678 0.65018821
0.036140889 0.016624808 0.64972526
0.036045503 0.015860051 0.64926463
0.035950623 0.015099287 0.64880651
0.035856131 0.014342487 0.64835024
0.035762247 0.01358968 0.64789695
0.03566885 0.012840807 0.64744604
0.035575937 0.012095809 0.64699733
0.035483405 0.011354685 0.6465506
0.035391457 0.010617435 0.64610666
0.035299983 0.00988397 0.64566499
0.035208981 0.0091543794 0.64522552
0.035118449 0.0084284246 0.64478844
0.035028275 0.0077061951 0.64435303
0.034938671 0.0069877207 0.64392042
0.034849517 0.006272912 0.64348996
0.034760825 0.0055617392 0.64306164
0.034672577 0.0048541725 0.64263558
0.034584679 0.004150182 0.64221114
0.034497321 0.003449738 0.64178938
0.034631718 0.0027705431 0.64243829
0.034865666 0.0020919144 0.64356792
0.0351029 0.0014041364 0.6447134
0.03534339 0.00070682168 0.64587456
0.035587192 -0 0.64705175
0.035834379 -0.00071668625 0.64824528
0.03608492 -0.0014433861 0.64945495
0.036339097 -0.0021803379 0.65068221
0.036596879 -0.0029277205 0.65192693
0.03685835 -0.003685832 0.65318942
0.03712358 -0.0044548213 0.65447009
0.037392657 -0.0052349865 0.65576929
0.037665538 -0.0060264766 0.65708685
0.037942559 -0.0068296492 0.6584245
0.038223684 -0.0076447427 0.65978187
0.038509 -0.0084719956 0.66115952
0.038798615 -0.009311676 0.66255784
0.039092485 -0.010164052 0.66397679
0.039390974 -0.011029452 0.66541803
0.039694056 -0.011908203 0.66688138
0.040001839 -0.012800574 0.66836751
0.040314432 -0.013706923 0.66987687
0.040631808 -0.014627427 0.67140925
0.040954363 -0.015562654 0.67296672
0.041282084 -0.016512841 0.6745491
0.041615088 -0.017478347 0.676157
0.041953508 -0.018459558 0.677791
0.042297475 -0.019456834 0.67945188
0.042646982 -0.02047053 0.68113935
0.043002464 -0.021501213 0.68285584
0.043363921 -0.022549242 0.68460113
0.043731511 -0.023615032 0.68637598
0.044105384 -0.024699003 0.68818122
0.044485535 -0.025801599 0.69001675
0.04487247 -0.026923478 0.69188499
0.045266196 -0.028065056 0.69378608
0.045666888 -0.02922681 0.69572085
0.046074741 -0.030409336 0.69769007
0.04648976 -0.031613022 0.69969398
0.04691251 -0.032838732 0.7017352
0.047343023 -0.034086972 0.70381385
0.047781505 -0.03535831 0.70593107
0.048228189 -0.036653429 0.70808786
0.048683099 -0.037972778 0.71028435
0.049146876 -0.039317518 0.7125237
0.049619582 -0.040688068 0.71480608
0.050101463 -0.04208526 0.71713287
0.050592795 -0.043509811 0.71950519
0.051093861 -0.044962585 0.7219246
0.051604733 -0.046444267 0.72439122
0.052126147 -0.047956049 0.72690892
0.052658204 -0.049498677 0.72947788
0.053201236 -0.051073164 0.73209983
0.053755585 -0.052680463 0.7347765
0.05432136 -0.054321349 0.7375083
0.054899424 -0.055997372 0.7402994
0.055489924 -0.057709485 0.74315059
0.056093264 -0.059458852 0.74606383
0.056709871 -0.061246634 0.74904096
0.057339903 -0.063073903 0.75208306
0.057984378 -0.064942479 0.7551949
0.043278541 0.067039281 0.68009144
0.043144505 0.065985709 0.67945695
0.0430113 0.064938635 0.67882639
0.042878758 0.063897729 0.67819899
0.042747188 0.062863529 0.67757612
0.042616419 0.061835587 0.67695713
0.042486448 0.060813934 0.67634189
0.042357117 0.0597983 0.67572963
0.042228721 0.058789015 0.67512184
0.042101104 0.057785809 0.67451775
0.04197425 0.056788713 0.67391729
0.041848164 0.055797547 0.67332041
0.041722685 0.054812163 0.67272639
0.0415981 0.053832829 0.67213666
0.041474257 0.052859366 0.67155039
0.041351151 0.051891655 0.6709677
0.041228771 0.050929666 0.67038834
0.041106973 0.04997316 0.66981173
0.040986031 0.049022496 0.66923928
0.040865801 0.048077375 0.66867018
0.040746275 0.047137827 0.66810429
0.040627308 0.046203613 0.66754115
0.040509172 0.045274943 0.66698194
0.040391717 0.044351667 0.666426
0.040274944 0.043433785 0.66587317
0.040158842 0.042521119 0.66532356
0.04004328 0.041613609 0.6647765
0.039928507 0.040711433 0.66423321
0.03981439 0.039814383 0.66369301
0.039700925 0.038922518 0.66315591
0.039588109 0.038035601 0.66262186
0.039475799 0.037153721 0.66209018
0.039364256 0.036276877 0.6615622
0.039253335 0.03540495 0.66103715
0.039143045 0.034537971 0.66051507
0.039033242 0.03367576 0.6599952
0.03892418 0.032818466 0.65947896
0.038815726 0.031965911 0.65896559
0.038707875 0.031118125 0.65845501
0.03860062 0.030275017 0.6579473
0.038493838 0.029436499 0.65744185
0.038387764 0.02860263 0.65693974
0.038282275 0.02777341 0.65644038
0.038177364 0.02694872 0.65594375
0.038072906 0.026128441 0.65544927
0.037969135 0.025312752 0.65495801
0.037865933 0.024501503 0.65446949
0.03776329 0.023694605 0.65398365
0.037661199 0.022892118 0.65350032
0.037559543 0.022093862 0.65301913
0.03745855 0.021299988 0.65254104
0.037358098 0.020510346 0.65206552
0.037258185 0.019724905 0.65159261
0.037158806 0.018943697 0.65112209
0.037059836 0.018166572 0.65065366
0.036961511 0.017393678 0.65018821
0.036863703 0.016624808 0.64972526
0.036766414 0.015860051 0.64926463
0.036669638 0.015099287 0.64880651
0.036573257 0.014342487 0.64835024
0.036477491 0.01358968 0.64789695
0.036382224 0.012840807 0.64744604
0.036287457 0.012095809 0.64699733
0.036193073 0.011354685 0.6465506
0.036099285 0.010617435 0.64610666
0.036005985 0.00988397 0.64566499
0.035913162 0.0091543794 0.64522552
0.035820819 0.0084284246 0.64478844
0.035728842 0.0077061951 0.64435303
0.035637442 0.0069877207 0.64392042
0.035546511 0.006272912 0.64348996
0.035456039 0.0055617392 0.64306164
0.035366029 0.0048541725 0.64263558
0.035276368 0.004150182 0.64221114
0.035187267 0.003449738 0.64178938
0.03532435 0.0027705431 0.64243829
0.035562977 0.0020919144 0.64356792
0.035804961 0.0014041364 0.6447134
0.036050253 0.00070682168 0.64587456
0.036298934 -0 0.64705175
0.036551069 -0.00071668625 0.64824528
0.036806621 -0.0014433861 0.64945495
0.037065879 -0.0021803379 0.65068221
0.037328821 -0.0029277205 0.65192693
0.037595514 -0.003685832 0.65318942
0.037866049 -0.0044548213 0.65447009
0.038140509 -0.0052349865 0.65576929
0.038418848 -0.0060264766 0.65708685
0.038701411 -0.0068296492 0.6584245
0.038988154 -0.0076447427 0.65978187
0.039279182 -0.0084719956 0.66115952
0.039574586 -0.009311676 0.66255784
0.039874338 -0.010164052 0.66397679
0.040178794 -0.011029452 0.66541803
0.040487938 -0.011908203 0.66688138
0.040801875 -0.012800574 0.66836751
0.041120719 -0.013706923 0.66987687
0.041444443 -0.014627427 0.67140925
0.041773453 -0.015562654 0.67296672
0.042107724 -0.016512841 0.6745491
0.042447388 -0.017478347 0.676157
0.042792574 -0.018459558 0.677791
0.043143429 -0.019456834 0.67945188
0.043499921 -0.02047053 0.68113935
0.04386251 -0.021501213 0.68285584
0.044231202 -0.022549242 0.68460113
0.044606142 -0.023615032 0.68637598
0.044987492 -0.024699003 0.68818122
0.045375247 -0.025801599 0.69001675
0.045769922 -0.026923478 0.69188499
0.04617152 -0.028065056 0.69378608
0.046580225 -0.02922681 0.69572085
0.04699624 -0.030409336 0.69769007
0.047419555 -0.031613022 0.69969398
0.047850762 -0.032838732 0.7017352
0.04828988 -0.034086972 0.70381385
0.048737131 -0.03535831 0.70593107
0.049192749 -0.036653429 0.70808786
0.04965676 -0.037972778 0.71028435
0.05012982 -0.039317518 0.7125237
0.050611973 -0.040688068 0.71480608
0.051103495 -0.04208526 0.71713287
0.051604658 -0.043509811 0.71950519
0.052115746 -0.044962585 0.7219246
0.052636825 -0.046444267 0.72439122
0.053168669 -0.047956049 0.72690892
0.05371137 -0.049498677 0.72947788
0.054265257 -0.051073164 0.73209983
0.0548307 -0.052680463 0.7347765
0.055407785 -0.054321349 0.7375083
0.055997413 -0.055997372 0.7402994
0.056599721 -0.057709485 0.74315059
0.057215132 -0.059458852 0.74606383
0.057844069 -0.061246634 0.74904096
0.0584867 -0.063073903 0.75208306
0.059144065 -0.064942479 0.7551949
0.04412714 0.067039281 0.68009144
0.043990478 0.065985709 0.67945695
0.043854658 0.064938635 0.67882639
0.043719523 0.063897729 0.67819899
0.043585368 0.062863529 0.67757612
0.043452036 0.061835587 0.67695713
0.043319516 0.060813934 0.67634189
0.043187652 0.0597983 0.67572963
0.043056738 0.058789015 0.67512184
0.042926617 0.057785809 0.67451775
0.042797275 0.056788713 0.67391729
0.042668715 0.055797547 0.67332041
0.042540774 0.054812163 0.67272639
0.042413749 0.053832829 0.67213666
0.042287476 0.052859366 0.67155039
0.042161956 0.051891655 0.6709677
0.042037178 0.050929666 0.67038834
0.041912992 0.04997316 0.66981173
0.041789681 0.049022496 0.66923928
0.041667093 0.048077375 0.66867018
0.041545223 0.047137827 0.66810429
0.041423924 0.046203613 0.66754115
0.041303467 0.045274943 0.66698194
0.041183714 0.044351667 0.666426
0.041064646 0.043433785 0.66587317
0.040946271 0.042521119 0.66532356
0.04082844 0.041613609 0.6647765
0.040711418 0.040711433 0.66423321
0.040595066 0.039814383 0.66369301
0.040479377 0.038922518 0.66315591
0.040364344 0.038035601 0.66262186
0.040249836 0.037153721 0.66209018
0.040136103 0.036276877 0.6615622
0.04002301 0.03540495 0.66103715
0.039910555 0.034537971 0.66051507
0.039798599 0.03367576 0.6599952
0.039687399 0.032818466 0.65947896
0.039576817 0.031965911 0.65896559
0.03946685 0.031118125 0.65845501
0.039357495 0.030275017 0.6579473
0.039248616 0.029436499 0.65744185
0.039140467 0.02860263 0.65693974
0.039032906 0.02777341 0.65644038
0.038925938 0.02694872 0.65594375
0.038819432 0.026128441 0.65544927
0.03871363 0.025312752 0.65495801
0.038608402 0.024501503 0.65446949
0.038503744 0.023694605 0.65398365
0.038399652 0.022892118 0.65350032
0.038296003 0.022093862 0.65301913
0.038193032 0.021299988 0.65254104
0.038090609 0.020510346 0.65206552
0.037988737 0.019724905 0.65159261
0.037887409 0.018943697 0.65112209
0.037786499 0.018166572 0.65065366
0.037686247 0.017393678 0.65018821
0.037586521 0.016624808 0.64972526
0.037487324 0.015860051 0.64926463
0.037388649 0.015099287 0.64880651
0.037290379 0.014342487 0.64835024
0.037192736 0.01358968 0.64789695
0.037095603 0.012840807 0.64744604
0.036998976 0.012095809 0.64699733
0.036902741 0.011354685 0.6465506
0.036807116 0.010617435 0.64610666
0.036711983 0.00988397 0.64566499
0.036617342 0.0091543794 0.64522552
0.036523186 0.0084284246 0.64478844
0.036429409 0.0077061951 0.64435303
0.036336217 0.0069877207 0.64392042
0.036243498 0.006272912 0.64348996
0.036151256 0.0055617392 0.64306164
0.03605948 0.0048541725 0.64263558
0.035968065 0.004150182 0.64221114
0.035877213 0.003449738 0.64178938
0.036016986 0.0027705431 0.64243829
0.036260296 0.0020919144 0.64356792
0.036507018 0.0014041364 0.6447134
0.036757123 0.00070682168 0.64587456
0.037010677 -0 0.64705175
0.037267756 -0.00071668625 0.64824528
0.037528317 -0.0014433861 0.64945495
0.03779266 -0.0021803379 0.65068221
0.038060758 -0.0029277205 0.65192693
0.038332682 -0.003685832 0.65318942
0.038608521 -0.0044548213 0.65447009
