# .PCD v0.7 - Point Cloud Data file format
VERSION 0.7
FIELDS x y z
SIZE 4 4 4
TYPE F F F
COUNT 1 1 1
WIDTH 1327
HEIGHT 1
VIEWPOINT 0 0 0 1 0 0 0
POINTS 1327
DATA ascii
-0.029073512 -0.0074374378 0.63845336
-0.027009575 2.9802322e-08 0.63823879
-0.021648001 0.01657407 0.63854313
-0.019669181 0.021703899 0.63896501
-0.019669181 0.021703899 0.63896501
-0.038588889 0.031480432 0.63866329
-0.016230188 0.034489185 0.63848466
-0.015584623 0.035573408 0.63880682
-0.015584623 0.035573408 0.63880682
-0.015558651 0.036529034 0.63853419
-0.010834327 0.051463038 0.638699
-0.010834327 0.051463038 0.638699
-0.038588889 0.052467346 0.63866335
-0.038588889 0.052467346 0.63866335
-0.010601367 0.052558124 0.63859451
-0.038009249 -0.038688004 0.63908309
-0.033273205 -0.023427248 0.63915753
-0.03947331 -0.022458941 0.63952672
-0.027955564 -0.0081821382 0.63983303
-0.016676428 0.029610097 0.63955611
-0.039473198 0.040494055 0.63952625
-0.039473198 0.040494055 0.63952625
-0.0088701546 0.053903222 0.63994813
-0.038222369 -0.042317629 0.64000183
-0.04036713 -0.035577804 0.64039934
-0.032095712 -0.022535324 0.64008522
-0.031422451 -0.020492911 0.64013571
-0.04036713 -0.0075260699 0.64039934
-0.04036713 0.0044472218 0.64039934
-0.040367011 0.018473029 0.64039886
-0.010980946 0.043923765 0.64091122
-0.03797733 -0.047644258 0.64192224
-0.041270491 -0.029577166 0.64128119
-0.029599674 -0.018585831 0.64140749
-0.028579773 -0.015495606 0.64148474
-0.026508216 -0.0086069629 0.64145023
-0.041270491 -0.0006878376 0.64128119
-0.02133365 0.0086020827 0.6413635
-0.020663518 0.01033178 0.6415087
-0.041270372 0.023386538 0.64128071
-0.014422838 0.03227967 0.64103019
-0.014422838 0.03227967 0.64103019
-0.041270372 0.033360228 0.64128071
-0.012415918 0.036558002 0.64174753
-0.041270372 0.044365674 0.64128065
-0.041270372 0.046429172 0.64128071
-0.0068991422 0.054503232 0.64178157
-0.041270372 0.063281238 0.64128071
-0.041459858 -0.059425816 0.64204311
-0.039558318 -0.055520415 0.64276934
-0.042183552 -0.054631129 0.64217252
-0.03638193 -0.044352084 0.64252692
-0.03473619 -0.040293962 0.64294273
-0.034442268 -0.038372349 0.64264208
-0.042183552 -0.03146477 0.64217257
-0.042183425 -0.0024203509 0.6421721
-0.042183425 -0.0013830662 0.64217204
-0.022916183 -0.0013888478 0.64287174
-0.020449013 0.0076252967 0.64257699
-0.019396726 0.011430025 0.64246386
-0.018233819 0.015464654 0.64239186
-0.042183425 0.028352797 0.6421721
-0.011068296 0.039430797 0.64222926
-0.011068296 0.039430797 0.64222926
-0.042183425 0.049444512 0.6421721
-0.0082926508 0.049064875 0.64205682
-0.0082926508 0.049064875 0.64205682
-0.042183425 0.050481796 0.64217204
-0.0069345073 0.051661879 0.64263535
-0.039830908 -0.060095742 0.64392388
-0.040354863 -0.059488833 0.64319623
-0.043106463 -0.051449656 0.64307356
-0.033482205 -0.038365036 0.64362407
-0.03066007 -0.028569609 0.64344871
-0.044039395 -0.027611971 0.64398426
-0.044039261 -0.020621583 0.64398378
-0.025090618 -0.010454416 0.64348298
-0.044039261 -0.0055922866 0.64398378
-0.022305008 -0.0013940334 0.64349985
-0.021565353 0.002086997 0.64316791
-0.043106336 0.0274629 0.64307302
-0.012572678 0.029336244 0.64385009
-0.044039261 0.03145662 0.64398372
-0.01185748 0.032433495 0.64361268
-0.043106336 0.038587153 0.64307302
-0.044039261 0.045437366 0.64398378
-0.044039261 0.052427709 0.64398372
-0.040563524 -0.062943414 0.64406466
-0.044982504 -0.042522505 0.64490497
-0.033309899 -0.040673941 0.64452434
-0.026712572 -0.020385921 0.64493173
-0.026429748 -0.018477648 0.64462405
-0.04498237 -0.017571211 0.64490443
-0.04498237 -0.0024599731 0.64490449
-0.019654004 0.0035096407 0.64468217
-0.04498237 0.0045685023 0.64490443
-0.04498237 0.023545474 0.64490449
-0.04498237 0.04638806 0.64490449
-0.045935959 -0.067490511 0.64583576
-0.045935959 -0.066430494 0.64583576
-0.045935959 -0.053356387 0.64583576
-0.03517795 -0.048545569 0.64507574
-0.03517795 -0.048545569 0.64507574
-0.045935959 -0.044522524 0.64583576
-0.032423295 -0.040529311 0.64538842
-0.045935821 -0.033568472 0.64583522
-0.045935821 -0.023321241 0.64583522
-0.027454507 -0.023582935 0.64517295
-0.024684025 -0.015515685 0.64548594
-0.01835693 0.0045890212 0.64567375
-0.045935821 0.020494461 0.64583522
-0.011279855 0.028551921 0.64542145
-0.0075219064 0.04066816 0.64547819
-0.045935821 0.041695595 0.64583528
-0.045935821 0.057596475 0.64583528
-0.045935821 0.065016866 0.64583522
-0.045935821 0.065016866 0.64583522
-0.034847941 -0.053338706 0.64691621
-0.046899788 -0.045478612 0.64677632
-0.046899788 -0.038372546 0.64677626
-0.030496493 -0.037588716 0.64644259
-0.027662432 -0.028371722 0.64646006
-0.046899788 -0.025581717 0.64677626
-0.0240981 -0.016301692 0.64633322
-0.023369493 -0.013455182 0.64618808
-0.023369493 -0.013455182 0.64618808
-0.021277588 -0.0074473768 0.6464504
-0.046899788 0.0046189129 0.64677632
-0.012029815 0.024059594 0.64606011
-0.0092109395 0.032592565 0.64627671
-0.004245792 0.049534261 0.64605904
-0.0028439094 0.051545635 0.64686668
-0.046899788 0.060401261 0.64677632
-0.037601687 -0.064494789 0.64758819
-0.035756618 -0.059356004 0.64786983
-0.047874451 -0.051447183 0.64772779
-0.047874451 -0.045373559 0.64772773
-0.026399102 -0.027469575 0.6474731
-0.025739077 -0.026454061 0.64783168
-0.023616808 -0.020038486 0.64799738
-0.047874451 -0.019292682 0.64772773
-0.022500763 -0.015357524 0.64767492
-0.047874451 -0.0085745454 0.64772779
-0.019224148 -0.0028479993 0.64711487
-0.018518057 -0.0007122457 0.64716983
-0.013578597 0.013578594 0.64775646
-0.0085850963 0.029332429 0.6479404
-0.0085850963 0.029332429 0.6479404
-0.0064260992 0.037485376 0.6475991
-0.0064073158 0.039155811 0.6470952
-0.047874309 0.047517046 0.64772725
-0.00071500055 0.055412352 0.647838
-0.047874451 0.056448936 0.64772779
-0.038044333 -0.068910524 0.64851815
-0.034510605 -0.058236644 0.6487965
-0.048859987 -0.046704412 0.64868987
-0.030929018 -0.046753168 0.648871
-0.048859987 -0.037363529 0.64868987
-0.048859987 -0.01257427 0.64868987
-0.020070663 -0.0093185306 0.64827466
-0.048859842 0.019400239 0.64868939
-0.048859842 0.041674584 0.64868939
-0.0035978651 0.042454809 0.64894187
-0.0021537417 0.048458979 0.64854127
-0.0021499388 0.04944858 0.64823526
-0.048859842 0.053530261 0.64868939
-0.0007175291 0.053455725 0.64844847
0.000359631 0.056712285 0.64853239
-0.049856577 -0.067559294 0.64966273
-0.03546961 -0.065148279 0.64997911
-0.049856577 -0.064307749 0.64966273
-0.049856577 -0.06141755 0.64966279
-0.049856577 -0.033599004 0.64966273
-0.025983285 -0.032479107 0.64946938
-0.049856577 -0.030347496 0.64966273
-0.049856577 -0.025289565 0.64966279
-0.016650582 -0.0036197007 0.64999574
-0.049856424 -0.0025289655 0.64966226
-0.049856424 0.0025289655 0.64966226
-0.049856424 0.0043353438 0.64966226
-0.014407081 0.0064831972 0.6491304
-0.049856424 0.0093932152 0.64966226
-0.049856424 0.0093932152 0.64966226
-0.049856424 0.015534982 0.64966226
-0.010104488 0.019487202 0.64946723
-0.0093746623 0.02235496 0.64931726
-0.049856424 0.025289476 0.64966226
-0.0065139881 0.029674798 0.6499567
-0.0043417145 0.036904573 0.64991868
-0.0043417145 0.036904573 0.64991868
-0.049856424 0.03757298 0.64966226
-0.049856424 0.041547015 0.64966226
-0.00072392949 0.04850328 0.6499936
-0.049856424 0.057443276 0.64966226
-0.05086441 -0.071210176 0.65064663
-0.05086441 -0.065397099 0.65064663
-0.034043878 -0.060844347 0.65009212
-0.05086441 -0.057404116 0.65064663
-0.05086441 -0.052317679 0.65064663
-0.02832263 -0.04357326 0.65054691
-0.026887707 -0.039241523 0.65066123
-0.050864253 -0.022525549 0.65064609
-0.050864253 -0.016712576 0.65064609
-0.018905234 -0.013452038 0.65076494
-0.050864253 0.021435633 0.65064609
-0.0075048497 0.024453133 0.65057701
-0.050864253 0.03960146 0.65064609
-0.050864253 0.065396905 0.65064609
-0.03365089 -0.065107152 0.65183121
-0.028526921 -0.048276305 0.65181154
-0.051883671 -0.046403006 0.65164173
-0.027771132 -0.045310766 0.65165693
-0.051883515 -0.013518929 0.65164113
-0.018249463 -0.013504803 0.65145397
-0.051883515 -0.010595888 0.65164113
-0.014597151 -0.0014596879 0.65142477
-0.051883515 0.0073075294 0.65164113
-0.0095098866 0.013899058 0.65182847
-0.051883515 0.022653341 0.65164113
-0.0072874106 0.023319721 0.65115523
-0.051883515 0.032518551 0.65164113
-0.0036540397 0.033617139 0.65165424
-0.0036540397 0.033617139 0.65165424
-0.034454007 -0.068907991 0.65219891
-0.034454007 -0.068907991 0.65219891
-0.052914567 -0.063570976 0.65264809
-0.030096719 -0.055422232 0.65244085
-0.025758654 -0.042685777 0.65289843
-0.024200205 -0.035567194 0.65226543
-0.0529144 -0.034541339 0.6526475
-0.023517072 -0.034540713 0.65264416
-0.0227622 -0.031573385 0.65248871
-0.021541044 -0.027661225 0.6525147
-0.0529144 -0.00073492527 0.6526475
-0.011763623 0.0036761463 0.65272093
-0.0529144 0.019475445 0.6526475
-0.0066242726 0.019872814 0.652915
-0.0529144 0.028661966 0.6526475
-0.0529144 0.028661966 0.6526475
-0.0529144 0.06246838 0.6526475
-0.028074533 -0.052455038 0.65358454
-0.05395712 -0.039543927 0.65366542
-0.05395712 -0.0303047 0.65366542
-0.01921514 -0.023649365 0.65364254
-0.01921514 -0.023649365 0.65364254
-0.018459814 -0.020675004 0.6534853
-0.015545642 -0.012584567 0.65393829
-0.015545642 -0.012584567 0.65393829
-0.05395712 0.0014782846 0.65366548
-0.0096255736 0.0066638887 0.65397686
-0.0086136656 0.011567801 0.65347779
-0.0086136656 0.011567801 0.65347779
-0.032720573 -0.071390316 0.6547544
-0.031139772 -0.064503849 0.654217
-0.029749157 -0.061729491 0.65477359
-0.055011872 -0.057613775 0.65469509
-0.028211528 -0.055680633 0.65445483
-0.021594444 -0.035742521 0.65499258
-0.019273683 -0.025574937 0.65418613
-0.055011872 -0.014496356 0.65469503
-0.055011872 -0.011522755 0.65469509
-0.013338083 -0.0059280396 0.65411597
-0.012616625 -0.004452914 0.65439349
-0.055011872 -0.0026019067 0.65469503
-0.055011872 -0.00037170947 0.65469509
-0.055011701 0.0074340105 0.65469456
-0.055011701 0.010407627 0.65469456
-0.055011701 0.013381243 0.65469456
-0.055011701 0.013381243 0.65469456
-0.055011872 0.025275677 0.65469509
-0.001482651 0.032618314 0.6541934
-0.055011872 0.046462744 0.65469503
0.0051984773 0.053470045 0.65451062
-0.055011872 0.062445939 0.65469509
-0.032144662 -0.072512373 0.65569615
-0.031446259 -0.071128413 0.65597862
-0.056078866 -0.063556015 0.65573668
-0.056078866 -0.051592559 0.65573668
-0.023551157 -0.044486016 0.65572566
-0.021647383 -0.037323087 0.6554333
-0.021620881 -0.036531836 0.6552127
-0.056078866 -0.025422394 0.65573668
-0.056078866 -0.021683842 0.65573668
-0.056078866 -0.021683842 0.65573668
-0.010477239 -0.0022451282 0.65589511
-0.010425955 0.00074473023 0.65501076
-0.0097261574 0.00037387013 0.65584481
-0.0082100909 0.0067173541 0.65541166
-0.0074479328 0.010427088 0.65503061
-0.00074611738 0.031336933 0.65535027
0.0014974077 0.03668648 0.65597469
-0.056078866 0.043367654 0.65573668
0.0037403801 0.04451029 0.65582305
0.0037334871 0.045548528 0.65549028
0.0037334871 0.045548528 0.65549028
0.0059685828 0.053343996 0.65533948
0.0067375447 0.053900331 0.65595347
0.0059576328 0.05436343 0.65500903
0.0067045554 0.056616217 0.65506852
-0.056078866 0.064303786 0.65573668
-0.031484969 -0.07196562 0.65620118
-0.027008282 -0.057767689 0.65634316
-0.025524924 -0.05330202 0.65646452
-0.024843812 -0.05269897 0.65697384
-0.019571668 -0.035379559 0.65695304
-0.01726675 -0.026275486 0.65646338
-0.013519164 -0.014270216 0.65654463
-0.057158135 0.0022562444 0.6567899
-0.0052509266 0.013502359 0.65631956
0.0007512247 0.032302678 0.65658325
-0.057158135 0.034595698 0.6567899
0.0015001749 0.035628915 0.65630871
0.0029968191 0.04120627 0.65609562
-0.057158135 0.043620706 0.6567899
-0.057158135 0.043620706 0.6567899
-0.057158135 0.061670631 0.6567899
-0.057158135 0.061670631 0.6567899
-0.029447094 -0.069464937 0.65750766
-0.058250446 -0.049550712 0.65785664
-0.023397326 -0.04943651 0.65743494
-0.021916166 -0.045343757 0.65767086
-0.058250446 -0.044633418 0.65785664
-0.018520098 -0.034394935 0.65772265
-0.018606493 -0.0334423 0.65733552
-0.058250263 -0.029503345 0.65785605
-0.016613841 -0.027564123 0.65753686
-0.012819854 -0.014328033 0.65727961
-0.058250263 -0.013616949 0.65785611
-0.012451901 -0.013584733 0.65742397
-0.0060287737 0.0082895756 0.65715587
-0.058250263 0.011347443 0.65785611
-0.058250263 0.028746873 0.65785611
0.0015141717 0.030283391 0.65799832
-0.058250263 0.059385031 0.65785611
-0.058250263 0.064302236 0.65785605
-0.058250263 0.066571742 0.65785605
-0.02046939 -0.042455077 0.65824932
-0.020443939 -0.04164505 0.65802169
-0.01363694 -0.019697785 0.65812427
-0.012907812 -0.018602684 0.65852875
-0.059355281 -0.011414468 0.65893483
-0.0098841153 -0.0095041841 0.65877819
-0.059355281 -0.0034243166 0.65893477
-0.059355281 -0.0015219152 0.65893483
-0.002280161 0.015580863 0.65871477
0 0.022810668 0.65878761
0.0053019798 0.042415828 0.65808028
0.0083326176 0.052268237 0.65810078
-0.059355281 0.053267539 0.65893483
0.0098789306 0.055474043 0.65868193
-0.02895323 -0.073144972 0.65916705
-0.025139268 -0.060563013 0.6591354
-0.02289162 -0.054176837 0.65943909
-0.022080719 -0.050252706 0.65904075
-0.019841583 -0.044261992 0.65945935
-0.01627849 -0.032558035 0.65944582
-0.01627849 -0.032558035 0.65944582
-0.01143983 -0.016397342 0.65934289
-0.01143983 -0.016397342 0.65934289
-0.009915092 -0.011440486 0.65935344
-0.0060967146 0.0015241802 0.65920621
0.0038130169 0.033554554 0.65933031
0.0053385356 0.038513511 0.6593411
0.0083900485 0.048433214 0.6593613
-0.060473442 -0.05243583 0.66002643
-0.060473442 -0.035595119 0.66002637
-0.013029736 -0.024526596 0.6602602
-0.011533789 -0.021529704 0.66085511
-0.060473442 -0.018371671 0.66002643
-0.0091900676 -0.011487573 0.66011143
-0.060473442 0.026409298 0.66002637
0.003074408 0.026516527 0.66077852
-0.060473442 0.032533184 0.66002643
0.0046031522 0.032605425 0.66043806
0.0045944676 0.033692777 0.66008872
-0.060473442 0.041336298 0.66002631
-0.060473442 0.046694696 0.66002637
0.010743094 0.052564204 0.66047955
-0.022388861 -0.059446305 0.66160601
-0.02236044 -0.05859977 0.66136938
-0.02236044 -0.05859977 0.66136938
-0.019254062 -0.047750086 0.66115522
-0.016712543 -0.04036855 0.66144824
-0.015429804 -0.036260068 0.66147578
-0.061604965 -0.029262334 0.66113096
-0.0069610272 -0.010054827 0.66194826
-0.061604965 -0.0065455437 0.66113096
-0.061604965 0.003465265 0.66113102
-0.061604965 0.0077006221 0.66113102
-0.0015447459 0.0084961057 0.66168886
-0.00077313138 0.010437027 0.66187203
-0.061604965 0.011550933 0.66113102
0 0.013517067 0.66169965
0 0.013517067 0.66169965
0.00077170471 0.016591415 0.66152757
0.00077170471 0.016591415 0.66152757
0.0015400344 0.020405218 0.66112018
0.0015400344 0.020405218 0.66112018
0.0092428233 0.045443863 0.66117287
0.010022864 0.047415644 0.6613549
-0.061604965 0.065455317 0.66113096
-0.024452373 -0.069476843 0.66263306
-0.023211706 -0.06344533 0.66201496
-0.018608056 -0.049621463 0.66240418
-0.062750094 -0.043382764 0.66224885
-0.062750094 -0.043382764 0.66224885
-0.062750094 -0.039509326 0.66224891
-0.062750094 -0.03641054 0.66224891
-0.062750094 -0.032537073 0.66224891
-0.012439865 -0.031099647 0.66292465
-0.062750094 -0.024402812 0.66224885
-0.0085236859 -0.016272485 0.66229427
-0.0054386291 -0.0077694654 0.66279316
-0.0046633072 -0.0054405332 0.66285855
-0.0038874322 -0.0031099617 0.66292346
-0.00077658438 0.0077658296 0.66270566
-0.062750094 0.017430604 0.66224885
0.0046589398 0.025624156 0.66268283
-0.062750094 0.030600354 0.66224891
-0.062750094 0.030600354 0.66224891
0.0062043676 0.031409368 0.66245496
-0.062750094 0.035635829 0.66224891
0.011646627 0.048527345 0.66267121
-0.062750094 0.050355017 0.66224885
-0.062750094 0.057327241 0.66224891
0.013946021 0.057333678 0.66226971
-0.016340658 -0.044353217 0.66307789
-0.063909084 -0.028447315 0.66338027
-0.010143907 -0.025749892 0.66360277
-0.0093789073 -0.024228871 0.66391063
-0.063909084 -0.020263851 0.66338027
-0.063908875 -0.0046762526 0.66337967
-0.063908875 0.0015587509 0.66337973
-0.063908875 0.0015587509 0.66337973
-0.00078056863 0.004683435 0.6636675
0.0031217188 0.017559424 0.66363394
0.007009143 0.0315409 0.663239
0.010901167 0.044383317 0.66320544
-0.063909084 0.063519403 0.66338038
-0.065082178 -0.056456834 0.66452551
-0.016488245 -0.050249875 0.66477466
-0.011786953 -0.035360843 0.66492969
-0.065082178 -0.029404595 0.66452551
-0.0094151897 -0.026676357 0.66464055
-0.065082178 -0.022739559 0.66452551
-0.0039275736 -0.0094261765 0.66486162
-0.065081961 -0.0062729418 0.66452491
-0.0031310355 -0.004696548 0.66419631
0.0023540475 0.011770248 0.66466069
-0.065081961 0.015682399 0.66452491
-0.065081961 0.015682399 0.66452491
-0.065081961 0.019603014 0.66452485
0.010184132 0.038386345 0.66434979
0.012563683 0.044758111 0.6647929
-0.065082178 0.050575912 0.66452551
-0.065082178 0.054496512 0.66452551
-0.065082178 0.065474242 0.66452551
-0.02131925 -0.069484979 0.66584831
-0.02131925 -0.069484979 0.66584831
-0.019677378 -0.062180519 0.66524321
-0.066269644 -0.052463472 0.6656847
-0.066269644 -0.052463472 0.6656847
0.0063211666 0.020543814 0.66597962
0.010223586 0.036175787 0.66508245
-0.06626942 0.040235043 0.6656841
-0.011098195 -0.038447559 0.66660309
-0.0095133083 -0.033296555 0.66661453
-0.067471512 -0.017463207 0.6668576
-0.067471512 0.0087316036 0.6668576
0.007118457 0.022541553 0.66617125
0.0095075341 0.029314935 0.66649836
-0.067471512 0.031751305 0.6668576
0.010303492 0.031703055 0.66656643
0.012678201 0.039619416 0.66652083
-0.067471512 0.044451803 0.6668576
-0.067471512 0.044451803 0.6668576
0.016647954 0.052322149 0.66661066
-0.067471512 0.056358576 0.6668576
-0.067471512 0.056358576 0.6668576
-0.018329412 -0.065348357 0.66761774
-0.015528268 -0.055745572 0.66748112
-0.015103888 -0.053261101 0.6671375
-0.0079697426 -0.03148073 0.66762817
-0.0015953631 -0.011167556 0.66779894
0.0047715772 0.01153104 0.66721505
0.011552041 0.032661974 0.66754597
0.018294116 0.055677712 0.6672473
0.018294116 0.055677712 0.6672473
-0.019169727 -0.069490269 0.66805416
-0.018450199 -0.069789857 0.66888553
-0.018450199 -0.069789857 0.66888553
-0.068688735 -0.064695179 0.6680463
-0.068688504 -0.040733874 0.66804564
-0.068688504 -0.031548783 0.66804564
-0.068688504 -0.030350745 0.6680457
-0.0056179292 -0.028089643 0.66897702
-0.068688504 -0.024759829 0.66804564
-0.068688504 -0.024759829 0.66804564
-0.0036046652 -0.020429224 0.66864109
-0.068688504 -0.013577938 0.66804564
0.0032059981 0.0016030073 0.66872066
-0.068688504 0.031548798 0.66804564
0.014442423 0.037710756 0.66892767
0.017607486 0.049621105 0.66844082
-0.069920681 -0.04942666 0.66924846
-0.012051478 -0.049812794 0.66918719
-0.069920681 -0.048221141 0.66924852
-0.011237232 -0.046554238 0.66900069
-0.0048362296 -0.028211325 0.66981643
-0.069920681 -0.020493984 0.66924852
-0.069920681 -0.0096442103 0.66924846
-0.069920681 -0.0024110675 0.66924858
-0.069920681 0.0056257844 0.66924852
-0.069920681 0.0056257844 0.66924852
0.011246516 0.026509643 0.66916078
0.015310863 0.037874222 0.66976726
-0.069920681 0.064294875 0.66924852
-0.069920681 0.068313301 0.66924852
-0.069920681 0.070724368 0.66924852
-0.069920681 0.070724368 0.66924852
-0.069920681 0.071528047 0.66924852
-0.016146215 -0.066199481 0.67012364
-0.071168326 -0.053376228 0.67046648
-0.012115456 -0.05330801 0.67021686
-0.010535644 -0.050246924 0.6708777
-0.071168326 -0.036392897 0.67046654
-0.0064607812 -0.034726709 0.6701929
-0.071168326 -0.02830559 0.67046654
-0.071168326 -0.027496845 0.67046648
-0.071168326 -0.018600792 0.67046654
-0.071168326 -0.017792106 0.67046654
-0.071168326 -0.013748407 0.67046648
-0.071168326 -0.00849168 0.67046654
0.0032315284 -0.0032315254 0.67026156
-0.071168326 0.00080874562 0.67046648
0.0081071779 0.010539353 0.67094612
-0.071168326 0.012535349 0.67046654
-0.071168326 0.021431386 0.67046654
0.012930712 0.02828595 0.67033088
0.013725641 0.03148824 0.67014295
0.020229779 0.051383376 0.67057753
-0.071168326 0.053376228 0.67046648
-0.071168326 0.059441745 0.67046648
-0.016232291 -0.069798857 0.67116266
-0.01465881 -0.066778988 0.67182988
-0.013285272 -0.061549 0.67159975
-0.072431743 -0.056561887 0.67169988
-0.011402671 -0.056198865 0.67185354
-0.072431743 -0.052492648 0.67169988
-0.00567783 -0.034878135 0.67104292
-0.0016273599 -0.023596704 0.67166132
-0.0016273599 -0.023596704 0.67166132
-0.0008128878 -0.020322174 0.67147005
-0.072431743 -0.013428345 0.67169988
0.0016253785 -0.012190312 0.67142212
0.0016253785 -0.012190312 0.67142212
-0.072431743 0.0085453093 0.67169988
-0.072431743 0.011393756 0.67169988
-0.072431743 0.039471239 0.67169988
0.017865952 0.041416526 0.67127711
-0.073711209 -0.060606986 0.67294896
-0.0081566591 -0.046492934 0.67214072
-0.0065300837 -0.041629285 0.67228425
-0.073711209 -0.037674606 0.6729489
-0.0040857908 -0.034320682 0.67250103
-0.0032610649 -0.030164868 0.67204428
0.00081620726 -0.01754874 0.67227143
-0.073711209 -0.0016380548 0.67294896
-0.073711209 0.00040949881 0.67294896
0.009005121 0.0073678195 0.6728605
-0.073711209 0.017199278 0.6729489
-0.073711209 0.01965633 0.67294896
-0.073711209 0.027436957 0.6729489
0.015558019 0.028659523 0.67290783
0.017937776 0.039136976 0.67206538
-0.073711209 0.044226766 0.6729489
-0.073711209 0.04955031 0.67294896
-0.073711209 0.064702064 0.6729489
-0.010692243 -0.06004104 0.67378587
-0.0041134031 -0.03866598 0.67383426
-0.0041078394 -0.037792116 0.67356563
-0.0024698565 -0.033754706 0.67398024
0.0016418237 -0.018470794 0.6734072
0.0057608509 -0.0065838397 0.67390621
0.018083109 0.034522325 0.67366016
0.021402441 0.044451207 0.67395258
0.022143912 0.049208701 0.67322206
0.024681419 0.055532902 0.67384231
0.024598284 0.057395995 0.67317331
-0.009886764 -0.058496684 0.67412788
-0.0016471794 -0.031296372 0.67405367
-0.075006798 -0.02967301 0.67421323
-0.00082501024 -0.029700398 0.67439669
-0.075006798 -0.010715276 0.67421323
0.0074424776 -0.0041347146 0.67486298
0.007422294 -0.0024740696 0.67432159
0.011551475 0.010726392 0.67441964
-0.075006798 0.014424399 0.67421323
-0.075007051 0.018545687 0.67421395
0.019808486 0.037553325 0.67447954
0.020599507 0.041198999 0.67414802
0.022248875 0.046557546 0.6741606
0.02563484 0.055404335 0.67486024
-0.075007051 0.057697743 0.67421395
-0.075007051 0.07171005 0.67421389
-0.0099609587 -0.063501388 0.67562056
-0.0091032116 -0.058757097 0.67501342
-0.00828999 -0.057200938 0.67535967
-0.0074841515 -0.056546926 0.67598093
-0.07631959 -0.052262336 0.67549527
-0.0066278763 -0.051366031 0.67523545
-0.076319456 -0.048529223 0.67549491
-0.076319322 -0.023227602 0.67549449
0.013283513 0.012453318 0.67565429
0.014914341 0.019057184 0.67525721
0.014914341 0.019057184 0.67525721
-0.076319322 0.023227632 0.67549455
-0.076319322 0.023227632 0.67549455
0.022446372 0.041567355 0.67592651
0.023222972 0.045616597 0.6754545
-0.07631959 0.046455383 0.67549527
-0.07631959 0.060557961 0.67549527
-0.010008704 -0.066724688 0.67658108
-0.00957972 -0.064562693 0.6763438
-0.077648863 -0.061785102 0.67679244
-0.077648863 -0.044251502 0.6767925
-0.0024968788 -0.040782332 0.67615485
-0.077648863 -0.031727463 0.67679244
0.0025059087 -0.026729673 0.67688155
0.0033333048 -0.02249983 0.67640436
0.0083404984 -0.0066723824 0.676579
-0.077648863 0.0025047958 0.67679244
-0.077648863 0.0025047958 0.67679244
0.010825109 0.0024980903 0.67625326
-0.077648863 0.0066794753 0.67679244
0.012499805 0.0074998736 0.67640287
-0.077648863 0.011689067 0.67679244
0.015878502 0.016714215 0.6769799
-0.077648863 0.01753363 0.67679244
0.025810171 0.051620334 0.67622566
-0.0067193378 -0.060474038 0.67799556
-0.0067193378 -0.060474038 0.67799556
-0.0025140678 -0.045253247 0.6775381
0.0025197426 -0.0302369 0.67799485
0.0025162632 -0.02935639 0.67771471
0.016766516 0.017604828 0.67761135
0.016766516 0.017604828 0.67761135
0.020532275 0.030168489 0.67753589
0.027609212 0.054381788 0.67720497
0.028535074 0.055391639 0.6778385
-0.0084277531 -0.068264753 0.67868555
-0.078995742 -0.056305468 0.67810732
0.00084044004 -0.036138922 0.67812169
0.003365567 -0.028607309 0.67835152
0.0042027235 -0.025216341 0.67814696
0.0067319488 -0.017671347 0.67837608
0.0075763026 -0.015152603 0.67845285
0.010522655 -0.0054707676 0.67844033
0.015162059 0.009265691 0.67857957
-0.078995742 0.017647952 0.67810738
0.019329915 0.024372488 0.67811954
-0.078995742 0.026472002 0.67810732
-0.078995742 0.034455597 0.67810726
0.022694385 0.035302401 0.67814416
-0.078995742 0.039497882 0.67810732
0.025261961 0.042524025 0.67851412
-0.00084800192 -0.047488093 0.67994738
-0.080360316 -0.040603101 0.67943943
0.0033889913 -0.033042669 0.67976528
0.0033889913 -0.033042669 0.67976528
-0.080360316 -0.029606432 0.67943943
0.010155357 -0.01015535 0.67953157
-0.080360316 -0.0033836067 0.67943943
0.014393973 0.0033867955 0.67963409
-0.0059556351 -0.066362798 0.68062407
0 -0.047705561 0.68088472
0.0025514322 -0.038271457 0.68054497
-0.08174292 -0.037465483 0.68078911
0.0034079694 -0.036635667 0.68091071
-0.08174292 -0.028524861 0.68078911
-0.08174292 -0.0055346489 0.68078911
0.012770865 -0.0055343509 0.68076551
0.012744087 -0.004248023 0.68033457
0.012726332 -0.0033936799 0.68004876
0.015289001 0.0042469501 0.68028224
0.016144542 0.0067977011 0.68036038
0.016144542 0.0067977011 0.68036038
0.018662876 0.01611796 0.6800223
-0.08174292 0.022564456 0.68078917
0.021276494 0.022552788 0.68068558
0.023840224 0.030651718 0.6807766
0.025562627 0.035787672 0.68093371
0.026314219 0.040744632 0.6801511
0.026314219 0.040744632 0.6801511
-0.0042692134 -0.063184381 0.68135744
-0.0034166796 -0.060646057 0.68143642
0.0068359291 -0.02734369 0.68151397
0.0085634617 -0.023121357 0.68196183
0.0085394457 -0.021348596 0.681382
0.010269604 -0.01711601 0.68183005
0.023940729 0.028215855 0.68164313
-0.0025743288 -0.060925782 0.68238759
-0.083143927 -0.057429314 0.68215686
-0.083143927 -0.057429314 0.68215686
0.00043032225 -0.051519766 0.6825211
-0.083143927 -0.04542917 0.68215686
0.005995966 -0.031692952 0.68201506
0.011161059 -0.016312301 0.68249214
0.012041216 -0.014621496 0.6828649
0.012024233 -0.01374194 0.68257201
0.013752528 -0.0085953176 0.68273127
0.013752528 -0.0085953176 0.68273127
0.016349982 -0.00086054206 0.68297076
-0.083143927 0.011142999 0.6821568
-0.083143927 0.013714463 0.6821568
0.022307608 0.020591646 0.68235749
0.024910238 0.028346121 0.68259621
0.026573604 0.03514573 0.68217105
0.030897234 0.04849121 0.682423
-0.084563702 -0.05349949 0.68354279
-0.084563702 -0.051773667 0.68354285
-0.084563553 -0.044438988 0.68354249
0.0034514535 -0.044868886 0.68353522
-0.084563702 -0.010354728 0.68354279
0.02503393 0.02546522 0.68362594
0.026743114 0.031487554 0.68349123
-0.086002305 -0.042566806 0.68494678
0.0060599418 -0.03852424 0.68422151
-0.086002305 -0.033445314 0.68494678
-0.086002305 -0.014768064 0.68494672
-0.086002305 -0.01216194 0.68494678
-0.086002305 -0.0078184009 0.68494678
-0.086002305 -0.0034748614 0.68494678
0.02340552 0.017337441 0.68450278
0.032940984 0.048544616 0.68450201
0.0061077387 -0.043626696 0.68586993
0.0065366221 -0.041393414 0.68560946
0.010475825 -0.029681504 0.68597889
0.021810209 0.0078516603 0.68583959
0.027873432 0.028744489 0.68551034
0.034800865 0.052201301 0.6852634
-0.0017464419 -0.069857687 0.68603575
0 -0.066607982 0.68680835
-0.087460756 -0.034546986 0.68637049
0.0096267052 -0.03413105 0.6865027
-0.087460756 -0.026238233 0.68637055
-0.087460756 -0.021865189 0.68637049
0.01665614 -0.012272924 0.68686092
0.020165313 -0.00087675452 0.6868884
0.020165313 -0.00087675452 0.6868884
0.023675311 0.010522395 0.6869151
0.027108219 0.023610383 0.68633455
0.032384455 0.040261775 0.68652689
0.0035162617 -0.057139277 0.68744677
0.013204945 -0.026409894 0.68775195
0.017564971 -0.010538965 0.68724948
0.027264925 0.020228833 0.68755496
0.028074317 0.024565041 0.68702596
0.03074247 0.032499224 0.68727553
0.033416919 0.040452033 0.68752575
0.035152547 0.046577156 0.68738592
0.036885891 0.052694172 0.68724638
0.036885891 0.052694172 0.68724638
0.0044161933 -0.057410508 0.68845427
0.0079501877 -0.045934439 0.68848217
0.010597439 -0.037091047 0.6884256
0.010597439 -0.037091047 0.6884256
0.03006923 0.025647283 0.68873203
0.038841158 0.055613458 0.68833715
0.0017720948 -0.068225622 0.68913233
0.0079966169 -0.049756736 0.68972754
0.016003765 -0.024005622 0.68986881
0.021295803 -0.0053239763 0.68944085
0.032809097 0.032809108 0.68929768
0.038220432 0.048886597 0.68980825
0.039855242 0.056683034 0.68904173
0.0053559714 -0.061593711 0.69072926
0.0071365237 -0.055308044 0.69058526
0.010690497 -0.042761981 0.69029772
0.014235049 -0.030249447 0.69001186
0.014235049 -0.030249447 0.69001186
0.017822199 -0.019604385 0.69035459
0.018748168 -0.017855406 0.69075531
0.019620033 -0.014269114 0.69052589
0.037535906 0.042898148 0.69098276
0.0080791619 -0.056554109 0.69194186
0.010737663 -0.045635074 0.69124663
0.012537292 -0.040298462 0.69141942
0.021483786 -0.01074186 0.6913318
0.028652539 0.012535453 0.69138831
0.037591215 0.042066336 0.69130069
0.012574323 -0.042213798 0.69205797
0.01528724 -0.034171492 0.69231957
0.019794034 -0.019794017 0.69243526
0.024341712 -0.0063108206 0.69287384
0.02426976 -0.0044943988 0.69223034
0.030648198 0.014422685 0.69284302
0.03156238 0.017133862 0.69293106
0.032381237 0.021587461 0.69237494
0.036037181 0.03243345 0.69272518
0.040443752 0.048532516 0.69219899
0.041359179 0.051249415 0.69228649
0.041359179 0.051249415 0.69228649
0.0054195467 -0.069550842 0.69328731
0.0072426745 -0.065184057 0.69378865
0.0099264616 -0.054144323 0.69308156
0.022587316 -0.013552397 0.69334394
0.026204793 -0.0018072426 0.6933732
0.027119298 0.00090396404 0.69346082
0.034360312 0.024413913 0.69351929
0.034309234 0.025280505 0.69319475
0.036197979 0.029863328 0.69369572
0.0072534583 -0.066187769 0.69411403
0.0091013284 -0.062799156 0.694947
0.041853856 0.04458347 0.69488275
0.01280103 -0.053947181 0.69596738
0.013659411 -0.048263222 0.69506645
0.015493264 -0.042834342 0.69524539
0.021902582 -0.022815168 0.69554454
0.026440294 -0.0072938502 0.69533372
0.036469087 0.025528371 0.69533199
0.039252285 0.03377524 0.69560158
0.010060715 -0.063108116 0.69602805
0.025710708 -0.014691859 0.69690424
0.028371925 -0.0036608875 0.69617605
0.028371925 -0.0036608875 0.69617605
0.031155853 0.0045817494 0.69644773
0.033895563 0.013741463 0.69638681
0.033895563 0.013741463 0.69638681
0.035811067 0.018364638 0.69690251
0.036744293 0.021127969 0.69699299
0.038496941 0.028414428 0.69650692
0.0092115356 -0.070928812 0.6976077
0.012878426 -0.05795294 0.6973021
0.014752605 -0.053478211 0.6978212
0.027611462 -0.010124177 0.69742143
0.027611462 -0.010124177 0.69742143
0.031297259 0.0018410385 0.69745177
0.035865143 0.017472774 0.69723725
0.045144822 0.046526462 0.69764858
0.047931753 0.055305868 0.69775516
0.023101699 -0.027722061 0.69831133
0.024035731 -0.02496019 0.69840389
0.025866723 -0.018476248 0.69824934
0.041674659 0.031487525 0.69880271
0.041674659 0.031487525 0.69880271
0.047061764 0.051675647 0.69800025
0.026024744 -0.022306889 0.69961184
0.012118382 -0.069913745 0.70027053
0.01681439 -0.056047976 0.70074117
0.021464011 -0.04012835 0.70052028
0.024256863 -0.030787528 0.7004571
0.027992444 -0.018661618 0.70048738
0.034466304 0.0037260652 0.70011079
0.034466304 0.0037260652 0.70011079
0.036471408 0.0074813068 0.7009902
0.036415342 0.0084035397 0.70064318
0.044712692 0.037260592 0.700109
0.045733273 0.039199948 0.70054787
0.050350606 0.055012733 0.7003274
0.012174338 -0.073046029 0.70130968
0.017810628 -0.055306703 0.70153034
0.023457933 -0.037532687 0.70175141
0.029026628 -0.017790496 0.70127475
0.032827027 -0.0065654218 0.70165431
0.041170046 0.022456437 0.70111531
0.013156819 -0.072362512 0.70210278
0.020744804 -0.049976081 0.70286882
0.027299121 -0.027299106 0.70248336
0.03106885 -0.015063643 0.70251501
0.031974275 -0.011285037 0.702259
0.035768576 0.00047029555 0.70246625
0.048894439 0.044193029 0.70222467
0.034947705 -0.0047226846 0.70325196
0.040718097 0.012310117 0.70383132
0.048157107 0.038714528 0.70318538
0.052022077 0.050130367 0.70357144
0.052990209 0.052990228 0.70366746
0.016120918 -0.069225132 0.7041589
0.018989945 -0.0607678 0.70445043
0.044720717 0.02188459 0.70493513
0.052184179 0.048388958 0.70428294
0.020010447 -0.060031354 0.70526677
0.024827706 -0.045835733 0.70575762
0.027641166 -0.03526631 0.70533079
0.039034169 0.0028561652 0.70506746
0.01817454 -0.068871945 0.70615435
0.036473703 -0.011518002 0.70694602
0.046957489 0.023957938 0.70657957
0.051697068 0.040208817 0.70634705
0.055446956 0.053534985 0.706016
0.020200176 -0.066372037 0.70744795
0.020200176 -0.066372037 0.70744795
0.038548086 -0.0077096224 0.7078799
0.040446293 -0.00096303225 0.70771199
0.048163891 0.024081945 0.70777738
0.052843269 0.041313857 0.70717597
0.022178177 -0.061713189 0.70801663
0.026080165 -0.050228477 0.70841825
0.034853917 -0.023235947 0.70895714
0.036705267 -0.015454859 0.70841718
0.036705267 -0.015454859 0.70841718
0.040639255 -0.0038703978 0.70882124
0.040510353 -0.0019290745 0.70808023
0.041591723 -0.00048400462 0.70873618
0.04346019 0.006760478 0.70838201
0.024242848 -0.059152573 0.70933127
0.03984445 -0.0097181499 0.70983869
0.046640061 0.012631685 0.70980299
0.046640061 0.012631685 0.70980299
0.052397702 0.032505617 0.70947939
0.057327941 0.047611326 0.70980102
0.05922839 0.054373622 0.70963138
0.022390995 -0.068146527 0.7102505
0.029294966 -0.047848463 0.71096927
0.054690942 0.035158455 0.71099949
0.028397217 -0.052877575 0.7116248
0.031376079 -0.044122607 0.71193582
0.046015825 0.0048952699 0.71158761
0.048859876 0.015635163 0.71113789
0.051776264 0.025399685 0.71106869
0.056876458 0.039225161 0.71196628
0.026586544 -0.063019931 0.712946
0.027494458 -0.057934761 0.71228409
0.031477444 -0.046232492 0.71270055
0.062875092 0.05747138 0.71239948
0.041429531 -0.015782684 0.71336377
0.048327189 0.0069038868 0.71332806
0.050426021 0.01186493 0.7139259
0.057338361 0.034600705 0.71388888
0.061103031 0.04927668 0.71315026
0.026803354 -0.068497479 0.71488464
0.041564357 -0.017813295 0.71413875
0.044665124 -0.0099256039 0.71484637
0.049576271 0.0069406927 0.71459693
0.057525374 0.032729954 0.71466732
0.061401397 0.046546221 0.71431202
0.026891142 -0.070713729 0.71566957
0.04575263 -0.0079569817 0.71534467
0.053637583 0.018872499 0.71502262
0.054655224 0.02186209 0.71512955
0.058830816 0.03290537 0.71595061
0.060680393 0.040785164 0.71537799
0.034024697 -0.051037043 0.71681827
0.034024697 -0.051037043 0.71681827
0.034926165 -0.045902967 0.71613365
0.041973799 -0.023985028 0.7164923
0.042921979 -0.019963712 0.71620488
0.057997916 0.027999014 0.71663427
0.057997916 0.027999014 0.71663427
0.065094635 0.050072819 0.7169944
0.039115969 -0.036107033 0.71736079
0.039115969 -0.036107033 0.71736079
0.04320544 -0.024114668 0.71779639
0.049204398 -0.0040167272 0.71765
0.033282779 -0.059505582 0.71871173
0.039375544 -0.040385187 0.71896768
0.046435606 -0.017161012 0.71892911
0.055470351 0.013111174 0.71870756
0.055470351 0.013111174 0.71870756
0.06241725 0.037249029 0.71826768
0.035449419 -0.055706203 0.71974289
0.043492671 -0.028320849 0.71940905
0.064918637 0.039559811 0.72010827
0.067120232 0.044746846 0.72074068
0.068054311 0.048755348 0.72044194
0.032583393 -0.069239706 0.7210443
0.039838053 -0.048009962 0.72183073
0.041849185 -0.040828466 0.72164315
0.055168252 0.002043277 0.72186595
0.060111117 0.020376652 0.7211895
0.064303741 0.032662243 0.72163898
0.05011382 -0.015340984 0.72213066
0.051246129 -0.013323992 0.72265971
0.051246129 -0.013323992 0.72265971
0.064520299 0.030723929 0.72246891
0.036971144 -0.061618567 0.72315556
0.036971144 -0.061618567 0.72315556
0.040175352 -0.053567141 0.72391868
0.051419429 -0.015425801 0.72349656
0.055635415 -0.0030908883 0.7239545
0.059664458 0.011315674 0.72357118
0.061778605 0.017503947 0.72379947
0.044453077 -0.042385489 0.72480112
0.044453077 -0.042385489 0.72480112
0.045353718 -0.037107617 0.72407061
0.05467236 -0.0072208643 0.72426075
0.062943749 0.019605398 0.72433579
0.0372857 -0.06732139 0.72526503
0.039393734 -0.061163962 0.7254976
0.046642903 -0.037314326 0.72545701
0.047620505 -0.033127308 0.72514784
0.05088336 -0.02492246 0.72592217
0.050710414 -0.022767961 0.72507006
0.066243581 0.027946532 0.72510618
0.069327191 0.038285136 0.72502851
0.040587477 -0.060360879 0.72646987
0.060482338 0.0031283796 0.7269755
0.075057343 0.051080704 0.72689444
0.039732099 -0.066917181 0.72764724
0.054352686 -0.018814385 0.72756577
0.058442395 -0.0041744411 0.72717237
0.06273406 0.0083645284 0.72764397
0.064663239 0.016687274 0.72701335
0.0753152 0.049164116 0.727759
0.053466145 -0.024112225 0.72831708
0.058846038 -0.0084065795 0.72891247
0.077613451 0.054539174 0.72843158
0.040007036 -0.071591526 0.72939396
0.048528392 -0.045363516 0.72991264
0.062193509 2.9802322e-08 0.7297104
0.066420391 0.01370582 0.72975016
0.069440737 0.02525118 0.72922879
0.041221857 -0.070817053 0.73039687
0.054024406 -0.030719787 0.73095977
0.057184115 -0.020120323 0.73087835
0.057084844 -0.019028276 0.73043454
0.062301353 -0.0010559559 0.73015165
0.07282608 0.033774436 0.73002976
0.078287974 0.049723476 0.73063219
0.043604203 -0.068065137 0.73197734
0.044533215 -0.062558532 0.73120415
0.046617027 -0.055092841 0.73100215
0.064698935 0.0031819344 0.73128229
0.065790884 0.0063668489 0.73140419
0.066883862 0.009554863 0.7315262
0.077462763 0.044567615 0.73140192
0.045774914 -0.061742932 0.73222256
0.049038548 -0.052236736 0.73259008
0.048952855 -0.05108124 0.73214042
0.052311536 -0.042703271 0.73295873
0.058576755 -0.020235598 0.73234302
0.060764611 -0.013858587 0.73258781
0.062846519 -0.0063911676 0.73238242
0.050304785 -0.051375091 0.73361838
0.074825086 0.029930025 0.73328406
0.080362059 0.046074241 0.73390311
0.049384583 -0.056899607 0.73440617
0.057991385 -0.028995663 0.73448747
0.057991385 -0.028995663 0.73448747
0.070911877 0.012893051 0.73461014
0.074242167 0.022595495 0.73498452
0.073980734 0.024660289 0.73406982
0.083844602 0.054821461 0.73473287
0.083696857 0.055797905 0.73427558
0.065846369 -0.0075561702 0.73582351
0.073260605 0.018315136 0.73531973
0.081905268 0.046341151 0.73540157
0.083992854 0.053841561 0.7351917
0.083992854 0.053841561 0.7351917
0.048717186 -0.066038847 0.73658532
0.05406877 -0.04758051 0.73628867
0.074770942 0.018421859 0.73683465
0.048803948 -0.067240983 0.73705077
0.051022664 -0.060792983 0.73730588
0.069431737 -0 0.73713255
0.071799271 0.0054393411 0.73785603
0.057807636 -0.042537689 0.73854226
0.062180523 -0.028363019 0.73858488
0.063189134 -0.023968279 0.73824233
0.064425349 -0.021839112 0.73884284
0.085046336 0.046884537 0.73845237
0.057911623 -0.043706894 0.73901594
0.060263906 -0.038349748 0.73974872
0.061279476 -0.033922583 0.73940325
0.061279476 -0.033922583 0.73940325
0.073315836 0.0054713488 0.7394008
0.079972543 0.026292354 0.73970211
0.058225047 -0.047239214 0.74044359
0.071313903 -0.0032914281 0.74009383
0.079123192 0.020879745 0.74052757
0.0890861 0.052791744 0.74074364
0.088925496 0.053794444 0.74026495
0.052888513 -0.067212462 0.74123025
0.058436152 -0.049615622 0.74140525
0.061723411 -0.03857711 0.74131709
0.067400441 -0.022098511 0.74197412
0.076126635 0.0077230036 0.74157798
0.053177413 -0.070903242 0.74268335
0.057513669 -0.055301607 0.74224138
0.066383369 -0.026553363 0.74232757
0.071831897 -0.0077357888 0.74201781
0.075258799 0.0022134781 0.742414
0.080698788 0.021003813 0.74210393
0.053274326 -0.072142303 0.74317074
0.062287387 -0.044490963 0.74374843
0.072357468 -0.012245119 0.7439698
0.078983776 0.010012001 0.74379015
0.083294742 0.02554372 0.74334335
0.083294742 0.02554372 0.74334335
0.071470216 -0.017867535 0.74482214
0.092547528 0.05240643 0.74441373
0.058147602 -0.062620491 0.74518454
0.059404705 -0.060525537 0.74581712
0.068393841 -0.031393886 0.7459057
0.070447385 -0.022364229 0.74518192
0.058361936 -0.065096021 0.74617958
0.078549966 0.001122117 0.7461307
0.078549966 0.001122117 0.7461307
0.081025131 0.0067521334 0.74690485
0.081025131 0.0067521334 0.74690485
0.086549647 0.025852501 0.74658442
0.070968986 -0.027035803 0.74718076
0.077819206 -0.0056390464 0.74750006
0.083514482 0.012414336 0.74768353
0.086709693 0.024774224 0.74708617
0.067990154 -0.041927308 0.74879289
0.061347075 -0.065891296 0.74949002
0.063684106 -0.059135228 0.74976981
0.071498364 -0.031777024 0.7492094
0.069546923 -0.042184204 0.75046933
0.079875395 -0.0091286004 0.75070196
0.084295996 0.006834805 0.75023305
0.085639097 0.009134829 0.75088966
0.075581923 -0.026339173 0.75169259
0.078842066 -0.013711661 0.75107902
0.088178486 0.014887303 0.75169128
0.061925292 -0.072246164 0.75207508
0.068090379 -0.057703704 0.75383973
0.079589136 -0.019608915 0.75369281
0.084217392 -0.004614681 0.75374043
0.074051723 -0.040497005 0.75456011
0.079892181 -0.021999329 0.75475317
0.082292989 -0.015067726 0.75504243
0.070347764 -0.064485461 0.75827914
0.0726289 -0.056228817 0.75803065
0.073764801 -0.066626281 0.76245379
0.074994579 -0.063090712 0.76260722
-0.025549911 0.038956095 0.62752831
-0.023750704 0.045084596 0.62745279
-0.02330571 0.047033638 0.6272983
-0.021527121 0.053190835 0.62719268
-0.027883211 0.051013604 0.62821257
-0.027883211 0.054974303 0.62821257
-0.03062949 0.024986554 0.63089353
-0.021764031 0.039326012 0.63129449
-0.03062949 0.050939936 0.63089347
-0.017270818 0.053108878 0.63158298
-0.031834703 0.017054319 0.63207006
-0.026027735 0.022123575 0.63231283
-0.026027735 0.022123575 0.63231283
-0.021691039 0.031221762 0.63390881
-0.033060271 0.038950801 0.63326621
-0.01967277 0.039016776 0.6335358
-0.031834703 0.046939947 0.63207006
-0.017390383 0.047151171 0.63332736
-0.016447619 0.05292641 0.63248408
-0.031834703 0.057010114 0.63207006
-0.032771766 -0.0074298829 0.63465858
-0.030267393 0.0026319623 0.63407362
-0.034722473 0.017030124 0.63488901
-0.03727787 -0.030884437 0.63770241
-0.034927964 -0.021006424 0.63678837
-0.033678964 -0.020544365 0.63783801
-0.037280723 -0.014945515 0.63738644
-0.037280723 -0.014945515 0.63738644
-0.037280723 -0.010915268 0.6373865
-0.029287888 -0.0047701211 0.63739759
-0.035990622 -0.0031658486 0.63612723
-0.035990622 -0.0011663809 0.63612723
-0.035990518 0.0051653162 0.63612676
-0.025247809 0.0089742653 0.63723326
-0.025247809 0.0089742653 0.63723326
-0.023032686 0.016975604 0.63699746
-0.035990518 0.021161087 0.63612676
-0.021180861 0.022857834 0.63705307
-0.035990518 0.029158987 0.63612676
-0.035990518 0.033157937 0.63612676
-0.015023794 0.043037564 0.637043
-0.035990518 0.04515478 0.63612676
-0.037280671 0.051049355 0.63738626
-0.010703318 0.058199316 0.63672215
-0.0390311 0.019005559 0.63909507
-0.0390311 0.026981752 0.63909507
-0.039031044 0.044969529 0.63909483
-0.011200161 0.04894555 0.63911247
-0.010896167 0.050930288 0.63880235
-0.041412868 -0.058668256 0.64185411
-0.04081881 -0.040989395 0.64084029
-0.04081881 -0.037044354 0.64084029
-0.03043697 -0.019276742 0.64076519
-0.023429587 0.0010334551 0.64158636
-0.017950822 0.017950803 0.6419028
-0.040818706 0.019036863 0.64083987
-0.016653961 0.026806643 0.64045775
-0.014354018 0.035030119 0.64023906
-0.014354018 0.035030119 0.64023906
-0.040818691 0.037044242 0.64083976
-0.040818691 0.037044242 0.64083976
-0.040818691 0.044933412 0.64083976
-0.041912038 -0.066710189 0.64386261
-0.044039395 -0.060991056 0.64398432
-0.042645007 -0.055038355 0.64262301
-0.03850022 -0.051026639 0.64244628
-0.042645007 -0.046977825 0.64262307
-0.042645007 -0.046977825 0.64262307
-0.03535315 -0.044656664 0.64367718
-0.042644881 0.0071073286 0.64262253
-0.042644881 0.050964259 0.64262259
-0.042644881 0.053044438 0.64262253
-0.042644881 0.061018515 0.64262259
-0.045459233 -0.058936931 0.64537036
-0.019779462 -0.00035342574 0.64576387
-0.019779462 -0.00035342574 0.64576387
-0.018975426 0.0050197886 0.64490449
-0.017651366 0.0068834797 0.64567828
-0.017331295 0.0090880012 0.64531559
-0.005639459 0.047053672 0.64540732
-0.03741147 -0.062828712 0.64726114
-0.03741147 -0.062828712 0.64726114
-0.035376299 -0.056840997 0.64747167
-0.027471697 -0.031040452 0.64749223
-0.047387119 -0.0089960024 0.64725202
-0.047387049 0.014963515 0.64725178
-0.013317905 0.015339877 0.64747202
-0.0032066461 0.049000304 0.64729214
-0.0032066461 0.049000304 0.64729214
0 0.057575732 0.64789307
-0.049358282 -0.060975809 0.6491763
-0.032251541 -0.04909423 0.64824843
-0.028621767 -0.039123166 0.64884579
-0.024367683 -0.02329284 0.64824742
-0.021675469 -0.01896663 0.64965224
-0.021675469 -0.01896663 0.64965224
-0.013345516 0.0091377599 0.64938706
-0.0093941391 0.021136217 0.64967895
-0.0057800631 0.033054128 0.64965045
-0.0042982758 0.042624369 0.64817083
-0.051374041 -0.067039452 0.65114415
-0.034690652 -0.065237567 0.65080601
-0.032773089 -0.058931362 0.65079606
-0.024802072 -0.032950491 0.6508283
-0.023003604 -0.027097009 0.65083814
-0.051373884 0.019128196 0.65114361
-0.0088270884 0.019112598 0.65089476
-0.051373884 0.02304465 0.65114361
-0.051373884 0.057111058 0.65114361
-0.031783588 -0.064861313 0.65366894
-0.028335478 -0.051152602 0.65290904
-0.028578423 -0.049462885 0.65213031
-0.011813565 0.0011073202 0.65347445
-0.0053075575 0.023153245 0.65323746
-0.0053075575 0.023153245 0.65323746
-0.053435758 0.043023884 0.65315646
-0.053435758 0.05306565 0.65315646
0.0044354163 0.053594396 0.65368891
-0.028185785 -0.055074155 0.65429127
-0.021687303 -0.038513884 0.65576565
-0.012864816 -0.0053191734 0.65441036
-0.012864816 -0.0053191734 0.65441036
-0.0070825107 0.010997061 0.65522683
-0.056078687 0.033086441 0.65573609
-0.00092888344 0.03271582 0.65473092
-0.056078866 0.042993799 0.65573668
0.0026088958 0.043033838 0.65512526
-0.056078866 0.051031776 0.65573674
0.0067230882 0.055091381 0.65556568
-0.056078866 0.058882803 0.65573668
-0.057158317 -0.055090085 0.65679049
-0.058250446 -0.053144075 0.65785664
-0.021943469 -0.046156943 0.65789819
-0.057158317 -0.043056771 0.65679049
-0.058250263 -0.027044766 0.65785611
-0.058250263 -0.027044766 0.65785611
-0.016890997 -0.025056276 0.65646672
-0.01585912 -0.0251109 0.65754205
-0.011340378 -0.010962605 0.6577422
-0.057158135 0.0088369399 0.6567899
-0.058250263 0.020992808 0.65785611
-0.057158135 0.026886895 0.6567899
-0.0010009481 0.026664024 0.65655339
-0.058250263 0.030827254 0.65785611
-0.058250263 0.041039973 0.65785611
-0.058250263 0.047091939 0.65785611
-0.058250263 0.057115495 0.65785611
-0.058250263 0.062978365 0.65785611
-0.059355475 -0.061067626 0.65893543
-0.020893112 -0.045111939 0.65864766
-0.059355281 -0.034814149 0.65893483
-0.0097278412 -0.011063412 0.65942717
-0.0087309955 -0.0049355924 0.65852904
-0.059355281 0.002853632 0.65893483
-0.0053448193 0.0028626174 0.65955782
0.0031969936 0.032941651 0.6588909
0.0073504383 0.04688631 0.6587801
-0.023954354 -0.065102421 0.66177291
-0.013914083 -0.032466203 0.66184139
-0.012679884 -0.024977326 0.6607601
-0.012679884 -0.024977326 0.6607601
0.0023167108 0.021236271 0.66165602
0.0032302712 0.026906718 0.66081619
-0.061039202 0.062956929 0.66057873
-0.01951332 -0.056588888 0.66365886
-0.020119116 -0.053393066 0.66203636
-0.063329592 -0.022922575 0.66281462
-0.0054683043 -0.011132568 0.66381663
-0.0046484619 -0.0034865737 0.66226125
-0.0046484619 -0.0034865737 0.66226125
-0.0012999196 0.0032510213 0.66358376
-0.0012999196 0.0032510213 0.66358376
0 0.0068338737 0.66379404
0.0050480352 0.026886247 0.66268659
0.013582787 0.055105358 0.66259527
-0.017368114 -0.056446612 0.66581398
-0.066269644 -0.050885603 0.6656847
-0.065082178 -0.046851337 0.66452551
-0.066269644 -0.04082682 0.6656847
-0.011628655 -0.03685838 0.66556132
-0.06626942 -0.015186727 0.6656841
-0.06626942 0.0029584616 0.6656841
-0.065081961 0.011173718 0.66452491
0.003923649 0.016871452 0.66467208
-0.065081961 0.02489581 0.66452491
-0.065082178 0.0331292 0.66452551
0.010263383 0.033948123 0.66582161
-0.06626942 0.035107002 0.6656841
-0.066269644 0.049110547 0.6656847
0.014580373 0.049156606 0.66548252
-0.066269644 0.061141625 0.6656847
-0.065082178 0.06312187 0.66452551
-0.021009188 -0.070958681 0.66662806
-0.067471735 -0.059136987 0.66685826
-0.067471512 -0.044848725 0.6668576
-0.00079122302 -0.0035607666 0.66623974
0.0047872043 0.0095744133 0.66784382
0.010371016 0.027921975 0.66782039
0.0095137274 0.02893734 0.666623
