# .PCD v0.7 - Point Cloud Data file format
VERSION 0.7
FIELDS x y z
SIZE 4 4 4
TYPE F F F
COUNT 1 1 1
WIDTH 1211
HEIGHT 1
VIEWPOINT 0 0 0 1 0 0 0
POINTS 1211
DATA ascii
-0.0095238779 -0.061587766 0.62850606
-0.0095238779 -0.057460718 0.62850606
-0.011398331 -0.051609091 0.62809938
-0.0095238779 -0.04666701 0.62850606
-0.0095238779 -0.043492384 0.62850606
-0.0095238779 -0.043492384 0.62850606
-0.01045653 -0.036440112 0.6282202
-0.0085873222 -0.036576465 0.6287927
-0.01045653 -0.03137017 0.6282202
-0.0086915568 -0.020563275 0.62876081
-0.0095238779 -0.014603287 0.62850606
-0.0095238779 -0.013650894 0.62850606
-0.0095238779 -0.011428654 0.62850606
-0.0085873213 -0.0054069459 0.6287927
-0.01045653 -0.00063374639 0.6282202
-0.011398331 0.00063323975 0.62809938
-0.010456529 0.022497803 0.6282202
-0.0095238779 0.023492217 0.62850606
-0.011398331 0.031345412 0.62809938
-0.011398331 0.031345412 0.62809938
-0.011398331 0.038627684 0.62809932
-0.010456529 0.038341343 0.6282202
-0.011398331 0.041477248 0.62809932
-0.011398331 0.042427123 0.62809932
-0.0086915568 0.048546433 0.62876081
-0.01045653 0.049431801 0.6282202
-0.011398331 0.053508848 0.62809938
-0.0095238779 0.054603577 0.62850606
-0.0095238779 0.054603577 0.62850606
-0.0054406663 -0.054408662 0.62975585
-0.0054406659 -0.042566791 0.62975585
-0.0054406663 -0.04160665 0.62975585
-0.0073333778 -0.029653154 0.6291765
-0.0073333778 -0.016580269 0.6291765
-0.0073333778 -0.0073335767 0.62917656
-0.0073333778 0.011478648 0.6291765
-0.0073333778 0.011478648 0.6291765
-0.0063889963 0.015653044 0.62946558
-0.0073333778 0.019449912 0.6291765
-0.0073333778 0.022638433 0.6291765
-0.0054406663 0.022403553 0.62975585
-0.0063889963 0.049514711 0.62946558
-0.0044891578 -0.060603626 0.63004708
-0.0035336562 -0.059433084 0.6303395
-0.0019336446 -0.059620716 0.63082933
-0.0044891578 -0.057397105 0.63004708
-0.0019336446 -0.056397967 0.63082927
-0.0025749407 -0.049567595 0.630633
-0.0044891578 -0.047456831 0.63004708
-0.0035336562 -0.037587412 0.6303395
-0.0035336562 -0.031483442 0.6303395
-0.0044891578 -0.026614279 0.63004708
-0.0035336562 -0.022488192 0.6303395
-0.0044891578 -0.01955992 0.63004708
-0.0025749407 -0.016415223 0.630633
-0.0025749407 -0.016415223 0.630633
-0.0035336562 -0.013492912 0.63033956
-0.0044891578 -0.0096196234 0.63004708
-0.0035336562 -0.0064252168 0.63033962
-0.0035336562 -0.0035338476 0.63033956
-0.0019336446 -0.0035450161 0.63082922
-0.0044891578 -0.0025652051 0.63004708
-0.0019336446 0.0025781989 0.63082933
-0.0044891578 0.0086576641 0.63004708
-0.0044891578 0.016353369 0.63004708
-0.0025749407 0.017380863 0.630633
-0.0019336446 0.026426464 0.63082927
-0.0019336446 0.026426464 0.63082927
-0.012248688 0.02933237 0.63085818
-0.012248688 0.030621737 0.63085818
-0.0019336446 0.031582832 0.63082933
-0.0035336562 0.043370076 0.6303395
-0.0035336562 0.043370076 0.6303395
-0.0025749407 0.046670809 0.630633
-0.0044891578 0.057397097 0.63004708
-0.0019336446 0.062521189 0.63082927
-0.0035336562 0.064251974 0.6303395
0.00032391053 -0.062475108 0.63152027
-0.00064618053 -0.04749427 0.63122332
-0.00064618053 -0.04458645 0.63122332
-0.0012907267 -0.039367169 0.63102609
-0.00064618053 -0.039417028 0.63122332
0.0012972889 -0.037621379 0.63181818
0.00032391053 -0.034636445 0.63152027
-0.0012907267 -0.030654758 0.63102609
0.0012972889 -0.028540373 0.63181818
-0.00064618053 -0.027462676 0.63122332
-0.00064618053 -0.025524139 0.63122332
-0.00064618053 -0.025524139 0.63122332
-0.00064618053 -0.014539063 0.63122332
0.00021594035 -0.010572046 0.63148725
-0.00064618053 -0.0084003508 0.63122338
0.0012972889 -0.00064864755 0.63181818
0.00032391053 0.009387441 0.63152027
-0.00064618053 0.01163125 0.63122332
-0.0012907267 0.016456753 0.63102603
0.0012972889 0.017513424 0.63181818
-0.0012907267 0.020328954 0.63102603
0.00032391053 0.024601579 0.63152027
0.00021594035 0.032579344 0.63148725
-0.00064618053 0.034570649 0.63122332
-0.0012907267 0.040335208 0.63102609
0.00021594035 0.043582998 0.63148725
-0.00064618053 0.04458645 0.63122332
-0.0012907267 0.056469321 0.63102603
-0.00064618053 0.057510078 0.63122338
-0.00064618053 0.058479339 0.63122332
0.0045695645 -0.051570788 0.63282025
0.0045695645 -0.051570788 0.63282025
0.0026011975 -0.048447296 0.63221771
0.0019484153 -0.043514609 0.63201791
0.0019484153 -0.04059197 0.63201791
0.0045695645 -0.037535697 0.63282019
0.0019484153 -0.020458356 0.63201797
0.0035837055 -0.012379363 0.63251847
0.0026011975 -0.0055275559 0.63221776
0.0035837055 0.0026061982 0.63251841
0.0045695645 0.0035903603 0.63282025
0.0019484153 0.02955097 0.63201797
0.0019484153 0.03734462 0.63201797
0.0026011975 0.041619152 0.63221771
0.0026011975 0.044545487 0.63221776
0.0026011975 0.044545487 0.63221776
0.0019484153 0.049359888 0.63201791
0.0019484153 0.055529848 0.63201797
0.0019484153 0.055529848 0.63201797
0.0045695645 0.055487543 0.63282025
0.0055596363 -0.063442864 0.63312328
0.0055596363 -0.063442864 0.63312328
0.0075508193 -0.061389733 0.63373274
0.0065530967 -0.057339594 0.63342732
0.0065530967 -0.052424788 0.63342732
0.0075508198 -0.051541109 0.63373274
-0.013130301 -0.048582092 0.63371831
-0.013130301 -0.048582092 0.63371831
0.0055596363 -0.029432267 0.63312328
-0.013130301 -0.028558418 0.63371837
0.0055596363 -0.025507942 0.63312328
0.0075508198 -0.019368954 0.63373268
0.0065530967 -0.017365709 0.63342732
0.0065530967 -0.0065531135 0.63342738
0.0055596363 -0.00065405667 0.63312328
0.0065530967 0.016382754 0.63342726
-0.013130301 0.017397672 0.63371831
-0.013130301 0.017397672 0.63371831
0.0055596363 0.018640429 0.63312328
0.0055596363 0.025507942 0.63312328
0.0075508198 0.029545873 0.63373274
-0.013130301 0.0354518 0.63371837
0.0065530967 0.040629208 0.63342726
0.0074397712 0.04354335 0.6336987
0.0065530967 0.048492908 0.63342732
0.0075508198 0.053510845 0.63373274
0.0055596363 0.058537498 0.63312328
0.0055596363 0.058537498 0.63312328
0.0055596363 0.062461779 0.63312328
0.010566365 -0.064388782 0.63465571
0.010566365 -0.056463994 0.63465571
0.0085519711 -0.054601029 0.6340391
0.0095574334 -0.050422575 0.6343469
0.011241309 -0.048602134 0.6348623
0.011241309 -0.042650834 0.6348623
0.0085519711 -0.037497103 0.63403916
0.0095574334 -0.036581077 0.6343469
0.011241309 -0.02942577 0.6348623
0.011241309 -0.02942577 0.6348623
0.0085519711 -0.027629435 0.63403916
0.0085519711 -0.011512265 0.63403916
0.0085519711 -0.011512265 0.63403916
0.010566365 -0.00066041946 0.63465571
0.010566365 0.0016510189 0.63465571
0.0095574334 0.0046138316 0.6343469
0.010566365 0.0095757842 0.63465565
0.011241309 0.011571929 0.6348623
0.011241309 0.014547586 0.63486224
0.0085519711 0.015459329 0.63403916
0.0095574334 0.017466635 0.6343469
0.0085519711 0.023353443 0.63403916
0.010566365 0.032359481 0.63465571
0.0085519711 0.034536809 0.63403916
0.0085519711 0.035523564 0.63403916
0.011241309 0.038352698 0.6348623
0.0095574334 0.040535793 0.63434684
0.011241309 0.04364273 0.6348623
0.0085519711 0.046377987 0.63403916
0.011241309 0.048602164 0.6348623
0.011241309 0.049594045 0.6348623
0.0085519711 0.051640764 0.63403916
0.011241309 0.056537166 0.6348623
0.010566365 0.064388782 0.63465571
0.012596461 -0.062650837 0.63527709
0.011918006 -0.059589997 0.63506937
0.011918006 -0.059589997 0.63506937
0.014642484 -0.055574872 0.63590372
0.014642484 -0.048586413 0.63590378
0.013617715 -0.045502372 0.63559008
0.011918006 -0.037409306 0.63506943
0.013617714 -0.034541935 0.63559008
0.013617714 -0.034541935 0.63559008
0.011918006 -0.0086074769 0.63506943
0.013617715 -0.0076390803 0.63559008
0.011918006 -0.0036415905 0.63506937
0.011918006 0.0056279451 0.63506937
0.011918006 0.0086074471 0.63506943
0.012596461 0.011602014 0.63527709
0.012596461 0.011602014 0.63527709
0.012596461 0.021546602 0.63527703
0.012596461 0.025524408 0.63527703
0.014642484 0.02562435 0.63590378
0.011918006 0.029463977 0.63506937
0.012596461 0.032485604 0.63527709
0.013617714 0.033545539 0.63559014
0.011918006 0.034429789 0.63506943
0.012596461 0.034474522 0.63527703
0.012596461 0.034474522 0.63527703
0.014642484 0.043594673 0.63590372
0.012596461 0.04441908 0.63527709
0.013617714 0.049488008 0.63559008
0.011918006 0.055617362 0.63506937
0.011918006 0.060583219 0.63506937
0.017395502 -0.062556885 0.63674641
-0.014044925 -0.061530143 0.63668555
0.018088276 -0.061634138 0.63695848
0.015328042 -0.058646441 0.63611358
0.018088276 -0.053594887 0.63695848
0.01635997 -0.050414722 0.63642943
0.01635997 -0.044405021 0.63642943
0.017395502 -0.044492334 0.63674641
0.01635997 -0.036392093 0.63642943
0.017395502 -0.024420604 0.63674641
-0.014044925 -0.023408234 0.63668561
-0.014044925 -0.023408234 0.63668561
0.018088276 -0.023447752 0.63695848
-0.014044925 -0.020398587 0.63668561
0.017395502 -0.020406261 0.63674641
-0.014044925 -0.019395381 0.63668561
0.01635997 -0.018362984 0.63642943
0.017395502 -0.017395496 0.63674641
0.015328042 -0.010662973 0.63611358
0.018088276 -0.010383993 0.63695848
0.01635997 -0.0083468109 0.63642943
0.018088276 -0.0053594708 0.63695848
0.017395502 -0.0033453107 0.63674641
0.015328042 -0.0016660839 0.63611358
0.01635997 0.0043403432 0.63642943
0.018088276 0.013398737 0.63695848
-0.014044925 0.027421027 0.63668561
0.017395502 0.036463633 0.63674641
0.017395502 0.036463633 0.63674641
-0.014044925 0.039459556 0.63668561
0.017395502 0.040477991 0.63674641
0.01635997 0.045406669 0.63642943
0.018088276 0.04756549 0.63695848
0.017395502 0.048506692 0.63674641
-0.014044925 0.051498055 0.63668561
-0.014044925 0.052501261 0.63668561
0.015328042 0.057646766 0.63611364
0.018088276 0.058619425 0.63695842
0.015328042 0.062645048 0.63611358
-0.014044925 0.063536584 0.63668561
0.017395502 0.065567672 0.63674641
0.018782869 -0.066410869 0.63717103
0.020527599 -0.064610764 0.63770509
0.020527599 -0.05653441 0.63770509
0.020527599 -0.05653441 0.63770509
0.01947929 -0.053400107 0.63738424
0.018782869 -0.050646663 0.63717103
0.020527599 -0.0444199 0.63770509
0.020527599 -0.040381715 0.63770509
0.018782869 -0.034547061 0.63717103
0.01947929 -0.029554784 0.63738418
0.01947929 -0.029554784 0.63738418
0.018782869 -0.017441243 0.63717103
0.018782869 -0.014422551 0.63717103
0.018782869 -0.014422551 0.63717103
0.01947929 -0.013433993 0.63738424
0.020527599 -0.0063937604 0.63770509
0.018782869 0.0063727498 0.63717103
0.018782869 0.010397673 0.63717103
0.018782869 0.010397673 0.63717103
0.018782869 0.024484828 0.63717103
0.01947929 0.025524586 0.63738424
0.020410916 0.0345411 0.63766938
0.01947929 0.04265292 0.63738418
0.01947929 0.053400144 0.63738418
0.01947929 0.053400144 0.63738418
0.01947929 0.061460525 0.63738418
0.023696627 -0.066350535 0.63867503
0.023696627 -0.066350535 0.63867503
0.021579599 -0.063390031 0.63802707
0.023696627 -0.060595647 0.63867503
0.021579599 -0.059343904 0.63802707
0.024406055 -0.050506964 0.63889217
0.023696627 -0.045362115 0.63867503
0.024406055 -0.040676773 0.63889217
0.022636246 -0.032433674 0.63835049
0.024406055 -0.024406016 0.63889217
0.022636246 -0.022636011 0.63835049
0.023696627 -0.0084630698 0.63867509
0.023696627 -0.0033852458 0.63867509
0.024406055 0.011525065 0.63889223
0.022636246 0.012500502 0.63835049
0.021579599 0.01348725 0.63802707
0.024406055 0.018643513 0.63889217
0.022753861 0.025456965 0.63838649
0.023696627 0.036560476 0.63867509
0.022636246 0.038515031 0.63835049
0.021579599 0.051588744 0.63802707
0.021579599 0.055634916 0.63802707
0.022636246 0.055407569 0.63835049
0.021579599 0.059343874 0.63802707
0.022636246 0.059461787 0.63835055
0.022636246 0.062502451 0.63835049
0.026545763 -0.060578778 0.63954759
-0.014994446 -0.056569979 0.6397661
0.027622256 -0.051492922 0.63987708
-0.014994446 -0.049413517 0.6397661
0.027622256 -0.048423797 0.63987708
0.027622256 -0.046377718 0.63987708
0.02774208 -0.045478396 0.6399138
-0.014994446 -0.041575521 0.6397661
-0.014994446 -0.039530843 0.6397661
0.027622256 -0.038534425 0.63987708
0.027622256 -0.034442306 0.63987708
0.026545763 -0.028587729 0.63954759
0.026545763 -0.028587729 0.63954759
-0.014994446 -0.027603418 0.6397661
0.026545763 -0.014634207 0.63954759
0.027622256 -0.0075022727 0.63987708
0.026545763 0.0064662844 0.63954759
0.027502432 0.014546543 0.63984042
0.027622256 0.020460784 0.63987708
0.027622256 0.02352988 0.63987708
0.025473971 0.025473744 0.63921905
0.026545763 0.026545763 0.63954759
-0.014994446 0.030670494 0.6397661
-0.014994446 0.032374352 0.6397661
-0.014994446 0.032374352 0.6397661
0.026545763 0.03267175 0.63954759
0.026545763 0.039478302 0.63954759
-0.014994446 0.042597845 0.6397661
0.026545763 0.042541295 0.63954759
0.026545763 0.044583276 0.63954759
0.026545763 0.047646254 0.63954753
0.025355104 0.052520774 0.63918269
0.026545763 0.052410841 0.63954759
0.025473971 0.056381896 0.63921905
0.025473971 0.057400852 0.63921905
0.025473971 0.057400852 0.63921905
-0.014994446 0.060659349 0.63976604
-0.014994446 0.060659349 0.63976604
0.025473971 0.063514546 0.63921905
0.03051348 -0.066512018 0.64076197
0.029425394 -0.054402769 0.64042902
0.03051348 -0.040455773 0.64076203
0.028702594 -0.033486336 0.64020771
0.030513478 -0.028456151 0.64076197
0.03051348 -0.010628186 0.64076197
0.029425394 -0.0065009445 0.64042896
0.028702594 -0.0034169555 0.64020771
0.03051348 0.006514065 0.64076197
0.029425394 0.0095803738 0.64042896
0.028702594 0.020501852 0.64020777
0.03051348 0.025370568 0.64076209
0.03051348 0.031541795 0.64076203
0.028702594 0.034511447 0.64020777
0.029425394 0.037637144 0.64042902
0.029425394 0.042427301 0.64042896
0.029425394 0.04858613 0.64042896
0.029425394 0.049612567 0.64042902
0.03051348 0.054512419 0.64076197
0.033435944 -0.055496391 0.64165652
0.031605471 -0.05050005 0.64109623
0.034539782 -0.046628699 0.64199436
0.034539782 -0.04455632 0.64199436
0.034539782 -0.042483926 0.64199436
0.032336082 -0.03749609 0.64131987
0.033435948 -0.035503894 0.64165652
0.031605471 -0.032636091 0.64109623
0.033435948 -0.028609946 0.64165652
0.033435948 -0.025507659 0.64165652
0.033435948 -0.024473578 0.64165652
0.031605471 -0.015459195 0.64109623
0.031605471 -0.010649681 0.64109623
0.034539782 -0.0044901818 0.64199442
0.033435948 -0.0024128854 0.64165652
0.032336082 0.0034400225 0.64131987
0.034539782 0.0086349547 0.64199436
0.031605471 0.013397962 0.64109623
0.031605471 0.021642894 0.64109623
0.031605471 0.021642894 0.64109623
0.032336082 0.022360042 0.64131987
0.033435948 0.026541755 0.64165652
0.033435948 0.026541755 0.64165652
0.032336082 0.027520031 0.64131987
0.033435944 0.031367525 0.64165652
0.033435948 0.034469813 0.64165652
0.033435948 0.034469813 0.64165652
0.031605471 0.036415011 0.64109623
0.033558376 0.040453583 0.64169401
0.033558376 0.040453583 0.64169401
0.031605471 0.047408193 0.64109623
0.033435948 0.048602432 0.64165652
0.03331352 0.050544254 0.64161909
0.033435948 0.063424483 0.64165652
0.03639017 -0.066541605 0.64256072
0.03639017 -0.064462177 0.64256078
0.035278331 -0.063639343 0.64222044
0.035278331 -0.059488937 0.64222044
0.036390174 -0.058570478 0.64256078
0.035278331 -0.048421264 0.6422205
-0.015980903 -0.046553075 0.64296639
0.035278331 -0.034586579 0.64222044
0.035278331 -0.034586579 0.64222044
-0.015980903 -0.03265664 0.64296639
0.035278331 -0.02939862 0.64222044
0.037506044 -0.027434975 0.64290231
-0.015980903 -0.015633479 0.64296639
0.03639017 -0.0093574077 0.64256078
0.037506044 -0.0076401234 0.64290226
0.035278331 0.0086466521 0.64222044
0.03639017 0.014555976 0.64256072
-0.015980903 0.01667574 0.64296639
-0.015980903 0.01667574 0.64296639
0.03639017 0.026339412 0.64256072
0.03639017 0.026339412 0.64256072
0.03639017 0.030498222 0.64256072
0.03639017 0.030498222 0.64256072
0.03639017 0.0415885 0.64256078
0.03639017 0.048519924 0.64256072
-0.015980903 0.050374582 0.64296639
0.036266413 0.051511757 0.64252293
0.036266413 0.051511757 0.64252293
0.035278331 0.05464682 0.64222044
-0.015980903 0.056627989 0.64296639
0.037506044 0.065635592 0.64290226
0.040504899 -0.064598322 0.64382064
0.040504899 -0.057614714 0.64382064
0.038252663 -0.048685193 0.64313084
0.038252663 -0.047641963 0.64313084
0.038252663 -0.039643645 0.64313078
0.039376728 -0.039376482 0.64347512
0.039376728 -0.034497999 0.64347512
0.038252663 -0.0236471 0.64313084
0.040504899 -0.02234751 0.64382064
0.039376728 -0.019513994 0.64347517
0.039376728 -0.01359012 0.64347517
0.038252663 -0.008346051 0.64313084
0.040504899 -0.0055868924 0.64382064
0.039501868 0.00046462816 0.64351356
0.039376728 0.0076662004 0.64347517
0.038252663 0.033384144 0.64313084
0.038252663 0.033384144 0.64313084
0.038252663 0.038600415 0.64313084
0.039376728 0.038331091 0.64347517
0.038252663 0.061552003 0.64313084
0.039251592 0.061547928 0.64343679
0.042396106 -0.062367462 0.64439952
0.044299811 -0.054495804 0.64498222
0.044299811 -0.047464088 0.64498222
0.042396106 -0.046600416 0.64439952
0.044299811 -0.043596625 0.64498222
0.043536652 -0.040376738 0.64474863
0.044299811 -0.036564887 0.64498222
0.041259721 -0.027623013 0.64405167
0.041259721 -0.027623013 0.64405167
0.043536652 -0.023523837 0.64474857
0.044299811 -0.022501498 0.64498222
0.042396102 -0.0094602332 0.64439946
0.042396102 -0.0094602332 0.64439946
0.043536652 -0.0073731542 0.64474857
0.043536652 -0.0073731542 0.64474857
0.041259721 -0.0045455694 0.64405167
0.043536652 -0.0024577081 0.64474857
0.042396102 0.0024526492 0.64439952
0.043536652 0.0035110116 0.64474869
0.041259721 0.0066435188 0.64405173
0.044299811 0.0094928145 0.64498222
0.042396102 0.018570088 0.64439952
0.041259721 0.019580871 0.64405167
0.042396106 0.022424251 0.64439952
0.042396106 0.022424251 0.64439952
0.042396102 0.028380714 0.64439952
0.041259721 0.030420318 0.64405167
0.042396106 0.033636406 0.64439952
0.044299811 0.040432364 0.64498222
0.041259721 0.04335767 0.64405173
0.044299811 0.05133155 0.64498222
0.041259721 0.056644708 0.64405167
0.041259721 0.056644708 0.64405167
0.042396106 0.057462156 0.64439952
0.046601966 -0.066372529 0.64568686
0.047373604 -0.066464469 0.64592308
0.045448773 -0.058484152 0.64533389
0.046601966 -0.051544577 0.64568686
0.045448773 -0.044391572 0.64533389
0.046601966 -0.040600196 0.64568686
0.046601966 -0.03353931 0.64568686
0.047373604 -0.025454491 0.64592302
0.046601966 -0.021535754 0.64568686
0.047373604 -0.014494911 0.64592302
0.045448773 -0.011626363 0.64533389
0.045448773 0.00035232306 0.64533389
0.047373604 0.00035354495 0.64592302
0.047373604 0.00035354495 0.64592302
0.046601966 0.0063548088 0.64568681
0.045448773 0.027480513 0.64533389
0.047373604 0.034646362 0.64592302
0.046601966 0.053662896 0.64568686
0.045448773 0.06059806 0.64533389
0.045448773 0.06059806 0.64533389
0.046601966 0.063548148 0.64568686
0.047373604 0.066464454 0.64592302
0.049701393 -0.062481776 0.64663553
0.050481655 -0.062568769 0.64687431
0.048535343 -0.05951751 0.64627862
0.048664667 -0.05646012 0.6463182
0.048664667 -0.05646012 0.6463182
0.049701393 -0.054671541 0.64663553
0.049701393 -0.052541494 0.64663553
0.048535343 -0.046409465 0.64627862
0.049701393 -0.036566019 0.64663553
0.049701393 -0.033370942 0.64663553
0.048535343 -0.030467287 0.64627862
0.050481655 -0.023463309 0.64687437
0.049701393 -0.021300584 0.64663553
0.048535343 -0.0194849 0.64627862
0.050481655 -0.019552737 0.64687437
0.048535343 -0.0035427064 0.64627862
0.049701393 -0.0014200211 0.64663553
-0.017006494 0.0035430193 0.6462937
0.048535343 0.0063768774 0.64627862
0.048535343 0.0063768774 0.64627862
0.050481655 0.011376143 0.64687431
0.048535343 0.018422082 0.64627862
0.048535343 0.020547688 0.64627862
0.049701393 0.022365645 0.64663553
-0.017006494 0.023383915 0.6462937
0.050481655 0.02559635 0.64687437
-0.017006494 0.029407069 0.6462937
0.049701393 0.032660931 0.64663553
0.050481655 0.04550457 0.64687437
0.048535343 0.047472283 0.64627862
0.049701393 0.062481791 0.64663553
-0.017006494 0.064482957 0.64629364
0.052442111 -0.053512126 0.64747441
0.052442111 -0.052441865 0.64747441
0.052442111 -0.049587883 0.64747447
0.052442111 -0.047447406 0.64747441
0.052442111 -0.041382715 0.64747441
0.052442111 -0.041382715 0.64747441
0.052442111 -0.027469546 0.64747441
0.053624701 -0.024309844 0.64783686
0.051264085 -0.008543998 0.64711386
0.053624701 0.0085799396 0.64783686
0.053624701 0.024309844 0.64783686
0.052442111 0.027469553 0.64747447
0.053624701 0.027527362 0.64783686
0.052442111 0.032464013 0.64747441
0.053624701 0.041469783 0.64783686
0.051264085 0.048416078 0.64711386
0.052442111 0.054582343 0.64747441
0.053624701 0.064349622 0.6478368
0.052442111 0.065641522 0.64747441
0.055209398 -0.061662436 0.64832193
0.055209398 -0.061662436 0.64832193
0.055209398 -0.051624358 0.64832193
0.056404054 -0.048500098 0.6486876
0.055209398 -0.045529813 0.64832187
0.055209398 -0.045529813 0.64832187
0.056404054 -0.038440816 0.6486876
0.056404054 -0.038440816 0.6486876
0.056404054 -0.03161487 0.6486876
0.055209398 -0.018642157 0.64832193
0.056404054 -0.013651863 0.6486876
0.056404054 -0.011496305 0.6486876
0.055209398 -0.0064530671 0.64832193
0.054415938 -0.003580004 0.64807904
0.055209398 -0.0014339983 0.64832199
0.055209398 0.0025094897 0.64832193
0.055209398 0.005377546 0.64832193
0.055209398 0.016491115 0.64832193
0.056404054 0.018681511 0.6486876
0.056404054 0.037363037 0.6486876
0.056404054 0.041674152 0.6486876
0.055209398 0.044454306 0.64832199
0.054415938 0.047613978 0.64807904
0.056404054 0.049577877 0.6486876
0.056404054 0.053529724 0.6486876
0.056404054 0.053529724 0.6486876
-0.018073594 -0.06253463 0.6497556
0.059210375 -0.060654521 0.6495465
0.05840566 -0.057684585 0.64930022
-0.018073594 -0.055666685 0.6497556
-0.018073594 -0.055666685 0.6497556
0.057603206 -0.049682766 0.64905465
0.060017373 -0.044470713 0.64979357
-0.018073594 -0.033616886 0.6497556
-0.018073594 -0.033616886 0.6497556
0.05840566 -0.032447577 0.64930022
-0.018073594 -0.024580091 0.64975566
0.05840566 -0.024515957 0.64930022
0.060017373 -0.024585426 0.64979357
0.05840566 -0.021631718 0.64930022
0.060017373 -0.02060838 0.64979357
-0.018073594 -0.019519478 0.64975572
0.059210375 -0.017329842 0.6495465
-0.018073594 -0.016627699 0.64975566
-0.018073594 -0.016627699 0.64975566
0.060017373 -0.01554665 0.64979357
-0.018073594 -0.011567086 0.6497556
-0.018073594 -0.010482684 0.6497556
0.057603206 -0.010440588 0.64905465
-0.018073594 -0.0014458895 0.64975566
-0.018073594 -0.00036148727 0.64975566
0.059210375 0.00036102533 0.64954656
0.059210375 0.004332453 0.64954656
0.05840566 0.0093737543 0.64930022
0.059210375 0.011553288 0.6495465
0.057603206 0.01440081 0.64905465
0.057603206 0.01440081 0.64905465
0.059210375 0.01444155 0.64954656
0.057603206 0.019441098 0.64905465
0.057603206 0.022321254 0.64905465
0.057603206 0.028441593 0.64905465
0.060017373 0.039409012 0.64979351
-0.018073594 0.041569278 0.64975566
-0.018073594 0.045545459 0.64975566
0.05840566 0.046508208 0.64930022
0.057603206 0.058323264 0.64905465
0.057603206 0.058323264 0.64905465
0.057603206 0.061563432 0.64905465
-0.018073594 0.065426439 0.6497556
-0.019184778 -0.042427868 0.65336061
-0.019184778 0.027301431 0.65336061
-0.019184778 0.035418063 0.65336061
-0.019184778 0.053496018 0.65336061
-0.019184778 0.054602832 0.65336061
-0.019184778 0.054602832 0.65336061
-0.020342894 -0.048596919 0.6571182
-0.020342894 -0.033528104 0.6571182
-0.020342894 0.006404236 0.6571182
-0.020342894 0.031644523 0.65711814
-0.021550851 -0.040407822 0.66103709
-0.021550851 -0.021550864 0.66103709
-0.021550851 -0.0046180487 0.66103709
-0.021550851 -0.0023090243 0.66103709
-0.021550851 0.010390595 0.66103715
-0.021550851 0.032326311 0.66103709
-0.021550851 0.040407851 0.66103709
-0.021550851 0.051568091 0.66103715
-0.022812005 -0.045624018 0.66512865
-0.022812005 -0.029498309 0.66512871
-0.022812005 0.01140599 0.66512865
-0.022812005 0.060569823 0.66512865
-0.02412995 0.043433905 0.66940439
-0.025508607 -0.044434339 0.67387712
-0.025508607 -0.033737153 0.67387712
-0.025508607 0.019748598 0.67387712
-0.025508607 0.031268626 0.67387712
-0.025508607 0.037440062 0.67387712
-0.026952274 -0.052220047 0.67856073
-0.026952274 -0.049693257 0.67856073
-0.026952274 -0.039586157 0.67856073
-0.026952274 -0.029479086 0.67856079
-0.026952274 -0.029479086 0.67856079
-0.026952274 -0.028636783 0.67856073
-0.026952274 -0.00042112172 0.67856073
-0.026952274 0.00084227324 0.67856073
-0.026952274 0.01263386 0.67856073
-0.026952274 0.048429862 0.67856073
-0.026952274 0.054746836 0.67856079
-0.026952274 0.05558905 0.67856073
-0.026952274 0.057273597 0.67856073
-0.028465657 -0.046580136 0.68347055
-0.028465657 -0.022427499 0.68347061
-0.028465657 0.03881681 0.68347055
-0.028465657 0.048305362 0.68347055
-0.030053932 -0.037125438 0.68862337
-0.030053932 -0.036241502 0.68862337
-0.030053932 -0.029169977 0.68862331
-0.030053932 -0.00088393688 0.68862337
-0.030053932 0.00044196844 0.68862331
-0.030053932 0.0088393986 0.68862337
-0.030053932 0.029170007 0.68862331
-0.030053932 0.037125468 0.68862337
-0.031722799 -0.065258324 0.69403762
-0.031722799 -0.050756484 0.69403768
-0.031722799 -0.049850136 0.69403768
-0.031722799 -0.047131002 0.69403768
-0.031722799 -0.024471879 0.69403768
-0.031722799 -0.016314596 0.69403762
-0.031722799 -0.010876358 0.69403762
-0.031722799 -0.0018127263 0.69403762
-0.031722799 0.0081573129 0.69403756
-0.031722799 0.035348237 0.69403762
-0.031722799 0.060726494 0.69403762
-0.031722799 0.066164702 0.69403768
-0.033478688 -0.061377585 0.69973463
-0.033478688 -0.043708265 0.69973463
-0.033478688 -0.042778343 0.69973463
-0.033478688 -0.03533861 0.69973463
-0.033478688 -0.033478707 0.69973463
-0.033478688 -0.028828859 0.69973463
-0.033478688 -0.01766929 0.69973463
-0.033478688 -0.01766929 0.69973463
-0.033478688 -0.0018599331 0.69973463
-0.033478688 0.0055797696 0.69973463
-0.033478688 0.043708295 0.69973463
-0.033478688 0.056727797 0.69973463
-0.033478688 0.059517652 0.69973469
-0.033478688 0.062307537 0.69973463
-0.03532831 0.05251503 0.70573533
-0.037279513 -0.062786549 0.71206558
-0.037279513 -0.061805487 0.71206552
-0.037279513 -0.046108872 0.71206558
-0.037279513 -0.043165773 0.71206552
-0.037279513 -0.034336418 0.71206558
-0.037279513 -0.033355325 0.71206558
-0.037279513 -0.021582872 0.71206552
-0.037279513 -0.020601809 0.71206552
-0.037279513 -0.01765874 0.71206552
-0.037279513 -0.0078482926 0.71206552
-0.037279513 -0.0078482926 0.71206552
-0.037279513 -0.0068672597 0.71206558
-0.037279513 -0.0039241612 0.71206558
-0.037279513 -0.0039241612 0.71206558
-0.037279513 -0.0029431283 0.71206558
-0.037279513 0.004905194 0.71206552
-0.037279513 0.008829385 0.71206558
-0.037279513 0.014715642 0.71206552
-0.037279513 0.01765874 0.71206552
-0.037279513 0.020601839 0.71206552
-0.037279513 0.023544937 0.71206552
-0.037279513 0.02452603 0.71206552
-0.037279513 0.032374322 0.71206552
-0.037279513 0.044146836 0.71206552
-0.037279513 0.045127809 0.71206558
-0.037279513 0.047089934 0.71206552
-0.037279513 0.051504582 0.71206552
-0.037279513 0.053957194 0.71206552
-0.037279513 0.061805516 0.71206552
-0.039340913 -0.012104899 0.71875334
-0.041522108 -0.056054831 0.72582966
-0.041522108 -0.051902622 0.72582966
-0.041522108 -0.041522115 0.72582966
-0.041522108 -0.037369907 0.72582966
-0.041522108 0.015570819 0.72582966
-0.041522108 0.061245114 0.72582972
-0.041522108 0.062283158 0.72582972
-0.043833856 -0.059870631 0.73332959
-0.043833856 -0.041695625 0.73332959
-0.043833856 -0.038488269 0.73332959
-0.043833856 -0.035280913 0.73332959
-0.043833856 -0.028866202 0.73332953
-0.043833856 -0.0064147115 0.73332965
-0.043833856 0.0010691285 0.73332959
-0.043833856 0.0042764843 0.73332959
-0.043833856 0.013898551 0.73332959
-0.043833856 0.024589717 0.73332959
-0.043833856 0.03741914 0.73332959
-0.043833856 0.051317692 0.73332959
-0.046288241 -0.035267234 0.74129224
-0.046288241 -0.029756695 0.7412923
-0.046288241 -0.0088168085 0.74129224
-0.046288241 -0.0011020899 0.74129224
-0.046288241 0.020939916 0.74129224
-0.046288241 0.042981952 0.7412923
-0.046288241 0.05400297 0.74129224
-0.046288241 0.05400297 0.74129224
-0.046288241 0.05510506 0.74129224
-0.048898883 -0.054584801 0.74976188
-0.048898883 -0.050036073 0.74976188
-0.048898883 -0.036389858 0.74976194
-0.048898883 -0.034115493 0.74976194
-0.048898883 -0.022743642 0.74976188
-0.048898883 -0.013646215 0.74976188
-0.048898883 -0.0022743642 0.74976188
-0.048898883 0.0068230927 0.74976194
-0.048898883 0.0079602897 0.74976188
-0.048898883 0.014783382 0.74976194
-0.048898883 0.025018036 0.74976194
-0.048898883 0.045487344 0.74976194
-0.048898883 0.045487344 0.74976194
-0.048898883 0.046624511 0.74976194
-0.048898883 0.046624511 0.74976194
-0.048898883 0.047761708 0.74976194
-0.048898883 0.048898876 0.74976194
-0.048898883 0.050036073 0.74976188
-0.048898883 0.050036073 0.74976188
-0.048898883 0.054584801 0.74976194
-0.048898883 0.065956652 0.74976194
-0.051681451 -0.056379765 0.75878984
-0.051681451 -0.035237342 0.7587899
-0.051681451 -0.018793285 0.7587899
-0.051681451 -0.0035237372 0.7587899
-0.051681451 0.01292038 0.7587899
-0.051681451 0.048157752 0.7587899
-0.051681451 0.051681429 0.7587899
-0.051681451 0.057554334 0.7587899
-0.054652963 -0.06072551 0.76843023
-0.054652963 -0.054652959 0.76843029
-0.054652963 -0.0461514 0.76843023
-0.054652963 -0.0461514 0.76843023
-0.054652963 -0.026719213 0.76843029
-0.054652963 -0.026719213 0.76843029
-0.054652963 0.036435306 0.76843029
-0.054652963 0.036435306 0.76843029
-0.054652963 0.063154548 0.76843029
-0.054652963 0.064369053 0.76843029
-0.054652963 0.064369053 0.76843029
-0.057833631 -0.049032867 0.77874929
-0.061246347 -0.063852608 0.78982103
-0.061246347 -0.062549472 0.78982109
-0.061246347 -0.062549472 0.78982109
-0.061246347 -0.05603388 0.78982103
-0.061246347 -0.05603388 0.78982103
-0.061246347 -0.054730743 0.78982103
-0.061246347 -0.053427666 0.78982109
-0.061246347 -0.05212453 0.78982109
-0.061246347 -0.050821453 0.78982103
-0.061246347 -0.049518317 0.78982103
-0.061246347 -0.043002754 0.78982109
-0.061246347 -0.040396512 0.78982103
-0.061246347 -0.039093375 0.78982109
-0.061246347 -0.037790298 0.78982103
-0.061246347 -0.032577872 0.78982103
-0.061246347 -0.014334261 0.78982103
-0.061246347 -0.0013031065 0.78982103
-0.061246347 0.011728019 0.78982109
-0.061246347 0.013031125 0.78982103
-0.061246347 0.019546717 0.78982103
-0.061246347 0.019546717 0.78982103
-0.061246347 0.020849854 0.78982103
-0.061246347 0.02215293 0.78982109
-0.061246347 0.023456067 0.78982103
-0.061246347 0.037790328 0.78982103
-0.061246347 0.049518347 0.78982103
-0.061246347 0.053427666 0.78982103
-0.061246347 0.058640093 0.78982103
-0.061246347 0.062549472 0.78982103
-0.061246347 0.063852549 0.78982109
-0.0054406663 -0.059049413 0.62975585
-0.009081658 -0.055022337 0.62864143
-0.0068611871 -0.048989601 0.62932104
-0.0090295412 -0.043005578 0.6286574
-0.0054406663 -0.043046854 0.62975585
-0.0068611871 -0.041010834 0.62932104
-0.0054406663 -0.02896462 0.62975585
-0.0068611871 -0.026968215 0.62932104
-0.0068611871 -0.018989449 0.62932104
-0.0054406663 0.0049608052 0.62975585
-0.010927431 0.0090272576 0.62815976
-0.0054406663 0.012962066 0.62975585
-0.0090555996 0.018906701 0.62864935
-0.010927431 0.022964042 0.62815976
-0.0068611871 0.025053315 0.62932104
-0.010927431 0.042919002 0.62815976
-0.010927431 0.042919002 0.62815976
-0.0054406663 0.043046862 0.62975585
0.00081059971 -0.055001255 0.63166928
0.00081059971 -0.055001255 0.63166928
-0.0044891578 -0.053068262 0.63004708
-0.0030808849 -0.052947946 0.63047814
-0.012248688 -0.049155936 0.63085818
0.00081059971 -0.027055144 0.63166922
-0.012248688 -0.023046881 0.63085812
-0.012248688 -0.019017704 0.63085818
-0.0030808849 -0.016934685 0.63047814
-0.0044891578 -0.0049701408 0.63004708
0.00083759223 -0.0010801008 0.63167751
-0.012248688 0.00096700341 0.63085818
-0.0044891578 0.0030461997 0.63004708
-0.0030542985 0.011093941 0.63048625
-0.012248688 0.013054505 0.63085818
-0.0030542985 0.02299181 0.63048625
-0.001290184 0.025007851 0.63102627
0.00081059971 0.027055152 0.63166922
-0.0044891578 0.037035562 0.63004708
0.00081059971 0.037099577 0.63166922
0.00083759229 0.044986144 0.63167751
-0.0044891578 0.046975836 0.63004708
-0.0044891578 0.050984032 0.63004708
-0.0030542985 0.064312749 0.63048625
-0.013130301 -0.051044032 0.63371837
0.0030924515 -0.045076363 0.63236809
-0.013130301 -0.040868051 0.63371831
0.0019484153 -0.039130658 0.63201797
0.0070519587 -0.027057609 0.63357997
0.0070519587 -0.027057609 0.63357997
0.0050646001 -0.024993408 0.63297176
0.0030924515 -0.015133936 0.63236809
0.0050646001 0.0089845546 0.63297176
0.0030924515 0.012855709 0.63236809
0.0050646001 0.044922803 0.6329717
0.0050646001 0.051048569 0.6329717
0.0050646001 0.051048569 0.6329717
-0.013130301 0.054983154 0.63371837
0.0070519587 0.061002471 0.63357997
0.0070519582 0.063052364 0.63357997
0.0050646001 0.064933792 0.63297176
0.0090826796 -0.061022434 0.63420159
0.013107087 -0.054914545 0.63543355
0.011241894 -0.045020249 0.63486248
0.011241893 -0.043036483 0.63486248
0.013107087 -0.042969391 0.63543355
0.014642484 -0.037105381 0.63590378
0.014642484 -0.027121879 0.63590378
0.013107087 -0.019079061 0.63543355
0.0090547018 0.00098771974 0.63419306
0.0090547018 0.00098771974 0.63419306
0.0090547018 0.014980452 0.634193
0.013107087 0.027042519 0.63543355
0.013107087 0.027042519 0.63543355
0.014642484 0.033111982 0.63590372
0.014642484 0.033111982 0.63590372
0.013107087 0.038987674 0.63543355
0.013107087 0.046951111 0.63543355
0.013107087 0.056905404 0.63543355
0.013107087 0.056905404 0.63543355
0.020527599 -0.05502012 0.63770509
0.018783478 -0.051037885 0.63717127
0.018783478 -0.051037885 0.63717127
0.020527599 -0.038867414 0.63770509
0.020527599 -0.037016582 0.63770509
0.020527599 -0.032978401 0.63770509
-0.014044925 -0.03093227 0.63668561
0.015328042 -0.017160736 0.63611364
0.018783478 -0.010900791 0.63717127
0.020527599 -0.0089176334 0.63770509
0.015328042 -0.0071642101 0.63611352
0.015328042 -0.0071642101 0.63611352
-0.014044925 0.0008360073 0.63668561
0.018783478 0.00089449686 0.63717127
0.018783478 0.018950596 0.63717127
0.018783478 0.02700041 0.63717121
0.018783478 0.03706266 0.63717121
0.018783478 0.047012985 0.63717127
0.016877737 0.066505939 0.63658792
0.023166437 -0.061042778 0.63851273
0.021579599 -0.057152215 0.63802707
0.024940031 -0.049030546 0.63905573
0.024940031 -0.046994668 0.63905573
-0.014994446 -0.043109044 0.6397661
0.024940031 -0.02290353 0.63905573
0.023166437 -0.0028745942 0.63851279
0.024940012 0.0069558807 0.63905561
0.023166437 0.013020208 0.63851279
0.023166437 0.017078456 0.63851273
0.024940014 0.020867653 0.63905561
0.023166437 0.037031487 0.63851279
0.02708401 0.045053724 0.63971233
0.021579599 0.053106055 0.63802707
0.027113967 0.061011791 0.63972151
0.021579599 0.066930458 0.63802707
0.031059476 -0.03311798 0.6409291
0.034539782 -0.027113736 0.64199436
0.031029195 -0.02304964 0.64091986
0.031059474 -0.012869691 0.6409291
0.032886013 -0.010847017 0.64148819
0.032886013 -0.004993083 0.64148819
0.032886013 -0.004993083 0.64148819
0.034539782 0.015024811 0.64199436
0.034539782 0.015024811 0.64199436
0.031059476 0.021106282 0.6409291
0.032886013 0.027031422 0.64148819
0.034539782 0.035057887 0.64199436
0.03291662 0.041008394 0.64149755
0.032886013 0.049069803 0.64148819
0.029063994 0.052998517 0.64031839
0.034539782 0.066834472 0.64199436
0.038783412 -0.06106038 0.64329344
0.038783412 -0.06106038 0.64329344
0.040504899 -0.052900791 0.64382064
-0.015980903 -0.050895691 0.64296639
0.038814694 -0.040902682 0.64330298
0.038814694 -0.040902682 0.64330298
0.036948107 -0.036947448 0.64273155
0.040504899 -0.024966389 0.64382064
0.040504899 -0.024966389 0.64382064
-0.015980903 -0.018933892 0.64296639
0.040504899 -0.0010475367 0.64382064
0.036948107 0.020988941 0.64273155
0.038814694 0.029067019 0.64330298
-0.015980903 0.034914799 0.64296639
0.040504899 0.049059816 0.64382064
0.035278331 0.058970153 0.6422205
0.046987787 -0.046987541 0.645805
0.041259721 -0.033042744 0.64405167
0.041259721 -0.0089162961 0.64405167
0.042966377 -0.0089438912 0.64457405
0.044874292 -0.0010558367 0.64515805
0.042966377 0.027007025 0.64457405
0.044874292 0.026924187 0.64515805
0.042966377 0.039019793 0.64457405
0.041259721 0.0410849 0.64405167
0.046987787 0.042924732 0.64580494
0.044842318 0.049064793 0.64514828
0.041259721 0.061015435 0.64405167
0.05087287 -0.063057072 0.64699411
0.04911837 -0.059047628 0.64645708
0.04911837 -0.053018741 0.64645708
0.053033404 -0.033033844 0.64765561
0.04911837 -0.018973252 0.64645708
0.053033404 -0.016963335 0.64765561
-0.017006494 -0.0030115619 0.64629376
0.053033408 -0.0010713562 0.64765561
0.04911837 0.012944382 0.64645708
0.04911837 0.012944382 0.64645708
0.053033408 0.024998395 0.64765567
0.05087287 0.036998153 0.64699411
0.053033404 0.050979178 0.64765561
-0.017006494 0.055093966 0.64629364
0.05087287 0.057098284 0.64699411
0.053033408 0.05901444 0.64765567
0.053033408 0.06303215 0.64765567
-0.018073594 -0.060908031 0.64975566
0.057003632 -0.05898077 0.64887112
0.057003632 -0.052956883 0.64887112
-0.018073594 -0.047172092 0.64975566
0.057003632 -0.042976972 0.64887106
0.05481267 -0.041019753 0.64820051
-0.018073594 -0.037050866 0.64975572
0.058808018 -0.036980357 0.64942342
-0.018073594 -0.029098481 0.6497556
0.05481267 -0.024898455 0.64820051
-0.018073594 -0.015001081 0.6497556
0.058808021 -0.014972523 0.64942336
0.058808021 -0.013168614 0.64942342
-0.018073594 -0.011024885 0.6497556
0.05481267 -0.0010747388 0.64820051
0.057003632 0.0048551504 0.64887112
0.058808018 0.016956836 0.64942342
0.060017373 0.01898139 0.64979362
-0.018073594 0.021146119 0.6497556
-0.018073594 0.021146119 0.6497556
0.060017373 0.029104799 0.64979357
-0.018073594 0.030905865 0.6497556
0.057003632 0.032907065 0.64887112
0.05703688 0.046965659 0.64888132
0.05481267 0.048990779 0.64820045
-0.020342894 -0.064984247 0.6571182
-0.020342894 -0.037106931 0.6571182
-0.020342894 -0.032963015 0.6571182
-0.020342894 -0.02297993 0.6571182
-0.020342894 0.014880456 0.6571182
-0.020342894 0.056884751 0.6571182
-0.021550851 -0.057148241 0.66103709
-0.021550851 -0.022897765 0.66103709
-0.021550851 0.0050028712 0.66103715
-0.022812005 -0.050933704 0.66512865
-0.022812005 0.0051130503 0.66512871
-0.022812005 0.0051130503 0.66512871
-0.022812005 0.042870834 0.66512871
-0.02412995 -0.060928121 0.66940439
-0.02412995 -0.060928121 0.66940439
-0.02412995 -0.033178687 0.66940439
-0.02412995 -0.025135361 0.66940439
-0.02412995 0.025135361 0.66940439
-0.02412995 0.030966774 0.66940439
-0.025508607 -0.020982876 0.67387712
-0.025508607 0.001028575 0.67387712
-0.025508607 0.043200076 0.67387712
-0.025508607 0.062948674 0.67387712
-0.028465657 -0.040973276 0.68347055
-0.028465657 -0.027171761 0.68347061
-0.028465657 -0.019192748 0.68347061
-0.028465657 0.065125972 0.68347061
-0.030053932 -0.042871028 0.68862337
-0.030053932 -0.0092813522 0.68862331
-0.030053932 0.031158864 0.68862343
-0.030053932 0.039114289 0.68862331
-0.030053932 0.055246219 0.68862331
-0.030053932 0.058781952 0.68862343
-0.031722799 -0.046677828 0.69403768
-0.033478688 -0.045103222 0.69973463
-0.033478688 -0.041383371 0.69973469
-0.033478688 -0.029293865 0.69973463
-0.033478688 0.010694578 0.69973457
-0.033478688 0.010694578 0.69973457
-0.033478688 0.048823088 0.69973463
-0.03532831 -0.03485091 0.70573533
-0.03532831 0.031031623 0.70573533
-0.037279513 0.0053957254 0.71206552
-0.037279513 0.048561484 0.71206552
-0.037279513 0.053466663 0.71206552
-0.039340913 -0.052958921 0.71875334
-0.041522108 -0.053459719 0.72582972
-0.041522108 -0.028546438 0.7258296
-0.041522108 -0.0088234693 0.72582972
-0.041522108 -0.0046712309 0.72582966
-0.041522108 0.017127872 0.7258296
-0.041522108 0.028546438 0.72582972
-0.041522108 0.03685087 0.72582966
-0.043833856 -0.032608107 0.73332953
-0.043833856 -0.032608107 0.73332953
-0.043833856 0.029400751 0.73332953
-0.043833856 0.034746349 0.73332965
-0.043833856 0.050783142 0.73332965
-0.043833856 0.050783142 0.73332965
-0.046288241 0.039124578 0.74129224
-0.046288241 0.061166629 0.7412923
-0.048898883 -0.0551534 0.74976194
-0.048898883 -0.031272531 0.74976194
-0.048898883 -0.017057776 0.74976194
-0.048898883 0.00056859851 0.74976188
-0.051681451 0.011158526 0.7587899
-0.051681451 0.032888204 0.7587899
-0.054652963 -0.061332762 0.76843023
-0.054652963 -0.030970007 0.76843035
-0.054652963 -0.004858017 0.76843023
-0.057833631 -0.023259163 0.77874923
-0.057833631 -0.020744637 0.77874923
-0.057833631 -0.008800745 0.77874923
-0.057833631 0.035203129 0.77874929
-0.057833631 0.042746633 0.77874929
-0.061246347 -0.06320104 0.78982103
-0.061246347 -0.020849824 0.78982103
-0.0021722412 -0.046002988 0.63075626
0.00079710345 -0.041985586 0.63166511
-0.0099915154 -0.034005314 0.62840456
-0.0021722412 -0.025950976 0.63075626
-0.0021722412 -0.014012339 0.63075626
-0.0055970037 -0.0059191077 0.62970805
0.00081059971 0.026083108 0.63166922
-0.0021655946 0.037990622 0.63075829
-0.0099915154 0.046021227 0.62840456
-0.013130301 -0.041934885 0.63371837
0.006058279 -0.034002289 0.63327587
0.006058279 -0.029972125 0.63327587
-0.013130301 -0.021993242 0.63371837
0.0025204334 0.01406042 0.63219303
0.0060513387 0.042014882 0.63327378
-0.014519686 -0.065656237 0.63822585
0.017830607 -0.04999733 0.63687956
0.021757878 -0.033954162 0.63808167
0.021757878 -0.033954162 0.63808167
0.026012022 -0.026009357 0.63938403
0.026012018 -0.017976757 0.63938403
0.026012011 0.010029746 0.63938397
0.026012011 0.010029746 0.63938397
0.017830607 0.029965024 0.63687956
0.017830607 0.042017996 0.63687956
0.021757878 0.050003588 0.63808167
-0.015980903 -0.065660678 0.64296639
0.03423981 -0.062026873 0.64190257
0.040504899 -0.029942214 0.64382064
0.037873667 0.049990714 0.64301491
-0.015980903 0.054022394 0.64296639
0.053033404 -0.057987742 0.64765561
0.045931041 -0.045972735 0.64548153
0.045931038 -0.018027559 0.64548147
0.045931038 -0.018027559 0.64548147
0.049995616 0.0019980562 0.64672559
0.049995616 0.0019980562 0.64672559
-0.017006494 0.010009021 0.6462937
0.045931041 0.018027563 0.64548147
0.045931038 0.041983552 0.64548147
0.053033408 0.05401472 0.64765561
0.053033408 0.05401472 0.64765561
0.042113051 0.062006958 0.64431286
0.057905827 -0.053986631 0.64914727
0.060017373 -0.022054583 0.64979357
-0.018073594 -0.017983232 0.64975566
-0.018073594 -0.0059642866 0.6497556
-0.018073594 -0.0059642866 0.6497556
0.060017373 0.013919681 0.64979362
-0.018073594 0.025935598 0.6497556
0.057905827 0.029987495 0.64914727
0.057905827 0.041987024 0.64914727
-0.019184778 0.041966703 0.65336061
-0.020342894 -0.042098481 0.6571182
-0.021550851 -0.017991103 0.66103709
-0.021550851 0.038002633 0.66103709
-0.021550851 0.053973354 0.66103709
-0.022812005 -0.038052786 0.66512871
-0.022812005 0.01406087 0.66512859
-0.02412995 0.0059319586 0.66940439
-0.02412995 0.026040222 0.66940439
-0.025508607 -0.054000072 0.67387712
-0.025508607 0.065931529 0.67387712
-0.026952274 -0.022004005 0.67856073
-0.028465657 0.018006686 0.68347061
-0.031722799 0.050190017 0.69403768
-0.033478688 -0.046033189 0.69973463
-0.033478688 -0.042313337 0.69973469
-0.033478688 -0.033943668 0.69973463
-0.033478688 -0.014065698 0.69973463
-0.03532831 -0.057766557 0.70573533
-0.03532831 -0.037715346 0.70573533
-0.03532831 0.046308741 0.70573533
-0.03532831 0.046308741 0.70573533
-0.037279513 -0.029921725 0.71206558
-0.037279513 0.054447703 0.71206558
-0.039340913 -0.017652996 0.71875334
-0.039340913 0.05396767 0.71875322
-0.039340913 0.062037595 0.71875322
-0.041522108 -0.054238252 0.72582972
-0.041522108 0.01401373 0.72582966
-0.041522108 0.022318147 0.7258296
-0.043833856 -0.021916933 0.73332959
-0.043833856 -0.0058801472 0.73332965
-0.043833856 0.0058801621 0.73332959
-0.046288241 0.021766491 0.74129224
-0.046288241 0.033889599 0.7412923
-0.051681451 0.053736955 0.7587899
-0.054652963 -0.057992868 0.76843023
-0.057833631 0.026087992 0.77874923
-0.057833631 0.029859759 0.77874923
-0.061246347 -0.030297406 0.78982103
-0.061246347 -0.014008462 0.78982103
