# .PCD v0.7 - Point Cloud Data file format
VERSION 0.7
FIELDS x y z
SIZE 4 4 4
TYPE F F F
COUNT 1 1 1
WIDTH 1321
HEIGHT 1
VIEWPOINT 0 0 0 1 0 0 0
POINTS 1321
DATA ascii
0.050492421 -0.020437554 0.66871285
0.051491521 -0.020543318 0.66845244
0.046540968 -0.015246183 0.66894543
0.047260415 -0.014418423 0.66860592
0.046388313 -0.011197209 0.66831005
0.042453986 -0.006408155 0.66860455
0.04315114 -0.0047945976 0.66814023
0.03648176 0.0024054199 0.66879356
0.035244461 0.0056070685 0.66860259
0.034345645 0.010383576 0.66805345
0.029669574 0.013631999 0.66881263
0.030388229 0.015593827 0.66828388
0.03035843 0.016777039 0.66809452
0.026404073 0.021603346 0.66838849
0.019579042 0.034363598 0.66815424
0.010383181 0.05031848 0.66804636
0.0056166509 0.052956998 0.66893291
0.0064035901 0.054430515 0.66846699
0.071576014 -0.059512645 0.66937864
0.067703292 -0.055613399 0.66980511
0.066384278 -0.051498264 0.66948378
0.064507276 -0.050799489 0.66988945
0.053496864 -0.029765293 0.66943717
0.053496864 -0.029765293 0.66943717
0.051491424 -0.026550293 0.66945797
0.043421425 -0.012463689 0.6693486
0.039448373 -0.0072456002 0.66958237
0.025395192 0.01451166 0.66985631
0.022496779 0.023300231 0.66919315
0.022481948 0.024087816 0.66906524
0.022481948 0.024087816 0.66906524
0.018520055 0.027377486 0.66961879
0.018501706 0.028556839 0.66942626
0.016465072 0.033733755 0.66912758
0.01128038 0.038675606 0.66974479
0.0096678101 0.041490898 0.66972291
0.0096423309 0.044595659 0.66921031
0.0080290763 0.048174471 0.66906059
0.0044230325 0.052274823 0.66937935
0.0016093316 0.056326598 0.66948509
0.0016093316 0.056326598 0.66948509
-0.00080599304 0.058434382 0.66980553
0.071495771 -0.064629138 0.67025727
0.071448386 -0.063778967 0.67012799
0.059534445 -0.047789752 0.67077178
0.057554051 -0.045394748 0.67092264
0.056505568 -0.038746685 0.6701023
0.056505568 -0.038746685 0.6701023
0.05452913 -0.036352918 0.67025197
0.051319744 -0.034573417 0.67084861
0.05408372 -0.034710467 0.67010164
0.048647407 -0.030810028 0.67096364
0.050025232 -0.027433187 0.6700145
0.04647065 -0.023437485 0.67033565
0.046000678 -0.020982772 0.67005575
0.04052991 -0.01702258 0.67091733
0.043608334 -0.017766356 0.67018425
0.043579441 -0.016947538 0.67005503
0.038917258 -0.014593959 0.67096031
0.041593701 -0.014537707 0.6702053
0.033531539 -0.0016159862 0.67028862
0.033091206 0.00040341914 0.67007339
0.030741038 0.0016179383 0.67052531
0.023483343 0.012551308 0.67071748
0.021890357 0.013782829 0.67095488
0.022600992 0.017757922 0.67009163
0.017763689 0.025434241 0.67015493
0.013779602 0.027559191 0.67090923
0.013770439 0.028350919 0.67077911
0.014549889 0.029503793 0.67036903
0.012104821 0.03550747 0.67004573
0.005653841 0.045230716 0.67021561
0.001618947 0.049377918 0.67064571
0.0024257447 0.049323469 0.67043042
0.0016157309 0.051703393 0.67025757
-0.00080947072 0.053425074 0.67064506
-0.0040518097 0.057535708 0.67086029
-0.0016142959 0.058114678 0.67008436
0.06764213 -0.068457097 0.67197156
0.068335466 -0.06752196 0.6716221
0.06598261 -0.065167993 0.67188346
0.066545531 -0.061676353 0.67114246
0.060026072 -0.050292104 0.67105365
0.05297165 -0.044007212 0.67196757
0.055469915 -0.043564301 0.67119706
0.052522935 -0.042344272 0.67181408
0.05050974 -0.039511785 0.67190111
0.050308008 -0.034485444 0.67111552
0.047573201 -0.032528818 0.67155051
0.04867965 -0.031641781 0.67109334
0.044811502 -0.030145884 0.67192072
0.047067337 -0.029214174 0.67113638
0.042367093 -0.026072085 0.67192006
0.042367093 -0.026072085 0.67192006
0.042471543 -0.021641642 0.67114973
0.038276043 -0.018730819 0.67183125
0.030474426 -0.0032506138 0.67141443
0.028483998 -0.0016276538 0.6716972
0.028483998 -0.0016276538 0.6716972
0.027572067 0.0040547252 0.6710006
0.027572067 0.0040547252 0.6710006
0.01950991 0.014632434 0.67147613
0.011408532 0.02526176 0.67195463
0.0089638149 0.029336125 0.67195398
0.0086855851 0.030671459 0.67180777
0.0056858528 0.038582444 0.6713196
0.00649091 0.038539633 0.67110217
0.0032501309 0.042251706 0.67138433
0.0032501309 0.042251706 0.67138433
0.0024354293 0.044649512 0.67120981
-0.0024443567 0.048479617 0.67192817
-0.0044745663 0.053692088 0.6716218
-0.0044745663 0.053692088 0.6716218
-0.0056851092 0.057663232 0.67129397
-0.0073085986 0.060498834 0.67127174
0.065306142 -0.066530764 0.67230028
0.064453848 -0.06445384 0.67219031
0.062420644 -0.061196938 0.67221153
0.06046845 -0.059651345 0.67249691
0.054430317 -0.051565781 0.67282605
0.053420559 -0.04567273 0.67212105
0.049750298 -0.039555684 0.67211974
0.044547766 -0.033513159 0.67255807
0.041766211 -0.031119943 0.67293251
0.04173829 -0.030280739 0.6728003
0.039230239 -0.024518877 0.67253441
0.036839902 -0.022513404 0.67286468
0.025358303 -0.0024540126 0.67270654
0.025273515 0.0016305447 0.6720463
0.018548021 0.0084556248 0.67277831
0.01556282 0.012286425 0.67296875
0.017128216 0.014681339 0.6721319
0.015510717 0.016327113 0.67230678
0.0085953772 0.024558887 0.67285615
-0.0040939748 0.045442984 0.67289615
-0.0045015896 0.046650469 0.67280787
0.064382955 -0.070534453 0.67322767
0.062402498 -0.068560764 0.67344916
0.057494957 -0.060780376 0.6735146
0.045082621 -0.037705481 0.67311078
0.040299706 -0.033720165 0.67377687
0.040299706 -0.033720165 0.67377687
0.038611278 -0.029574603 0.67355323
0.036463849 -0.027416855 0.6737904
0.035388574 -0.026335686 0.67390895
0.033704676 -0.022195756 0.67368567
0.034487985 -0.022170842 0.67346293
0.033659238 -0.020523936 0.6734181
0.029600734 -0.015622616 0.67372853
0.027704816 -0.013441056 0.67389196
0.027704816 -0.013441056 0.67389196
0.02629685 -0.0094505697 0.67361593
0.024667107 -0.0074001253 0.6737271
0.024667107 -0.0074001253 0.6737271
0.012349971 0.011526644 0.67399132
0.0082295574 0.018927991 0.6739006
0.0049399366 0.023876399 0.67398924
0.0081963846 0.023769498 0.67309982
0.0045092618 0.029516667 0.67316473
0.0032829384 0.030367196 0.6733644
-0.00082257472 0.034548134 0.67380869
0.001638521 0.035228223 0.67300856
-0.0032902872 0.038660884 0.67380798
-0.0045213122 0.04151161 0.67367351
-0.0045167431 0.042701572 0.67347294
-0.0045167431 0.042701572 0.67347294
-0.0082201092 0.047676623 0.67367256
-0.010671699 0.053358525 0.67340434
-0.012332823 0.054264426 0.67371541
-0.013543509 0.05827713 0.67338139
0.057464506 -0.06862694 0.67483616
0.060121212 -0.068356991 0.67405093
0.058526482 -0.06676963 0.6742292
0.055366162 -0.064456135 0.67472267
0.050373469 -0.05532828 0.674586
0.045510795 -0.049648106 0.67499024
0.043836053 -0.046317339 0.6749
0.044492144 -0.042844296 0.67413557
0.030553546 -0.022295862 0.67458045
0.024784058 -0.013218194 0.67466831
0.017313488 0.0016489327 0.67426181
0.014435739 0.0057743788 0.67437309
0.012383413 0.0082555711 0.67452961
0.0066163689 0.015713871 0.67488819
0.0057723508 0.020615518 0.67430282
0.0041184509 0.024710715 0.67407799
-0.0024732777 0.034625858 0.67425555
-0.0045366022 0.037528031 0.67434466
-0.010751299 0.044659227 0.67488253
-0.011536609 0.050266683 0.67416322
-0.014468152 0.051257759 0.67481387
-0.016480697 0.058506489 0.6741612
0.0513153 -0.059591949 0.67503786
0.041396651 -0.043466613 0.67510229
0.038367838 -0.038644016 0.67513919
0.034304835 -0.034581643 0.67559147
0.035604861 -0.033948809 0.67512321
0.032373216 -0.031543106 0.67562115
0.032373216 -0.031543106 0.67562115
0.028219385 -0.024484634 0.67559695
0.025773209 -0.022447646 0.67593783
0.025685631 -0.018228471 0.67525578
0.02323137 -0.015764147 0.67552692
0.019464346 -0.0074545145 0.67518604
0.015742585 -0.0016570985 0.67525291
0.012463563 0.00041534007 0.67581964
0.008302399 0.0083023906 0.67565918
0.0074501699 0.013244778 0.67506933
-0.0024935061 0.024935067 0.67588341
-0.0016593195 0.025719464 0.67551917
-0.0024901072 0.026561141 0.67560989
-0.00082759652 0.027310699 0.67502105
-0.0082927542 0.037317395 0.67542636
-0.0099400366 0.041416824 0.67519963
-0.01740074 0.053445011 0.67526484
0.052475307 -0.069134146 0.67631137
0.05243944 -0.068254501 0.67617399
0.047477324 -0.060804278 0.67631
0.046649653 -0.059561744 0.67633271
0.04253744 -0.054214388 0.67658329
0.042450376 -0.051606327 0.67617112
0.039218891 -0.049232215 0.67667431
0.037609905 -0.048474997 0.67699564
0.033324234 -0.037489772 0.67635107
0.03330157 -0.036631733 0.67621434
0.028383542 -0.031722784 0.67676258
0.027485998 -0.027485996 0.67630357
0.019217946 -0.017546803 0.67694426
0.019217946 -0.017546803 0.67694426
0.017538756 -0.014198035 0.67685163
0.011697714 -0.0050132871 0.67694145
0.01167373 -0.0025014877 0.6765278
0.0083364369 0.003334552 0.67648101
0.0083193835 0.0058235824 0.67606926
0.005425225 0.0066774786 0.67673272
0.0033322705 0.012496024 0.67634189
-0.0041738441 0.022538751 0.67675257
-0.0033352692 0.022513062 0.67652285
-0.0050108964 0.023384154 0.67684448
-0.0058367001 0.026682049 0.67652214
-0.0058367001 0.026682049 0.67652214
-0.010438317 0.032566801 0.67681956
-0.015309799 0.040640146 0.67682576
-0.013313591 0.041604996 0.67610812
0.049334146 -0.068566084 0.6770913
0.042654131 -0.057708532 0.67713565
0.036930174 -0.05245778 0.6778518
0.031459648 -0.042785436 0.67775726
0.031459648 -0.042785436 0.67775726
0.029345674 -0.038568616 0.6776408
0.030529665 -0.037639603 0.67715502
0.030529665 -0.037639603 0.67715502
0.025422882 -0.031569272 0.67756212
0.023470959 -0.028500438 0.67759264
0.013430225 -0.013430238 0.67786801
0.010476439 -0.0067050755 0.6775651
0.0054475944 0.0016762614 0.67756367
-0.00083725643 0.013396114 0.6773532
-0.0016752786 0.014239877 0.67744559
-0.00083668128 0.014223605 0.67721432
-0.0033467133 0.018406957 0.67721355
-0.0075421231 0.023464382 0.67753595
-0.0092139021 0.02680409 0.67744273
-0.010466986 0.029306903 0.67737329
-0.012544267 0.034287661 0.67711848
-0.018438134 0.041485652 0.6775561
-0.018438134 0.041485652 0.6775561
-0.02432405 0.050325632 0.67771626
-0.027691675 0.055383354 0.67780823
-0.02938671 0.057513863 0.6779238
0.044684462 -0.070820659 0.6787647
0.043710347 -0.065565526 0.67815638
0.038827073 -0.062460929 0.67899728
0.040338539 -0.059667379 0.67810875
0.040338539 -0.059667379 0.67810875
0.034590553 -0.054838687 0.67890203
0.025298147 -0.038790524 0.67880535
0.022713292 -0.031546369 0.6783132
0.016548261 -0.021597486 0.67836589
0.011770305 -0.012611032 0.67819321
0.0084315427 -0.010539576 0.67877698
0.0075735236 -0.0067320168 0.67837828
-0.0084187146 0.019363046 0.67846733
-0.0075629111 0.020167798 0.67809355
-0.020251093 0.036283225 0.67893183
-0.022782397 0.040502071 0.67893112
-0.022782397 0.040502071 0.67893112
-0.023539271 0.046237856 0.67818165
-0.03258371 0.058425687 0.67866206
0.040534031 -0.065867782 0.67909199
0.037198871 -0.061716348 0.67932618
0.03473467 -0.060150266 0.67975056
0.029630831 -0.050795704 0.67960775
0.027479008 -0.045657828 0.67934704
0.024499994 -0.039706916 0.67918098
0.022429092 -0.038510896 0.67955822
0.018659323 -0.034774184 0.67998338
0.01648896 -0.027482145 0.67936748
0.0092993518 -0.015217096 0.67931813
-0.0016944807 0.0004234612 0.6797635
-0.0016903679 0.0033807456 0.67926705
-0.0050857672 0.0055094361 0.67985702
-0.0033768341 0.0075978637 0.67903161
-0.013539897 0.021579087 0.67952281
-0.011824201 0.021114677 0.67912257
-0.016106546 0.02373597 0.67987758
-0.017756613 0.029594332 0.6793561
-0.019425265 0.033783048 0.67912042
-0.022456586 0.034743771 0.67980421
-0.023653476 0.040548831 0.67916632
-0.027483527 0.045664534 0.67937702
-0.027483527 0.045664534 0.67937702
-0.035586324 0.056768656 0.67977631
-0.035561584 0.057575911 0.67963409
0.031404022 -0.056866735 0.68012977
0.030548131 -0.05515635 0.6800819
0.024653729 -0.047607213 0.68046081
0.023764951 -0.044134915 0.6801275
0.019512028 -0.036479026 0.68003118
0.015305673 -0.032311976 0.68050581
0.013608177 -0.029767901 0.68055314
0.011466941 -0.024633214 0.68028998
0.0085139377 -0.022562087 0.68076622
0.0034019828 -0.01275745 0.68054938
0.00042524634 -0.0085098743 0.68066818
-0.0017045439 -0.0068181753 0.68097824
0.0016966494 -0.0067866147 0.68002522
-0.00084950199 -0.0042475164 0.68030947
-0.0076685948 0.0034082532 0.68092853
-0.010192705 0.011466652 0.68028295
-0.009335761 0.011033177 0.68011719
-0.012771963 0.012771934 0.68078321
-0.010182089 0.012727648 0.68006933
-0.013596531 0.016570613 0.68037736
-0.023851657 0.030666411 0.68087512
-0.02846067 0.041628689 0.68032467
-0.02846067 0.041628689 0.68032467
-0.027999941 0.042424172 0.68006349
-0.034073304 0.04770267 0.6808722
-0.040040467 0.057504803 0.68089443
0.034200303 -0.070538267 0.68163872
0.032509107 -0.068440229 0.68175828
0.033302393 -0.067458689 0.68137312
0.031624064 -0.06581223 0.6815654
0.029428516 -0.059710532 0.6811558
0.018789971 -0.043558568 0.68141711
0.017526967 -0.042749301 0.68163347
0.016227644 -0.039287984 0.68141627
0.010239378 -0.028158307 0.68122196
0.0085407728 -0.026476353 0.68141401
0.0085407728 -0.026476353 0.68141401
0.0059911013 -0.024820268 0.68184727
0.0059911013 -0.024820268 0.68184727
0.0059911013 -0.024820268 0.68184727
0.0051160678 -0.018758923 0.68107629
0.0051160678 -0.018758923 0.68107629
0.0017085375 -0.015376836 0.68146026
0.0025598167 -0.015358895 0.6812197
-0.005549686 -0.0025612712 0.68133736
-0.0085305972 0.0034122169 0.68116844
-0.011515144 0.0085295588 0.68114316
-0.013667953 0.010250986 0.68145508
-0.01621926 0.015365601 0.68130982
-0.021348462 0.023483172 0.68138051
-0.027405661 0.029974937 0.68198133
-0.027405661 0.029974937 0.68198133
-0.02730028 0.034551769 0.68118632
-0.03153998 0.042621583 0.6810168
-0.038502507 0.049625456 0.68178439
-0.041083626 0.053494155 0.68185627
0.026588747 -0.061754525 0.68228906
0.023217697 -0.059334099 0.68282336
0.020623317 -0.054136217 0.68267614
0.013732646 -0.041197926 0.68243122
0.0034403724 -0.026662916 0.68286645
0.0034282799 -0.022283822 0.68213654
-0.0017165433 -0.015448868 0.68242669
-0.0017141275 -0.013713032 0.68213505
-0.0042883209 -0.010291964 0.68228
-0.0077171288 -0.0042873025 0.68223041
-0.0077171288 -0.0042873025 0.68223041
-0.010311208 -0.0025778115 0.68266708
-0.014610892 0.0042973161 0.68271458
-0.017993703 0.013709486 0.68208182
-0.025723016 0.02572304 0.68222439
-0.026592899 0.02659288 0.68232137
-0.026592899 0.02659288 0.68232137
-0.030101724 0.029241681 0.68285584
-0.029207336 0.029207349 0.68261194
-0.034312919 0.039459854 0.68231833
-0.034312919 0.039459854 0.68231833
-0.039445683 0.048449457 0.68224394
-0.042516835 0.051535264 0.68258339
-0.047312528 0.057635278 0.68289894
0.027608303 -0.070746273 0.68351012
0.025472086 -0.068214059 0.68368149
0.021609545 -0.063099861 0.68390179
0.021609545 -0.063099861 0.68390179
0.017254936 -0.053490281 0.68350708
0.012962501 -0.048393369 0.68384993
0.012962501 -0.048393369 0.68384993
0.0095102871 -0.043228567 0.68394762
0.010362611 -0.043177545 0.68370116
0.0043228259 -0.034582585 0.68394601
0.0025933827 -0.031552985 0.68392092
-0.00086333317 -0.024173319 0.68364859
-0.0094875824 -0.0086250603 0.68344927
-0.0094875824 -0.0086250603 0.68344927
-0.012916255 -0.0008610785 0.68310559
-0.015499448 0.003444314 0.68310481
-0.020753665 0.0069178939 0.68398732
-0.023322994 0.012525156 0.68376482
-0.029352043 0.023308963 0.68363953
-0.03270473 0.032704711 0.68300104
-0.043123171 0.047435492 0.68343866
-0.047547258 0.05186972 0.68392926
-0.045678049 0.052572846 0.68329054
-0.048331819 0.055236369 0.68358469
0.025381198 -0.070664033 0.68411708
0.021701796 -0.068577677 0.68479264
0.019043358 -0.060592502 0.68419766
0.014729138 -0.054584444 0.68439382
0.0086805588 -0.046875 0.68478876
0.010392046 -0.046764225 0.68429339
0.0064924303 -0.039821818 0.68421799
0.006056977 -0.038505241 0.68411922
0.0034697254 -0.037299544 0.68463802
-0.0026053642 -0.028658986 0.68488503
-0.002596118 -0.024230421 0.68414104
-0.0043278774 -0.021639347 0.68419003
-0.0069196611 -0.016434193 0.68404078
-0.010413917 -0.014753073 0.68473339
-0.015626328 -0.0065110922 0.68480659
-0.014704118 -0.0034597814 0.68403852
-0.017305046 0.0004324615 0.68411201
-0.019907799 0.0043278039 0.68418539
-0.031251851 0.019532248 0.68480116
-0.035512142 0.029449105 0.68432862
-0.038151085 0.032514974 0.68455076
-0.040694281 0.038529515 0.68425286
-0.045872644 0.047603697 0.68417692
-0.048607022 0.048607051 0.68477112
-0.049498282 0.04949829 0.68486971
-0.049498282 0.04949829 0.68486971
0.013510802 -0.060146034 0.68566406
0.0087240199 -0.053216517 0.68583798
0.008705345 -0.050491035 0.68538719
0.003484603 -0.042686373 0.68553597
0.0017402227 -0.038284898 0.68528503
-0.00087197375 -0.036622882 0.68573463
-0.00087073015 -0.034829199 0.68543446
-0.00086979754 -0.033487365 0.68520927
0 -0.033894032 0.68503547
-0.0052368096 -0.030548066 0.68593454
-0.0095893051 -0.021793872 0.68568182
-0.011335492 -0.019183159 0.68573153
-0.013507558 -0.014814451 0.68560541
-0.015698947 -0.01221031 0.68578047
-0.0217987 -0.0017438829 0.68572843
-0.020879522 -0.00043515861 0.68525338
-0.023531308 0.0017430782 0.68562746
-0.023480987 0.0043483078 0.68517756
-0.027855566 0.010445833 0.68537557
-0.028688535 0.013474762 0.68510109
-0.028688535 0.013474762 0.68510109
-0.032215476 0.017413795 0.68542439
-0.037492797 0.024413943 0.68572301
-0.043523356 0.036559641 0.68537092
-0.054083731 0.051466793 0.68581778
-0.053110238 0.052239597 0.68541741
-0.054884121 0.054448396 0.68554217
-0.056619581 0.057490617 0.6855166
-0.059274964 0.061018378 0.68566632
0.015756 -0.069151342 0.68654573
0.011373813 -0.061243594 0.68644327
0.0087396558 -0.055496976 0.68621552
0.0065622972 -0.053375497 0.68646717
0.0052519222 -0.051643938 0.68654263
0.003503365 -0.049485192 0.68666834
-0.0035054241 -0.038559675 0.68679261
-0.0096168024 -0.025353372 0.68628538
-0.016638484 -0.015762776 0.68663657
-0.017484903 -0.012239456 0.68628305
-0.020165388 -0.011397809 0.68688917
-0.0227139 -0.0026208758 0.68613005
-0.029741559 0.0074352324 0.68640536
-0.035461321 0.015760466 0.68660569
-0.035817415 0.0192191 0.68612617
-0.041206155 0.023671657 0.68688214
-0.041147072 0.025388598 0.68657863
-0.049096148 0.03682214 0.68687975
-0.049493194 0.038543195 0.68670213
-0.049493194 0.038543195 0.68670213
-0.050734006 0.042423949 0.68639868
-0.053415321 0.045534372 0.68662483
-0.056473404 0.050782055 0.68659866
-0.057765581 0.0533894 0.68652225
-0.057765581 0.0533894 0.68652225
0.013158274 -0.067545801 0.68700075
0.0061640991 -0.060760409 0.6878137
0.0044039781 -0.058132529 0.68786442
0.0061552213 -0.058914244 0.68750757
-0.00088015589 -0.048408568 0.68771005
-0.0026410874 -0.045778841 0.68775988
-0.005285976 -0.042287827 0.68791282
-0.0096722748 -0.032534003 0.6875028
-0.01055664 -0.031669915 0.68760478
-0.014092362 -0.027303964 0.68785888
-0.016728573 -0.022451669 0.68778127
-0.016728573 -0.022451669 0.68778127
-0.018487198 -0.019367576 0.68775511
-0.019362852 -0.017602593 0.68770367
-0.020216253 -0.014503121 0.68742311
-0.022844823 -0.0096651316 0.68734574
-0.022844823 -0.0096651316 0.68734574
-0.034233753 0.010533482 0.68713844
-0.034233753 0.010533482 0.68713844
-0.039585631 0.016713947 0.68759525
-0.042255037 0.020247191 0.68774796
-0.045797959 0.025541186 0.68784857
-0.04568252 0.028551415 0.6873126
-0.045633309 0.029837161 0.6870842
-0.049273308 0.03255558 0.68764353
-0.058859073 0.050513223 0.68730867
-0.061671913 0.051539943 0.68792045
-0.062470123 0.054551423 0.68763876
-0.063266233 0.057554573 0.68735796
0.0079694055 -0.070839167 0.68899763
0.0017654082 -0.056493074 0.68832523
0.00044156489 -0.055670798 0.68855679
-0.00088366168 -0.053461701 0.68855637
-0.0017649732 -0.050301731 0.68827266
-0.0035359154 -0.04950279 0.68863297
-0.0035359154 -0.04950279 0.68863297
-0.0088461097 -0.041576684 0.68878555
-0.0097107626 -0.037519008 0.68834752
-0.012372557 -0.034466416 0.68857867
-0.014112721 -0.029107481 0.68816614
-0.015892118 -0.027369767 0.68837136
-0.025628293 -0.012372315 0.6885739
-0.03051473 -0.0053068697 0.68875325
-0.029967161 -0.0017628074 0.68800724
-0.03530632 0.0052959621 0.68831408
-0.03530632 0.0052959621 0.68831408
-0.040690277 0.011499435 0.68877596
-0.04250031 0.013281316 0.68898165
-0.041444518 0.01675415 0.68810648
-0.045914084 0.022515401 0.68838775
-0.045914084 0.022515401 0.68838775
-0.055578802 0.039699137 0.68820429
-0.062696353 0.050333709 0.68840802
-0.065250628 0.056432992 0.68809855
0.0035582937 -0.06938675 0.68998361
0.0044392431 -0.068364352 0.68956715
0.003545373 -0.064703047 0.68920374
0.003545373 -0.064703047 0.68920374
0.00044349104 -0.0612389 0.68948799
-0.0017791335 -0.060490549 0.68998194
-0.0035526496 -0.055510297 0.68964291
-0.0062193805 -0.05153203 0.68972033
-0.0062013087 -0.047838658 0.68909705
-0.016893182 -0.034675449 0.68987286
-0.017739175 -0.030156583 0.68935233
-0.017739175 -0.030156583 0.68935233
-0.021274034 -0.02349022 0.68922186
-0.025777733 -0.019555539 0.68981797
-0.027562143 -0.01689291 0.68986958
-0.030207282 -0.01154983 0.68971229
-0.031528737 -0.0088812411 0.68963408
-0.037350833 -0.0008893013 0.68991894
-0.046097629 0.017729878 0.68923986
-0.047882114 0.020394266 0.68929124
-0.048792437 0.021291256 0.68939495
-0.048721462 0.02303198 0.6890834
-0.053163242 0.030125827 0.68913394
-0.055651799 0.031378023 0.68961775
-0.054948539 0.032791883 0.68918532
-0.066670567 0.048447117 0.6898309
-0.068439946 0.051552176 0.68980426
-0.068340458 0.05325231 0.68949229
-0.068340458 0.05325231 0.68949229
-0.002675853 -0.062436551 0.6905576
-0.0080392733 -0.055381656 0.69087183
-0.0084851161 -0.054481611 0.69084501
-0.014298852 -0.045577556 0.69097459
-0.011567024 -0.044488519 0.69003129
-0.018730545 -0.035677224 0.69055271
-0.021375032 -0.029390663 0.69023776
-0.025022613 -0.027703613 0.69097137
-0.02588148 -0.024542928 0.69068164
-0.031258881 -0.01652272 0.69083762
-0.040517598 0.0026714802 0.69020504
-0.046299476 0.012465239 0.69017696
-0.049885035 0.017816126 0.69028074
-0.053552233 0.021420896 0.6906991
-0.05259572 0.021394849 0.69043738
-0.05259572 0.021394849 0.69043738
-0.054371763 0.02451171 0.69041014
-0.057859302 0.032045156 0.69012111
-0.061404608 0.038266629 0.69006771
-0.061404608 0.038266629 0.69006771
-0.06650123 0.042846277 0.69072157
-0.06764172 0.048506036 0.69009209
-0.0035905612 -0.069118321 0.69193113
-0.0053752847 -0.063607514 0.69150627
-0.0053713336 -0.062665552 0.69134736
-0.011634936 -0.051909715 0.69129246
-0.011634936 -0.051909715 0.69129246
-0.015255886 -0.049357265 0.69187438
-0.017054843 -0.046676397 0.69192702
-0.017624553 -0.04361292 0.69157255
-0.020579586 -0.036685348 0.69123685
-0.024134882 -0.02949819 0.69102442
-0.025503971 -0.028635725 0.69126147
-0.030496137 -0.023320585 0.69176334
-0.032274101 -0.019723058 0.69165647
-0.031339191 -0.019698948 0.69139159
-0.031339191 -0.019698948 0.69139159
-0.043063015 -0.0026914477 0.6918118
-0.045720775 0.002689451 0.69165242
-0.045720775 0.002689451 0.69165242
-0.046537273 0.006264627 0.69128108
-0.048356667 0.0085070133 0.69141293
-0.052807916 0.01655826 0.69130564
-0.052807916 0.01655826 0.69130564
-0.055635735 0.017946988 0.69186115
-0.064450383 0.035805762 0.69132847
-0.075412102 0.05027473 0.69196081
-0.072426021 0.050519243 0.69108808
-0.0743412 0.051501289 0.69145715
-0.076179035 0.053773433 0.69158918
-0.0072164894 -0.069458723 0.69299841
-0.0062927101 -0.066522956 0.69224942
-0.015278343 -0.051227391 0.69219327
-0.017527541 -0.047638193 0.69221932
-0.020701015 -0.044102162 0.69251144
-0.023401057 -0.039601803 0.6925106
-0.024295177 -0.037792504 0.69245768
-0.028822381 -0.031524479 0.69266969
-0.032369282 -0.023377836 0.69229484
-0.037847556 -0.017121464 0.69277412
-0.036873858 -0.016188532 0.69234681
-0.039688721 -0.015334308 0.69298762
-0.039688721 -0.015334308 0.69298762
-0.040580668 -0.013526887 0.69293356
-0.040431295 -0.0089847147 0.69213217
-0.044046625 -0.0035956502 0.69223785
-0.050474763 0.003605336 0.69282311
-0.049403254 0.006287694 0.69207609
-0.055841237 0.013509989 0.69266135
-0.055841237 0.013509989 0.69266135
-0.06133524 0.020745724 0.69298089
-0.060314443 0.021605194 0.69255286
-0.060314443 0.021605194 0.69255286
-0.064902827 0.027493402 0.69284558
-0.070232868 0.037817687 0.69260252
-0.070232868 0.037817687 0.69260252
-0.072987817 0.041449904 0.69276249
-0.074863642 0.043294638 0.69297671
-0.075467728 0.049413383 0.69212067
-0.079275154 0.052249521 0.692707
-0.081977397 0.056753606 0.69270611
-0.081977397 0.056753606 0.69270611
-0.0081345746 -0.070499659 0.69342828
-0.0094870813 -0.067762882 0.69334698
-0.020762308 -0.047843575 0.69315481
-0.024439344 -0.045258045 0.69374681
-0.026178364 -0.038816184 0.69315314
-0.02708438 -0.037466899 0.69317985
-0.034353212 -0.027120948 0.69347417
-0.034353212 -0.027120948 0.69347417
-0.038044304 -0.023551226 0.69390512
-0.044340651 -0.011763841 0.69368649
-0.043382075 -0.011749297 0.6934166
-0.047055207 -0.0072392821 0.69368565
-0.046093281 -0.0072303116 0.69341576
-0.050605752 0.0004516691 0.69338781
-0.05337587 0.0036187172 0.69362956
-0.054307364 0.0045256317 0.69373751
-0.052328937 0.0054133534 0.69303751
-0.068719827 0.02983889 0.69351679
-0.067731902 0.029802024 0.69324732
-0.069555104 0.032519281 0.6933006
-0.077799425 0.044327587 0.69362205
-0.077655241 0.04650268 0.69321728
-0.012732345 -0.070937335 0.69478303
-0.016353792 -0.063598096 0.69456351
-0.017258022 -0.061765581 0.69450867
-0.020885989 -0.055393279 0.69445306
-0.021804888 -0.054512233 0.69456184
-0.025479993 -0.050505131 0.69491494
-0.025479993 -0.050505131 0.69491494
-0.0272559 -0.045426518 0.69456011
-0.034583848 -0.03549394 0.69493943
-0.035485066 -0.033665329 0.69488442
-0.036358677 -0.030904889 0.69466561
-0.040044148 -0.026392728 0.69493777
-0.041874658 -0.023668259 0.69499195
-0.04079178 -0.019942641 0.69406617
-0.043608263 -0.018170118 0.69455421
-0.045436457 -0.015448421 0.69460821
-0.052797668 -0.005461812 0.69498855
-0.055528365 -0.00091028214 0.69498765
-0.053514794 0.00045333803 0.69419813
-0.059870895 0.010885596 0.69422328
-0.063720092 0.012744009 0.69498432
-0.060717653 0.013593525 0.69400573
-0.064374194 0.019040257 0.69411319
-0.064374194 0.019040257 0.69411319
-0.070913605 0.02636534 0.69470954
-0.071724512 0.029506758 0.69440925
-0.071724512 0.029506758 0.69440925
-0.076367907 0.035456508 0.69470781
-0.075365104 0.03541249 0.69443536
-0.080933236 0.042740047 0.69476104
-0.081882939 0.043670893 0.69486922
-0.082648903 0.047227949 0.69448763
-0.082648903 0.047227949 0.69448763
-0.08619567 0.054439366 0.6942687
-0.08619567 0.054439366 0.6942687
-0.013658727 -0.071025372 0.69505548
-0.018284354 -0.068566352 0.69593322
-0.021019001 -0.063514143 0.69584918
-0.020359969 -0.061383288 0.69530916
-0.020359969 -0.061383288 0.69530916
-0.024603723 -0.053763688 0.69521654
-0.031877488 -0.040985346 0.6951046
-0.031877488 -0.040985346 0.6951046
-0.038357668 -0.033791274 0.69570631
-0.039202303 -0.030085474 0.6953209
-0.044739023 -0.022826016 0.69564927
-0.042806249 -0.022769272 0.69510114
-0.047513399 -0.019188136 0.69581294
-0.046472084 -0.017313123 0.69520891
-0.05659325 -0.0027383566 0.6955896
-0.058521029 -0.0018288195 0.69597512
-0.05556969 -0.0018219352 0.69515127
-0.060094226 0.0063736141 0.69504023
-0.064904943 0.0091415644 0.69591784
-0.063910916 0.0091301203 0.69564241
-0.066600032 0.014597267 0.69547737
-0.069492646 0.01645878 0.69597173
-0.069492646 0.01645878 0.69597173
-0.072073169 0.023720294 0.69547474
-0.073861018 0.027355939 0.69536507
-0.077633724 0.031509981 0.69572085
-0.079212986 0.038240731 0.69503427
-0.083848491 0.044658452 0.69525218
-0.085820578 0.04564926 0.69563562
-0.091400385 0.053469062 0.69588161
-0.091297783 0.054778695 0.69563389
-0.023876827 -0.065202117 0.69692838
-0.024751589 -0.06142059 0.69653863
-0.025681166 -0.060534179 0.69664949
-0.030297315 -0.054167926 0.69687057
-0.036714457 -0.043139488 0.69681293
-0.037509922 -0.037509918 0.69609219
-0.03841513 -0.035671204 0.69603664
-0.040254395 -0.032935411 0.69609129
-0.044034768 -0.030273914 0.69669932
-0.043902669 -0.026524544 0.69603491
-0.047763862 -0.025719017 0.69697571
-0.046646405 -0.021951258 0.69603413
-0.052329894 -0.017443299 0.69686288
-0.052251328 -0.015583724 0.6965301
-0.058608804 -0.0036630332 0.69630623
-0.061540708 -0.0027555525 0.69697142
-0.06334573 0.00091809034 0.69685936
-0.064199425 0.0036685467 0.69663745
-0.067051291 0.006429553 0.69696975
-0.076101504 0.023839027 0.69657731
-0.077954635 0.026596308 0.69663233
-0.080524072 0.03385672 0.69613326
-0.082436524 0.035722494 0.69635421
-0.086337671 0.038576424 0.69696367
-0.086337671 0.038576424 0.69696367
-0.089507088 0.044524103 0.69685125
-0.090815373 0.047701031 0.69668388
-0.022677239 -0.068644099 0.69716996
-0.02667186 -0.062540889 0.69726145
-0.030434731 -0.059947193 0.69787592
-0.032287322 -0.05719471 0.69793159
-0.029408695 -0.056979358 0.69709301
-0.034037828 -0.050596774 0.69731498
-0.042380664 -0.038695365 0.69764757
-0.046963267 -0.030387998 0.69753402
-0.04889109 -0.029519171 0.69792628
-0.046857171 -0.027563035 0.6970318
-0.057149395 -0.014748245 0.69775522
-0.066249184 0.0027603507 0.69736004
-0.067203075 0.003682375 0.69747168
-0.070123307 0.0055360794 0.69797504
-0.068054989 0.0064376593 0.69724762
-0.073739432 0.012904376 0.69774997
-0.079929084 0.027561784 0.69702148
-0.085504942 0.035856903 0.69718629
-0.091226928 0.04238826 0.69768751
-0.027751995 -0.068454921 0.69855237
-0.027709901 -0.066503733 0.69821364
-0.029564625 -0.063748717 0.69826943
-0.033226553 -0.056300521 0.69804382
-0.037507646 -0.053714216 0.69880366
-0.038852185 -0.049952805 0.69854891
-0.037879232 -0.049889684 0.6982668
-0.042638365 -0.046346009 0.699
-0.04257356 -0.044424564 0.69865996
-0.044435725 -0.041658521 0.69871604
-0.045315664 -0.038842022 0.69849038
-0.045246948 -0.036936283 0.69815177
-0.047105547 -0.034174591 0.69820756
-0.064685777 -0.0055444837 0.69831479
-0.07401894 0.0083271265 0.6985935
-0.07401894 0.0083271265 0.6985935
-0.079690509 0.015752763 0.69893074
-0.080352746 0.021242678 0.69819707
-0.087895773 0.031457454 0.69858909
-0.090533525 0.037876308 0.69824934
-0.030643208 -0.068715066 0.69940114
-0.035375651 -0.064234734 0.69996995
-0.035241246 -0.059353679 0.69911599
-0.042768393 -0.050206363 0.69968253
-0.045488007 -0.043631345 0.69933939
-0.047284652 -0.038940281 0.69905537
-0.051933244 -0.031530917 0.69911075
-0.058587477 -0.024178952 0.69973373
-0.061237078 -0.016701013 0.69922066
-0.063971601 -0.011125475 0.69904923
-0.071623825 -0.0027905405 0.69978678
-0.074414074 0.0018603504 0.69978589
-0.07617756 0.0065029562 0.69950074
-0.076969467 0.010200769 0.69910192
-0.08096578 0.012098342 0.69989824
-0.084666342 0.018607974 0.69983989
-0.088364966 0.025114268 0.69978148
-0.09017913 0.028820157 0.69966662
-0.090110354 0.029727131 0.69949538
-0.091921315 0.033425927 0.69938087
-0.034532607 -0.069065183 0.7005434
-0.034506302 -0.068080008 0.70037174
-0.042073902 -0.058903456 0.70094466
-0.04192923 -0.054508165 0.70016849
-0.044809856 -0.052278161 0.7005977
-0.045766722 -0.0513708 0.70071268
-0.048568569 -0.046700567 0.70071179
-0.048568569 -0.046700567 0.70071179
-0.051390111 -0.042513803 0.70079744
-0.053251889 -0.039238214 0.70076793
-0.052250911 -0.039188147 0.70048028
-0.054089248 -0.035437763 0.70036465
-0.057017721 -0.033649832 0.7008822
-0.057804711 -0.028902322 0.70030689
-0.061470985 -0.021421701 0.70007628
-0.070066608 -0.01121065 0.70076263
-0.070765801 -0.0055867434 0.70001596
-0.078413524 0.0037339628 0.70058709
-0.080423817 0.0046758056 0.70098937
-0.079205267 0.0074546039 0.70018446
-0.081027701 0.011176258 0.70007002
-0.084013827 0.013068825 0.70058525
-0.083885245 0.014912933 0.70024037
-0.088839203 0.018702984 0.70098668
-0.088771053 0.019623071 0.70081341
-0.089545406 0.023319125 0.7004109
-0.092555627 0.025242448 0.70092767
-0.038491491 -0.070411265 0.70187199
-0.039420128 -0.068515956 0.70181352
-0.041212641 -0.062755615 0.70134908
-0.042138431 -0.060866624 0.70129085
-0.044947486 -0.056184381 0.70129001
-0.048755325 -0.051568091 0.7015788
-0.05152826 -0.045906961 0.70140374
-0.05438029 -0.042191565 0.70157611
-0.057236902 -0.038470715 0.70174962
-0.0561403 -0.036491185 0.70111269
-0.063690245 -0.025288761 0.70134199
-0.069309413 -0.015922427 0.70134014
-0.069309413 -0.015922427 0.70134014
-0.072285451 -0.014081568 0.7018612
-0.073092669 -0.010307938 0.70145404
-0.07779754 -0.0028119385 0.70151055
-0.08263164 0.0028169751 0.70191526
-0.083420798 0.0065611601 0.70150876
-0.084336355 0.0084336102 0.70145047
-0.091996744 0.018774867 0.70185399
-0.04332985 -0.066878706 0.70262921
-0.046191249 -0.063159436 0.70280433
-0.05277589 -0.051833481 0.70274353
-0.055474177 -0.044191301 0.70221567
-0.058294665 -0.039489925 0.70221478
-0.061256751 -0.037696481 0.70273983
-0.060144264 -0.035710633 0.70209825
-0.068866365 -0.026414484 0.70297241
-0.066807568 -0.026346654 0.70238739
-0.066807568 -0.026346654 0.70238739
-0.075449809 -0.015089959 0.70291144
-0.0875507 0.0075312555 0.70249695
-0.0875507 0.0075312555 0.70249695
-0.092352279 0.014135569 0.70272982
-0.046406388 -0.069136024 0.70386428
-0.047377955 -0.068224251 0.70398259
-0.048200641 -0.063322425 0.70339143
-0.053996358 -0.056838274 0.70392108
-0.055861853 -0.053021431 0.70380199
-0.058520317 -0.044362158 0.70309341
-0.067993298 -0.029274911 0.70320821
-0.072959125 -0.025583059 0.70397341
-0.078399971 -0.01227954 0.70326293
-0.082284197 -0.0075663626 0.70355678
-0.084132008 -0.0037812293 0.70343804
-0.087821871 0.0037772954 0.70320082
-0.089872867 0.004730165 0.70361346
-0.091646038 0.0094480813 0.70331752
-0.050416145 -0.068489879 0.7048732
-0.052128922 -0.060659111 0.70404041
-0.053103983 -0.059741974 0.70415789
-0.054972097 -0.055919886 0.70403945
-0.064532623 -0.041756392 0.70433259
-0.064482376 -0.040775627 0.70415425
-0.07033544 -0.034217238 0.70468748
-0.070171431 -0.031292677 0.70415241
-0.072198637 -0.030399412 0.70456749
-0.073072821 -0.027520955 0.70432991
-0.075860403 -0.021809876 0.70415062
-0.084590919 -0.010455072 0.70468283
-0.053520046 -0.069767237 0.70595163
-0.054333791 -0.064819276 0.70535034
-0.062072273 -0.054432601 0.70576882
-0.061037634 -0.054361671 0.7054683
-0.063798852 -0.047611088 0.70510823
-0.075341813 -0.030518234 0.70546365
-0.078263856 -0.026724249 0.70564306
-0.079259276 -0.025783151 0.70576233
-0.078202575 -0.025749624 0.70546269
-0.085853577 -0.013355017 0.70552033
-0.088715009 -0.008585304 0.70551938
-0.091504745 -0.002859503 0.70533824
-0.054547027 -0.069858462 0.70625341
-0.066029541 -0.050718337 0.70624971
-0.071996644 -0.045117885 0.70697528
-0.07287991 -0.042193621 0.70673162
-0.070776738 -0.042083472 0.70612723
-0.077572323 -0.032561243 0.70642674
-0.08238177 -0.024906099 0.70648575
-0.088923588 -0.011474013 0.70606089
-0.061664365 -0.067445368 0.70783246
-0.060573403 -0.066342294 0.707344
-0.068282485 -0.053856641 0.70740259
-0.070168816 -0.049983233 0.7072798
-0.0761154 -0.043356866 0.70782769
-0.07687638 -0.038438171 0.70721656
-0.0800111 -0.0375956 0.70794916
-0.079758912 -0.033633292 0.70721555
-0.08270669 -0.029812843 0.70739782
-0.082576275 -0.027845472 0.70703173
-0.090351783 -0.016340196 0.70727324
-0.062909544 -0.071620107 0.70887858
-0.068661451 -0.060924947 0.70869112
-0.068552867 -0.058897525 0.70832193
-0.07161922 -0.057101756 0.70887566
-0.075350396 -0.048301518 0.70844203
-0.080328673 -0.042583883 0.70887285
-0.083977044 -0.032818615 0.70825434
-0.087010354 -0.029970229 0.70862335
-0.084852859 -0.029891372 0.70800894
-0.089839026 -0.024150252 0.7084372
-0.066868819 -0.066868842 0.7091862
-0.070951603 -0.064148039 0.70986855
-0.070782438 -0.061086178 0.7093091
-0.072740786 -0.058192641 0.70937067
-0.076782607 -0.05442816 0.70986664
-0.074581347 -0.053272367 0.7090596
-0.083363928 -0.039743274 0.70924282
-0.071178518 -0.068253368 0.71061903
-0.074162729 -0.064404458 0.71080673
-0.075178295 -0.063462168 0.71093124
-0.075118385 -0.062436074 0.71074343
-0.076012671 -0.059445798 0.7104919
-0.075951897 -0.058424532 0.71030372
-0.079062425 -0.056612611 0.71086794
-0.079825148 -0.051594287 0.71023977
-0.082877725 -0.048751622 0.71061516
-0.085665308 -0.04185921 0.71023786
-0.087705478 -0.039954692 0.71048796
-0.087705478 -0.039954692 0.71048796
-0.090628617 -0.035082012 0.71048695
-0.078357935 -0.062686294 0.71168756
-0.084166393 -0.051869959 0.71149552
-0.086146586 -0.048946917 0.71155822
-0.090182647 -0.044111043 0.71187395
-0.077711552 -0.069842011 0.71270549
-0.078737535 -0.06889534 0.71283311
-0.079507798 -0.06380257 0.7121954
-0.079443775 -0.062770337 0.71200454
-0.083680235 -0.061037332 0.71289444
-0.088340536 -0.049078077 0.71219152
-0.090327673 -0.046145648 0.71225446
-0.080923386 -0.069080949 0.7134732
-0.08484748 -0.062155724 0.71340758
-0.086773574 -0.05817771 0.71327829
-0.088769406 -0.055234313 0.71334195
-0.088235028 -0.063449919 0.7145679
-0.087125532 -0.063364059 0.71424395
0.068583697 0.053079113 0.65136594
0.067121938 0.041049983 0.65378678
0.067000836 0.049011648 0.65248799
0.065659724 0.031052776 0.65586758
0.061072066 0.046964325 0.6544826
0.061072066 0.046964325 0.6544826
0.053683903 0.051065058 0.65585512
0.055067368 0.05096082 0.65548682
0.052906275 0.060517833 0.6544894
0.067356259 0.015893042 0.6579321
0.069030374 0.022937119 0.6562869
0.067018308 0.024967503 0.65650755
0.061237555 0.027216753 0.65774196
0.059133835 0.031172752 0.65766597
0.055200249 0.037052393 0.65777797
0.060741704 0.0368701 0.65626431
0.045137733 0.053333111 0.65785682
0.048995033 0.055002376 0.65650243
0.063119695 0.020945136 0.65826738
0.055042509 0.029140115 0.65914637
0.050992064 0.036975749 0.6589635
0.045554154 0.041030474 0.65980011
0.043605752 0.043605775 0.65991211
0.041069496 0.052898463 0.65906328
0.068928741 -0.0028803889 0.66063666
0.059089903 0.0071445443 0.66170019
0.064303584 0.0084207058 0.66003418
0.062006623 0.012248248 0.66003299
0.058190934 0.018376052 0.66007066
0.049499504 0.021656036 0.66194403
0.0482416 0.034841031 0.66008747
0.027836636 0.057992995 0.6618982
0.029252728 0.060559314 0.6610738
0.071034402 -0.016862717 0.66239023
0.062961683 -0.0029062834 0.66230381
0.064250395 -0.0038704872 0.6621061
0.041156013 0.028941585 0.66304916
0.033618983 0.035964519 0.66397369
0.033618983 0.035964519 0.66397369
0.02299363 0.057094537 0.66339797
0.019545533 0.05941838 0.66396993
0.071022913 -0.028997414 0.66442478
0.062961258 -0.018943835 0.66498846
0.062961258 -0.018943835 0.66498846
0.062962115 -0.015080091 0.66434145
0.058976889 -0.0090132914 0.66443646
0.054918129 -0.0050284923 0.66490048
0.050970376 0.00081205176 0.66502297
0.054270923 0.00026090941 0.66419548
0.046972744 0.0051205903 0.66541576
0.039043147 0.016958103 0.66564381
0.044598866 0.016822264 0.66411835
0.037078455 0.023014177 0.6651777
0.027653625 0.033974439 0.66596949
0.02891447 0.042611487 0.66417229
0.022952225 0.052816294 0.6641255
0.015209708 0.057095684 0.6655668
0.070795275 -0.039155178 0.6661886
0.070795275 -0.039155178 0.6661886
0.063629091 -0.037100405 0.66784155
0.065136954 -0.031084232 0.6664142
0.065136954 -0.031084232 0.6664142
0.058886237 -0.023094753 0.6668188
0.061115697 -0.023240164 0.66622174
0.051896609 -0.018363386 0.66797465
0.047067586 -0.0069661466 0.66741228
0.04312028 -0.0027476484 0.66780615
0.046924658 0.00079066557 0.66615367
0.040963106 0.0069425404 0.66678536
0.035095241 0.015070955 0.66705984
0.034802034 0.020828795 0.66617775
0.032913417 0.023184439 0.66630977
0.032681279 0.024774592 0.66610843
0.021082997 0.036994949 0.66729468
0.022816967 0.03690479 0.66682661
0.018921904 0.038940173 0.66757137
0.020975219 0.043038972 0.66631305
0.014945062 0.045036133 0.66765893
0.011769908 0.049074933 0.66786772
0.011769908 0.049074933 0.66786772
0.012646816 0.058491528 0.66604728
0.069093987 -0.050869774 0.66862345
0.063121811 -0.047115218 0.6696592
0.066875756 -0.045183945 0.66828972
0.060982089 -0.043070421 0.66957837
0.056893904 -0.034981225 0.66936362
0.056893904 -0.034981225 0.66936362
0.053602897 -0.032242477 0.66982216
0.05696772 -0.029134283 0.66836417
0.05696772 -0.029134283 0.66836417
0.051058009 -0.025127426 0.66934037
0.053012654 -0.022805825 0.66840696
0.050953642 -0.02106978 0.66869026
0.045735836 -0.01893913 0.66978776
0.045735836 -0.01893913 0.66978776
0.043550584 -0.016129822 0.66992599
0.050310668 -0.015971631 0.66801637
0.045023572 -0.012921653 0.66897887
0.033651955 0.0010073557 0.66981602
0.030892551 0.010832399 0.66894037
0.02693942 0.014876999 0.66936499
0.021099363 0.025118658 0.66927809
0.018983664 0.033063564 0.66853774
0.010879694 0.039086968 0.66978782
0.014648788 0.042747982 0.66812468
0.0068200072 0.050950997 0.66893315
0.0028142636 0.055083342 0.66935772
0.064962842 -0.061000932 0.6714704
0.061097119 -0.053181555 0.67123884
0.053367168 -0.044404715 0.67192376
0.042953499 -0.023060629 0.67125273
0.032566201 0.00080723071 0.67015219
0.024971638 0.0051160222 0.67154729
0.028910555 0.0050540306 0.67045999
0.028910555 0.0050540306 0.67045999
0.018980941 0.023019589 0.67021978
0.018980941 0.023019589 0.67021978
0.0097809006 0.027712554 0.67199814
0.0070585683 0.033121616 0.67185116
-0.0027152577 0.049279749 0.67186993
-0.0048703691 0.057083629 0.67116421
-0.0013463774 0.056811254 0.670228
-0.0083464738 0.059035286 0.67180622
0.061108865 -0.065210506 0.67324895
0.054863837 -0.052817404 0.67291486
0.048898675 -0.047152694 0.67362881
0.05290575 -0.046982624 0.67248374
0.044966031 -0.040754415 0.67365384
0.048825137 -0.041125558 0.67264056
0.046461839 -0.033419877 0.67200887
0.036931995 -0.023011509 0.67292255
0.036931995 -0.023011509 0.67292255
0.036931995 -0.023011509 0.67292255
0.033061229 -0.012857605 0.67230159
0.023027297 -0.0049346685 0.67377138
0.016969308 0.0089352578 0.67313784
0.019036194 0.0090581682 0.67254132
0.014681276 0.018759429 0.67213118
0.0071299886 0.021116149 0.6738407
0.0089813471 0.026945308 0.67234915
-0.00082312775 0.033748209 0.67394221
0.0010246501 0.034859456 0.6732415
-0.0069673723 0.048974529 0.67310596
0.054361757 -0.058892027 0.67407143
0.043141883 -0.0431429 0.6745618
0.039161198 -0.041026831 0.67531693
0.035195425 -0.036960915 0.67574143
0.031600416 -0.03243202 0.6759851
0.03048127 -0.019359857 0.67410886
0.025174197 -0.012793712 0.6744886
0.017455094 -0.0083119273 0.67588979
0.016919119 0.0010312945 0.6744749
0.016919119 0.0010312945 0.6744749
0.01121313 0.0029070303 0.67575091
0.012782269 0.0088648796 0.67431629
0.0088836187 0.012809731 0.67474246
0.0088836187 0.012809731 0.67474246
0.0010364943 0.021157518 0.67553186
0.0051558604 0.021038372 0.67440379
0.0051558604 0.021038372 0.67440379
-0.001108038 0.022988727 0.67582309
0.0027463106 0.026640585 0.67413747
-0.0070502986 0.03504258 0.67546111
-0.0032958412 0.036666095 0.6741432
-0.011082558 0.039204165 0.67588806
-0.012831392 0.046978213 0.67507422
-0.016922504 0.057163876 0.67450923
0.052403629 -0.067376077 0.67603672
0.048933823 -0.064921811 0.67659318
0.046893388 -0.059102677 0.67618775
0.041025624 -0.051204789 0.6765008
0.024341594 -0.021220997 0.67613119
0.012993133 -0.011107646 0.67760074
0.0048793494 0.0048795682 0.67718571
0.00091840589 0.013033429 0.67692453
0.0027735773 0.014838725 0.67610568
-0.014278796 0.031917304 0.67799842
-0.012938977 0.037146568 0.67674977
0.036857069 -0.056866363 0.67860997
0.03493771 -0.052828263 0.678469
0.026858412 -0.045258749 0.67945325
0.024933742 -0.040993318 0.67927569
0.020931702 -0.035098873 0.67940432
0.017224632 -0.026935799 0.67907113
0.0010573411 -0.0029625781 0.6795634
0.0067212009 -0.0033605695 0.67805171
0.0067212009 -0.0033605695 0.67805171
0.00020998753 0.0071432292 0.6781081
-0.0070623341 0.0090395613 0.6798169
-0.0089017656 0.011656851 0.67989159
-0.0071573942 0.017050464 0.67850268
-0.014412828 0.020771265 0.67990184
-0.011162473 0.023165863 0.67859507
-0.016983427 0.029233739 0.67920125
-0.019002138 0.033147335 0.67910886
-0.02901045 0.055077218 0.67822695
0.028870475 -0.053213224 0.68022406
0.026775856 -0.051002279 0.68043762
0.016798507 -0.035193317 0.68057185
0.014894091 -0.032767683 0.68069649
0.012728022 -0.025456011 0.680076
0.0034246778 -0.020976305 0.68191922
0.0087707099 -0.019239318 0.68013835
-0.0029936607 -0.0089803785 0.68169963
-0.0071317144 -0.0028526485 0.68182695
-0.020920524 0.022841129 0.68136853
-0.025102545 0.027099144 0.68182111
-0.025102545 0.027099144 0.68182111
-0.023005856 0.028969234 0.68092388
-0.029033182 0.03874756 0.68096668
-0.031085063 0.043007605 0.68082535
-0.032815974 0.044854864 0.68099838
-0.038516041 0.049214795 0.68185699
-0.037167303 0.049128696 0.68149561
0.021018233 -0.052760825 0.68233627
0.021018233 -0.052760825 0.68233627
0.010718189 -0.035013702 0.68223608
0.0047302665 -0.028813317 0.68286669
0.00094559399 -0.022710217 0.68289983
-0.014693737 -0.0025929809 0.68389112
-0.010862059 0.00085730851 0.68224549
-0.010862059 0.00085730851 0.68224549
-0.015044386 0.0047279969 0.68276298
-0.022829358 0.015075661 0.68320018
-0.028811943 0.027091451 0.68285614
-0.03314314 0.033142723 0.68305016
-0.03918026 0.042839278 0.68310928
-0.042682201 0.046993114 0.6833899
-0.045204896 0.052953869 0.68309522
-0.045204896 0.052953869 0.68309522
0.0190531 -0.066992588 0.68526578
0.015232936 -0.061259277 0.68537068
0.011049437 -0.05699268 0.68582225
0.011049437 -0.05699268 0.68582225
0.003036476 -0.036874764 0.68468791
0.003036476 -0.036874764 0.68468791
-0.0013029412 -0.030830339 0.68488538
-0.0013029412 -0.030830339 0.68488538
-0.005192217 -0.019903481 0.68414021
-0.010873873 -0.016962983 0.68523139
-0.016868658 -0.010760963 0.68586373
-0.011247043 -0.0095167458 0.68408895
-0.017305046 0.0004324615 0.68411201
-0.021349555 0.0067796856 0.68417662
-0.029203232 0.010896474 0.68567592
-0.027036235 0.01077936 0.68509167
-0.030813424 0.013080871 0.68575895
-0.03262886 0.018967474 0.68527955
-0.029414589 0.020763248 0.68408358
-0.041350029 0.032861762 0.68538404
-0.04913732 0.043322086 0.68580312
-0.053263873 0.059109189 0.68431056
0.0077027241 -0.062943235 0.68775082
0.0091840662 -0.057292849 0.68639225
0.0014677064 -0.053136926 0.68784684
-0.0046961783 -0.042557649 0.68779373
-0.0013132293 -0.040702164 0.68654054
-0.017045472 -0.012784179 0.6862517
-0.021829877 -0.0034928024 0.68602955
-0.037261404 0.017096147 0.68688357
-0.04090536 0.018912949 0.68759501
-0.046684265 0.026865333 0.68787396
-0.048728488 0.037230324 0.68670893
-0.053281449 0.048477218 0.686095
0.0035570017 -0.068917081 0.68990564
0.0068497937 -0.066737548 0.68862325
0.0068497937 -0.066737548 0.68862325
0.0014815055 -0.065042332 0.68983567
0.0044087614 -0.059518456 0.68809539
-0.0031057429 -0.055013031 0.68943512
-0.0030956913 -0.050853558 0.68873632
-0.0068688402 -0.047191482 0.68917465
-0.012453746 -0.042698562 0.68997872
-0.01465293 -0.03685382 0.6896134
-0.01465293 -0.03685382 0.6896134
-0.027057089 -0.014859516 0.68938857
-0.03078459 -0.0068657249 0.68908948
-0.03078459 -0.0068657249 0.68908948
-0.034907363 0.0030928627 0.68857145
-0.04295329 0.0093310028 0.68976927
-0.046704482 0.017305907 0.68947989
-0.051137432 0.033062831 0.68807793
-0.057233572 0.035049692 0.68944395
-0.056943536 0.041051984 0.68835837
-0.062602624 0.043066703 0.68959808
-0.06058057 0.044882052 0.68873072
-0.06530194 0.046865728 0.68971431
-0.061327726 0.048973575 0.68825406
-0.0049300268 -0.064983264 0.69161206
-0.0049155792 -0.061218098 0.69097799
-0.0090320325 -0.055082191 0.69109815
-0.0053399741 -0.055179745 0.69008553
-0.016692618 -0.045259282 0.69158864
-0.027230386 -0.022766329 0.69076031
-0.027230386 -0.022766329 0.69076031
-0.032670468 -0.017006788 0.69131207
-0.037088655 -0.012861351 0.69184941
-0.038883422 -0.0049164221 0.69101977
-0.035602577 -0.0048955232 0.69010216
-0.043331318 0.003126815 0.69091308
-0.050638922 0.011203088 0.6915977
-0.049848579 0.018693238 0.69012356
-0.058622044 0.023029994 0.69184256
-0.051603612 0.022242963 0.69001842
-0.062923349 0.037039667 0.69069636
-0.062923349 0.037039667 0.69069636
-0.070909828 0.051174872 0.69055581
-0.012685033 -0.066143394 0.69396716
-0.014868033 -0.05530395 0.69276118
-0.023030678 -0.04470624 0.69326198
-0.032609653 -0.032609642 0.69390678
-0.027569678 -0.031165561 0.69226074
-0.036787659 -0.02121469 0.69316375
-0.045395117 -0.0013485253 0.69223714
-0.051061001 0.0011292025 0.69340122
-0.055697192 0.016619161 0.69210047
-0.063758142 0.030532092 0.69201845
-0.063758142 0.030532092 0.69201845
-0.07091032 0.034777373 0.69330049
