# .PCD v0.7 - Point Cloud Data file format
VERSION 0.7
FIELDS x y z
SIZE 4 4 4
TYPE F F F
COUNT 1 1 1
WIDTH 1331
HEIGHT 1
VIEWPOINT 0 0 0 1 0 0 0
POINTS 1331
DATA ascii
0.0033829012 0.044348598 0.65669107
-0.069600828 0.0037826598 0.65786427
-0.058382541 0.01054655 0.65709043
-0.039518591 0.018626332 0.65752816
-0.029506497 0.02269727 0.65787536
-0.02939027 0.024115115 0.65715587
0.00037783384 0.037387766 0.65757096
0.0030281495 0.03785184 0.65798652
-0.0015082372 0.045247138 0.65728194
-0.063646406 0.006061554 0.65814543
-0.040288854 0.015963495 0.65874213
-0.034700301 0.01874296 0.6586681
-0.031448722 0.021218553 0.65817183
-0.018269284 0.025881469 0.65899634
-0.018567111 0.027282566 0.65818238
-0.012548516 0.028900027 0.65882897
-0.0064614508 0.031928048 0.65874809
0.0065813577 0.038473319 0.6585449
0.01065595 0.039579213 0.65897685
-0.0060588419 0.046198666 0.65806329
-0.061332997 0.053003818 0.65802526
-0.061332997 0.053003818 0.65802526
-0.071688652 -0 0.65934038
-0.070666671 0.0005081495 0.65932709
-0.053527702 0.0076468289 0.659832
-0.045494549 0.011469275 0.6598165
-0.045494549 0.011469275 0.6598165
-0.0034404364 0.031347841 0.6598078
0.00038198344 0.033598706 0.65957248
0.016447863 0.040545449 0.65991092
0.016447863 0.040545449 0.65991092
-0.065116987 0.001532197 0.6601702
-0.061330922 0.00306651 0.66030407
-0.058606841 0.0045966208 0.66017562
-0.058606841 0.0045966208 0.66017562
-0.049579151 0.0076867342 0.66079533
-0.02844011 0.017678976 0.6607905
-0.027586831 0.019157529 0.66022301
-0.022608854 0.021459416 0.66024882
-0.020742057 0.021510303 0.66068733
-0.011504151 0.026459157 0.6603781
-0.007667311 0.028369039 0.66032684
0.004610145 0.033423141 0.66071951
0.0076664723 0.035648674 0.66030663
0.012274548 0.037590802 0.66043019
0.011520518 0.045314074 0.66064149
-0.032586873 0.050606117 0.66033363
-0.03907235 0.051330328 0.66018039
-0.067548677 -0.0023159534 0.6615957
-0.067548677 -0.0023159534 0.6615957
-0.053346392 0.003865689 0.66187316
-0.053346392 0.003865689 0.66187316
-0.048495259 0.0076976717 0.6610595
-0.038576778 0.011573017 0.66148674
-0.02354165 0.018524721 0.6615659
-0.010823375 0.023966044 0.66186398
-0.0015451601 0.028585434 0.66173887
0.0077362214 0.032492101 0.66199052
0.011566009 0.035469115 0.66137367
0.011566009 0.035469115 0.66137367
0.019304842 0.038609654 0.66164559
0.025440073 0.043941945 0.661336
-0.055539861 0.053997099 0.66145086
-0.042575147 0.0085150301 0.66210431
-0.034073625 0.012390405 0.6621784
-0.032587089 0.012414098 0.66253638
-0.023308026 0.016315609 0.66279012
-0.020532437 0.018595576 0.66227865
-0.020532437 0.018595576 0.66227865
-0.020532437 0.018595576 0.66227865
-0.014752645 0.020575657 0.66267443
-0.012421185 0.021737069 0.66264278
-0.0046647806 0.02487883 0.66291785
-0.0015498543 0.027509525 0.66230553
0.019422397 0.036514103 0.66278088
0.024775458 0.040260136 0.66213793
0.030955426 0.043337584 0.66205412
0.031759687 0.043379098 0.662233
0.031759687 0.043379098 0.662233
-0.034204677 0.052084386 0.66289747
-0.046662237 0.053661585 0.66297591
-0.054730929 -0.00078186393 0.6639818
-0.050651956 0.0023377836 0.66335177
-0.037483018 0.0078089535 0.6637466
-0.037483018 0.0078089535 0.6637466
-0.025395606 0.013283938 0.66387039
-0.0035070144 0.024550013 0.66338015
0.00038976668 0.026491374 0.66332698
0.0035127592 0.027319998 0.66366816
0.0035127592 0.027319998 0.66366816
0.015589792 0.033518076 0.66340697
0.022616765 0.03665477 0.66350329
0.024575764 0.037448511 0.66357297
0.028784236 0.040453494 0.66303587
-0.06415689 -0.0054768026 0.66410995
-0.06415689 -0.0054768026 0.66410995
-0.057508022 -0.0023472756 0.66411567
-0.032988545 0.0078544021 0.66484398
-0.028150689 0.011729449 0.66400421
-0.02159271 0.013348326 0.66478479
-0.010569843 0.019574121 0.66424608
-0.010569843 0.019574121 0.66424608
-0.00078602688 0.022794813 0.66498524
-0.00078281073 0.024267137 0.66420877
0.0062657036 0.027412474 0.66430587
0.018780053 0.033647597 0.66413438
0.029079897 0.036939323 0.66496503
0.029079897 0.036939323 0.66496503
0.032216277 0.038502365 0.66492146
0.020434931 0.046371579 0.66496879
-0.030639248 0.052636653 0.66488743
-0.070451908 -0.011304349 0.66561723
-0.068438299 -0.0094397664 0.66513497
-0.054390617 -0.0035476089 0.66552675
-0.045596991 0.0015723109 0.66501617
-0.04261785 0.0015784502 0.66575599
-0.04253006 0.0023627877 0.66536355
-0.026747692 0.010227054 0.66514695
0.0086670928 0.026394844 0.66544163
0.022564203 0.033321302 0.66525006
0.026754105 0.035409868 0.66519248
0.035424002 0.039359987 0.66526848
0.036583066 0.040123165 0.66515464
0.033853773 0.04487592 0.66529191
-0.065681823 -0.010287523 0.66626966
-0.058650903 -0.0075299144 0.66656727
-0.058650903 -0.0075299144 0.66656727
-0.046721879 -0.0015837848 0.66640222
-0.043634579 -0.00079336762 0.66675466
-0.033330578 0.0039679408 0.66680998
-0.029263187 0.0071180463 0.666161
-0.013457681 0.014249295 0.66633755
-0.012678414 0.014263242 0.66652405
-0.006349449 0.016667277 0.66683316
-0.006349449 0.016667277 0.66683316
-0.0075131534 0.017399326 0.66615653
-0.0015851728 0.019417986 0.66656888
0.0055509913 0.02260004 0.66666842
0.027796675 0.032561779 0.66695619
0.030522868 0.034486234 0.66661966
0.03571805 0.036511749 0.66684604
0.04542806 0.041730158 0.66651177
0.049112547 0.043567598 0.66646057
0.049112547 0.043567598 0.66646057
-0.014286645 0.051590681 0.66683829
-0.022133557 0.052171946 0.66606134
-0.072420403 -0.015519068 0.6673516
-0.064425007 -0.01153329 0.66724098
-0.06239485 -0.010332927 0.66711324
-0.06239485 -0.010332927 0.66711324
-0.054442294 -0.0074365139 0.66756725
-0.053302146 -0.006364435 0.66728544
-0.050586246 -0.0055764467 0.66754675
-0.049259026 -0.0039725006 0.66703093
-0.042306259 -0.002394706 0.66793168
-0.035754684 0.0023836493 0.66704255
-0.024662353 0.0071600676 0.66728663
-0.0035911361 0.015961483 0.66789365
-0.00318059 0.017493218 0.66718715
0.004788029 0.019950151 0.66787696
0.013515233 0.025440454 0.66715485
0.019866185 0.028607339 0.6670664
0.042311694 0.03752169 0.66795635
-0.056733456 -0.0095887482 0.66813242
-0.050317641 -0.0063895285 0.66804302
-0.037660897 -0.0016025901 0.66867149
-0.02165518 0.0056143105 0.66885203
-0.02165518 0.0056143105 0.66885203
-0.017658386 0.0072239041 0.66899937
-0.012837972 0.0096284747 0.6689316
-0.0095960647 0.012394518 0.66827947
-0.0064025703 0.013605475 0.66843617
0.004798044 0.019192189 0.66827989
0.010424197 0.020848393 0.66880804
0.027258659 0.028862119 0.66877514
0.038371231 0.035173655 0.66821396
0.040804915 0.036004335 0.66838193
0.041602664 0.036401898 0.66837102
0.053668976 0.041653544 0.66860723
0.055149131 0.0431602 0.6681807
-0.062679403 -0.014464438 0.66922343
-0.060448747 -0.014507681 0.66980314
-0.056224551 -0.011244923 0.66913313
-0.052358195 -0.010471672 0.66968906
-0.047508612 -0.0080522895 0.66962153
-0.044277277 -0.0064403117 0.66957575
-0.034519985 -0.00080278516 0.66903228
-0.023359971 0.0032220781 0.66969037
-0.015263752 0.0080335438 0.66916871
-0.0024128882 0.013673067 0.6693958
0.0084519852 0.018513441 0.66954935
0.020159278 0.02338478 0.66989678
0.020159278 0.02338478 0.66989678
0.038532235 0.033715695 0.66902375
0.052182257 0.040140182 0.66903561
0.05870042 0.042618096 0.66935217
0.055479057 0.044222444 0.66933501
-0.070317715 -0.020206213 0.67035025
-0.064565443 -0.016948402 0.67006505
-0.04451149 -0.0084980875 0.67060381
-0.043699592 -0.0080924928 0.67059219
-0.04053881 -0.0072969794 0.67096025
-0.037287008 -0.005674094 0.67091459
-0.030722735 -0.0016169846 0.67040902
-0.021884575 0.0016210377 0.67090321
0.0064642061 0.016160548 0.67029625
0.028325848 0.02589792 0.67060626
0.03155563 0.027510047 0.67056012
0.041323498 0.031600326 0.67083681
0.048641566 0.034859806 0.6709401
0.051441438 0.036454409 0.67079657
0.060812809 0.040541857 0.67097503
0.057335906 0.044415116 0.67018092
-0.039699294 0.056713283 0.67081863
-0.058451504 -0.016236544 0.67121375
-0.053675525 -0.014638782 0.67156124
-0.047047142 -0.010545075 0.67105234
-0.043408286 -0.008925125 0.67110449
-0.014659619 0.0032577217 0.67184073
-0.0024385208 0.0097540915 0.67145854
-0.0024385208 0.0097540915 0.67145854
0.0048744646 0.013404354 0.67135489
0.012205578 0.016274095 0.6716674
0.013546033 0.017338654 0.67143983
0.018746274 0.018746287 0.67199332
0.036552161 0.028429449 0.67132097
0.043458015 0.031679541 0.67132711
0.049712718 0.03341347 0.67197096
0.055335768 0.036619246 0.67168093
0.055335768 0.036619246 0.67168093
-0.0064886371 0.052720159 0.6710335
-0.012587832 0.053601697 0.67129117
-0.072185591 0.060830534 0.67103219
-0.022024576 -0.00081571937 0.67215496
-0.0085794227 0.004902631 0.67248881
-0.0065533798 0.0049150586 0.67298728
0.001635625 0.009404406 0.67265898
0.031110218 0.02292335 0.67287076
0.030196421 0.023667485 0.67225027
0.04176563 0.027843744 0.67292976
0.04176563 0.027843744 0.67292976
0.04253665 0.028630435 0.67270726
0.046513483 0.031416565 0.67222762
0.058701806 0.037503898 0.6720531
0.068729706 0.040910542 0.67275512
0.068729706 0.040910542 0.67275512
-0.067323625 -0.024630606 0.6734333
-0.066427357 -0.023782611 0.67320901
-0.064401865 -0.022971436 0.67328572
-0.049302477 -0.016434133 0.67359936
-0.025429066 -0.0045120418 0.67325771
-0.018476723 -0.001642406 0.67347604
-0.012332309 0.00082215667 0.67370707
-0.010686737 0.0016441345 0.67368358
-0.0094272727 0.0032791048 0.67313421
0.007404719 0.009872973 0.67385012
0.0098394509 0.012299299 0.67317605
0.017228305 0.015587509 0.67328256
0.017228305 0.015587509 0.67328256
0.023805715 0.018469512 0.67340118
0.026320098 0.01891759 0.67379141
0.028813386 0.019757777 0.67396921
0.060843837 0.03535521 0.67372167
0.064117298 0.036990732 0.67367399
0.066643164 0.037846744 0.67385221
0.025512161 0.050201327 0.67390484
-0.073337309 -0.028840542 0.67415637
-0.073337309 -0.028840542 0.67415637
-0.067380719 -0.027283058 0.67481899
-0.057677817 -0.021423191 0.67414522
-0.046302911 -0.017363578 0.67483783
-0.045424256 -0.016517937 0.67461038
-0.043672938 -0.014832318 0.67415702
-0.040498093 -0.014464051 0.67475432
-0.030558281 -0.0094982833 0.67461133
-0.024713203 -0.0057664514 0.67409813
-0.0045361277 0.0032991618 0.67434317
0.0032955075 0.0074149072 0.67412299
0.0094961226 0.0094954744 0.6745708
0.018184068 0.013224781 0.67476803
0.026376842 0.018134087 0.67421949
0.039527483 0.024704665 0.67402947
0.046964254 0.028013766 0.67413688
0.0502479 0.029654503 0.67408907
0.056172092 0.03139028 0.67465013
0.077696376 0.041327864 0.67477012
0.067845806 0.045506299 0.67497069
0.027279347 0.05042547 0.67479175
-0.073436946 -0.031532332 0.67555261
-0.062532842 -0.025675833 0.67517936
-0.054722384 -0.022386461 0.6753906
-0.050726447 -0.021621138 0.67598307
-0.052169099 -0.020702034 0.67513794
-0.024471663 -0.0082955211 0.67549384
-0.017402343 -0.0045582056 0.67528331
0.015792593 0.0099743009 0.67588836
0.023210289 0.014505982 0.67534512
0.028265599 0.015795499 0.67592508
0.04551781 0.025655478 0.67502105
0.049802493 0.02656135 0.67561138
0.053552397 0.028229073 0.67566562
0.059719775 0.031518787 0.67546642
0.062129587 0.033135772 0.67521369
0.072174825 0.03733182 0.67550367
0.072469756 0.038098291 0.67517239
-0.068499438 -0.031743646 0.67689508
-0.067586184 -0.030872703 0.67666292
-0.054301791 -0.025062352 0.6769079
-0.054301791 -0.025062352 0.6769079
-0.047595441 -0.021710217 0.67681026
-0.043360025 -0.01917848 0.67652994
-0.041687332 -0.018342406 0.6765058
-0.030790824 -0.012482762 0.67612869
-0.018351363 -0.007507354 0.67660391
-0.014569689 -0.0049953908 0.67622072
-0.014569689 -0.0049953908 0.67622072
0.0045779552 0.0041616112 0.67616057
0.0083345063 0.0054169893 0.67643434
0.035845034 0.018339336 0.67647171
0.035845034 0.018339336 0.67647171
0.038338996 0.019585773 0.67643577
0.055121616 0.02672565 0.67685091
0.073397681 0.0358648 0.67658257
0.078544855 0.037601292 0.67694932
0.058465622 0.04760775 0.67686224
0.043255921 0.049078822 0.67604661
0.016651841 0.052453309 0.67622703
-0.073860988 -0.036091119 0.67785358
-0.035230562 -0.017615259 0.67773134
-0.025552046 -0.012566671 0.67747933
-0.022652479 -0.011745721 0.67776942
-0.016754095 -0.0083770752 0.67746139
-0.00919965 -0.0041816533 0.67712992
0.023464495 0.010474771 0.6775369
0.040132139 0.019229949 0.67707062
0.047787458 0.021797806 0.67762357
0.05357473 0.025113136 0.67731661
0.060374241 0.027671516 0.67766094
0.066903464 0.03177914 0.67712063
0.069627985 0.031877875 0.67774791
0.071895018 0.034275532 0.67704707
0.082788058 0.039303422 0.67710847
0.082788058 0.039303422 0.67710847
-0.027705746 0.058769792 0.67791122
-0.027705746 0.058769792 0.67791122
-0.03443012 0.059622884 0.67795736
-0.07333906 -0.037512988 0.67873442
-0.07233239 -0.036166191 0.67827487
-0.068331331 -0.035431027 0.67888379
-0.058427732 -0.029424146 0.67818207
-0.055687718 -0.029531389 0.67892164
-0.055687718 -0.029531389 0.67892164
-0.043741312 -0.022711813 0.6783002
-0.039610486 -0.021491259 0.67868578
-0.025257042 -0.014312327 0.67847455
-0.01855363 -0.011806875 0.67882347
-0.01855363 -0.011806875 0.67882347
-0.01855363 -0.011806875 0.67882347
-0.010506575 -0.0067243427 0.67814666
-0.0084273014 -0.0067418218 0.67867464
0.0042051617 -0 0.67826474
0.012635591 0.0033695102 0.67858833
0.033680614 0.013472259 0.67850208
0.035438273 0.013500333 0.67892528
0.04216779 0.016867131 0.67882568
0.042518072 0.01768069 0.67848331
0.06322483 0.02697593 0.67873925
0.067345157 0.0294635 0.67845351
0.074807145 0.046229124 0.67814338
-0.074503645 0.064822808 0.67846322
-0.067409754 0.06403929 0.67864853
-0.069408864 -0.037243754 0.67957258
-0.061433524 -0.033894464 0.67979288
-0.061433524 -0.033894464 0.67979288
-0.060907058 -0.03299135 0.67944747
-0.044931039 -0.026280403 0.67988783
-0.040545046 -0.022806585 0.67914742
-0.032220718 -0.02034992 0.67992604
-0.015210047 -0.010984987 0.67922324
0.0016916689 -0.0033833086 0.67942405
0.0092990808 0.0004222095 0.67931217
0.0092990808 0.0004222095 0.67931217
0.018585604 0.0050688386 0.67917436
0.021959465 0.0067567825 0.67912477
0.021959465 0.0067567825 0.67912477
0.023698041 0.006770879 0.67955059
0.038532183 0.013549715 0.67967075
0.060132388 0.023714185 0.67968976
0.070243992 0.028774679 0.67953962
0.071467623 0.029601872 0.67940807
0.075128123 0.032077193 0.67901409
0.07874614 0.032598734 0.67964089
0.036357086 0.051576346 0.67934662
-0.066300005 -0.037400007 0.68042976
-0.066300005 -0.037400007 0.68042976
-0.063667551 -0.0356538 0.68016434
-0.045431565 -0.027174145 0.68023473
-0.017886614 -0.015331388 0.68085063
0.0068093333 -0.0034046471 0.68071139
0.013596888 0.00042442977 0.68038279
0.015311569 0.00085064769 0.68058491
0.022155076 0.0034084916 0.6809411
0.036643464 0.010226101 0.68095446
0.049270734 0.017414182 0.68030787
0.051809561 0.01868543 0.68026966
0.054287322 0.020357728 0.68000472
0.062870376 0.02378881 0.68033308
0.077490784 0.02980417 0.68080324
0.080119632 0.030684084 0.6809938
0.045007419 0.050951809 0.68023574
0.018742479 0.054523557 0.68089592
0.011490965 0.055324525 0.6807065
-0.075567603 -0.043547556 0.68136495
-0.067529462 -0.040175736 0.68158937
-0.061587952 -0.037637085 0.68173057
-0.053919524 -0.034234613 0.68184572
-0.035451166 -0.024773285 0.68145585
-0.021394154 -0.018826842 0.68182182
-0.01454081 -0.015396148 0.68171936
-0.0136999 -0.01541239 0.6819371
-0.014508353 -0.014508337 0.68125844
-0.0017071858 -0.0085359216 0.68129712
0.016251553 -0.00085532665 0.68172008
0.023522984 0.0025661141 0.68172687
0.027318522 0.0051222444 0.68132389
0.031683315 0.0059941113 0.68195206
0.043633647 0.011977851 0.68177247
0.043536384 0.012804806 0.68131202
0.047736529 0.015343875 0.68101835
0.056477707 0.017970175 0.68181133
0.060534455 0.021314949 0.68105692
0.068246007 0.024739206 0.68117207
0.072732225 0.02567023 0.68179935
0.053733643 0.050321996 0.68113351
-0.0076921172 0.058118224 0.6815595
-0.071125194 -0.042846501 0.6821028
-0.054562669 -0.036088824 0.68266487
-0.030484548 -0.024474174 0.68253636
-0.025767431 -0.022331804 0.68258184
-0.025767431 -0.022331804 0.68258184
-0.0085784476 -0.013725489 0.68232358
-0.0042830971 -0.011136055 0.68202782
0.0017182659 -0.0094504654 0.68263459
0.011148541 -0.0042878985 0.68225974
0.012454943 -0.0042947233 0.68258941
0.014608023 -0.0034371614 0.68267381
0.050679635 0.013743609 0.68259692
0.053306561 0.01461634 0.68279159
0.058443356 0.017189264 0.68271387
0.063576303 0.019760251 0.68263614
0.075538613 0.025751859 0.68245602
0.079895303 0.027490824 0.6826241
0.082550004 0.028376609 0.68281877
0.048852276 0.05142346 0.68213356
-0.012882592 0.059259921 0.68256378
-0.075560018 0.066973656 0.68251479
-0.068674959 0.066099644 0.68246657
-0.078547247 -0.049199939 0.68360603
-0.073340982 -0.04659307 0.68352836
-0.051864419 -0.037169516 0.68390793
-0.051864419 -0.037169516 0.68390793
-0.044417866 -0.032774508 0.68344438
-0.040594138 -0.031525716 0.68373847
-0.039638449 -0.030159682 0.68325561
-0.039638449 -0.030159682 0.68325561
-0.032802347 -0.027623057 0.68362123
-0.00863655 -0.016409457 0.68372637
0.019845495 -0.0025885403 0.6835314
0.028520424 0.00086423755 0.68387127
0.02756452 0.0017227829 0.6831798
0.033693384 0.0034557581 0.68379343
0.041398697 0.0077622533 0.68344092
0.066439956 0.019413799 0.68353355
0.07587906 0.024143338 0.68339002
-0.038863908 0.063045889 0.68372333
-0.072719529 -0.047613949 0.6842221
-0.060683656 -0.042478561 0.68451202
-0.058540113 -0.041628689 0.68459773
-0.053843204 -0.039948195 0.68488127
-0.051054552 -0.037209243 0.68413103
-0.030378273 -0.028642356 0.68476337
-0.011242309 -0.018160671 0.68400109
-0.0043315906 -0.015593767 0.68436927
-0.00086806552 -0.014757097 0.68479109
0.005200197 -0.011267096 0.68446136
0.017318806 -0.0051956177 0.68427807
0.025961939 -0.00086539984 0.68414712
0.036401644 0.0034668446 0.68446285
0.039858378 0.0051989257 0.68440992
0.070190385 0.019496843 0.68442476
0.072941348 0.019972056 0.68485963
0.072941348 0.019972056 0.68485963
0.075276114 0.022496313 0.68410963
0.081573576 0.024298519 0.68472797
0.082489558 0.048625439 0.68485045
-0.075759396 -0.051377058 0.68545073
-0.045233134 -0.036534429 0.6852262
-0.033518318 -0.031342015 0.68540585
-0.016587274 -0.024444371 0.68598586
-0.016587274 -0.024444371 0.68598586
0.0026094597 -0.013917118 0.68521464
0.012210652 -0.010466278 0.68578672
0.014841355 -0.0096032023 0.68598747
0.021764807 -0.0052235723 0.68540114
0.027039669 -0.0034890175 0.68580073
0.030451544 -0.000870049 0.68526882
0.035658281 0.0017394722 0.68518913
0.039127346 0.0034779906 0.68513662
0.039127346 0.0034779906 0.68513662
0.060618542 0.013341537 0.68528783
0.063650332 0.013950735 0.68572223
0.079435505 0.020950019 0.68596256
0.076608732 0.049621582 0.68539184
0.026967989 0.055675864 0.68524247
0.026967989 0.055675864 0.68524247
-0.050467759 0.065260053 0.68529046
-0.073551707 -0.052536935 0.68661392
-0.068116009 -0.048903823 0.68605053
-0.068116009 -0.048903823 0.68605053
-0.057856876 -0.045584202 0.68685621
-0.047301468 -0.040293843 0.6866954
-0.043786455 -0.038532108 0.68664134
-0.039440554 -0.036811173 0.68681693
-0.040181376 -0.035813838 0.68610507
-0.020556625 -0.02711758 0.68640733
-0.020556625 -0.02711758 0.68640733
-0.012260299 -0.023644865 0.68664289
-0.0087551493 -0.021887869 0.6865896
-0.0035087424 -0.020175219 0.68699288
0.0035069718 -0.016658098 0.68688607
0.020117762 -0.0078721344 0.68638927
0.032408703 -0.0026277304 0.6866852
0.033244438 -0.0017496943 0.68642998
0.036734469 -0 0.68637598
0.042062435 0.001752615 0.68677926
0.047194216 0.0052437782 0.68621588
0.061395932 0.010525018 0.68696856
0.063795581 0.013108671 0.68620259
0.073441483 0.017486095 0.68629706
0.07691934 0.019229829 0.68624401
0.084061272 0.021890938 0.68661934
-0.065455824 -0.050080478 0.68733549
-0.051756836 -0.042984456 0.68700469
-0.043471463 -0.039519727 0.68724173
-0.035248909 -0.037011355 0.68796754
-0.033482216 -0.036125541 0.6879406
-0.028184725 -0.033469379 0.68785888
-0.027270813 -0.032549024 0.68760085
-0.0052698413 -0.02151902 0.68726361
0.011404175 -0.013158679 0.68700707
0.012294748 -0.013172925 0.68723691
0.029501732 -0.0061644763 0.68782723
0.029889224 -0.0052745938 0.68745381
0.043909978 0.0017563999 0.68723774
0.05534447 0.0070278645 0.68730628
0.05534447 0.0070278645 0.68730628
0.086583205 0.02153571 0.68743575
0.044766214 0.054421663 0.68713379
-0.047432825 0.065878928 0.68728262
-0.074911192 0.069623351 0.68798816
-0.074911192 0.069623351 0.68798816
-0.07406 -0.055545002 0.68807471
-0.061946891 -0.051327407 0.68886876
-0.060578391 -0.050408483 0.68872488
-0.05223605 -0.046923906 0.68896562
-0.048682034 -0.045141518 0.68891037
-0.044089254 -0.041443884 0.68810332
-0.040645387 -0.040645391 0.6885404
-0.027333705 -0.033505827 0.68809062
-0.01940934 -0.029996276 0.68821383
-0.0026496206 -0.022522286 0.68844658
0.0044086785 -0.018516421 0.6880914
0.011509768 -0.01682198 0.688968
0.0256493 -0.0097290277 0.68874884
0.02914599 -0.007507816 0.68844777
0.039668191 -0.0017630458 0.68803823
0.042451315 -0.0017687976 0.68873519
0.051262528 0.0026515126 0.68859863
0.064384006 0.009701699 0.68814862
0.067249574 0.0097334981 0.68884635
0.047738966 0.054811418 0.68865132
0.0044160285 0.060057968 0.68844628
-0.077565283 -0.059393018 0.68923271
-0.06443017 -0.054210424 0.68977165
-0.040833976 -0.042609364 0.68953013
-0.034564532 -0.038995862 0.6891861
-0.030228538 -0.03823024 0.6898632
-0.012402245 -0.028347999 0.68909067
-0.0044422308 -0.025764942 0.68971145
0 -0.024008185 0.68989146
0 -0.024008185 0.68989146
0.0071098953 -0.020440936 0.68978167
0.015673038 -0.015673399 0.68939942
0.018626204 -0.014191389 0.68935317
0.02485257 -0.011538684 0.68950516
0.045252729 -0.0017746091 0.68943679
0.054216824 0.0017775893 0.68979698
0.057623331 0.0044325888 0.68924469
0.064022534 0.0062243938 0.6898939
0.071900338 0.010651916 0.68952125
0.075606912 0.01156342 0.68996418
0.06392654 0.053272098 0.68957204
-0.007990757 0.062150329 0.68957037
-0.04433978 0.066509664 0.68931299
-0.05068088 0.067574501 0.68987852
-0.065669954 0.069219679 0.6894666
-0.076538756 -0.06051901 0.69008303
-0.067911074 -0.058081836 0.69094765
-0.067911074 -0.058081836 0.69094765
-0.060589764 -0.053461552 0.69033432
-0.051766574 -0.049981534 0.69069672
-0.042713996 -0.044493735 0.69005632
-0.032512836 -0.040084615 0.69027227
-0.026727453 -0.037418455 0.6903075
-0.025432797 -0.037480265 0.69066298
0.014278761 -0.018740863 0.69067144
0.019580051 -0.015130043 0.69008714
0.029383358 -0.010684848 0.69018424
0.041908722 -0.0053500235 0.69049096
0.048184816 -0.0026769638 0.69064462
0.049131304 -0.0026798844 0.69088238
0.059804287 0.0026778281 0.6907146
0.078351192 0.012464941 0.69017208
0.081290282 0.012506217 0.69088328
0.080254681 0.051719695 0.69050145
-0.05548045 -0.052795917 0.69125646
-0.048296619 -0.049190998 0.69114447
-0.037622713 -0.044788957 0.69148177
-0.034459293 -0.042962521 0.69130647
-0.034459293 -0.042962521 0.69130647
-0.015257103 -0.035001576 0.69189161
-0.014341868 -0.034061939 0.69162369
-0.0062782587 -0.030494422 0.69175094
-0.0062782587 -0.030494422 0.69175094
0.0053831222 -0.025121242 0.69182163
0.0197176 -0.017925084 0.69159663
0.021507336 -0.017026633 0.69156861
0.027800236 -0.014348507 0.69172388
0.032311492 -0.012565583 0.69190729
0.064472124 0.0035817623 0.69140136
0.065286912 0.0044717193 0.69113457
0.06803637 0.0053713322 0.69134569
0.078102127 0.0089772344 0.69195175
0.078102127 0.0089772344 0.69195175
0.052789107 0.055473298 0.69122869
-0.077257529 -0.064680696 0.69210082
-0.077257529 -0.064680696 0.69210082
-0.07250385 -0.063497186 0.6926614
-0.069376342 -0.062168419 0.69274008
-0.065600768 -0.059310257 0.69217259
-0.062551171 -0.058501303 0.69250572
-0.051410422 -0.054116219 0.69296855
-0.054774161 -0.053876221 0.69200271
-0.042263757 -0.048558354 0.69231462
-0.042263757 -0.048558354 0.69231462
-0.023375502 -0.03955853 0.69227326
-0.020698572 -0.038697332 0.69248581
0.024276314 -0.017083317 0.69228905
0.051270291 -0.0044974089 0.69237494
0.066722974 0.0018033087 0.69290197
0.066722974 0.0018033087 0.69290197
0.080169395 0.0085568875 0.69268906
0.08464542 0.010805756 0.69261742
0.08801724 0.01347205 0.69205052
0.083532915 0.05209583 0.69206703
0.041478183 0.0577088 0.69291109
-0.032382097 0.066563189 0.69238073
-0.039587617 0.067478925 0.69243282
-0.075986356 -0.066940367 0.69361126
-0.073344722 -0.066100806 0.69382632
-0.073992461 -0.064968973 0.69306737
-0.070364796 -0.063147902 0.69301093
-0.05516262 -0.056971222 0.6935401
-0.05516262 -0.056971222 0.6935401
-0.046198599 -0.053445399 0.69391429
-0.025355674 -0.043466836 0.69384301
-0.020796394 -0.040688604 0.69351256
-0.017215798 -0.039868176 0.69397217
-0.0072179222 -0.033382893 0.69304162
0.0027143701 -0.029858053 0.69365716
0.0027143701 -0.029858053 0.69365716
0.018097047 -0.022621304 0.6936723
0.027530467 -0.017149955 0.69313574
0.040603757 -0.010827661 0.69305742
0.046108272 -0.0090408623 0.69348669
0.049711674 -0.0072307587 0.69342995
0.062308349 -0.00090301037 0.69322979
0.066880442 0.00090375543 0.69341576
0.083247378 0.008143723 0.6936748
0.071338542 0.054181218 0.69322973
-0.030732263 0.066887915 0.69343996
-0.053238478 0.069480717 0.69306743
-0.064400144 -0.062586039 0.69420141
-0.057249274 -0.059975415 0.69460571
-0.057249274 -0.059975415 0.69460571
-0.010881022 -0.037176818 0.6941309
-0.0036337147 -0.034520268 0.69453561
0.0072617061 -0.029046804 0.694363
0.010889673 -0.027224183 0.69430482
0.029069943 -0.019077122 0.69453734
0.050066367 -0.010013312 0.69498688
0.051757157 -0.0081721842 0.69443709
0.061773863 -0.0036337674 0.69453824
0.073607914 0.0018174946 0.69461071
0.077222675 0.0036340058 0.69455338
0.077222675 0.0036340058 0.69455338
0.084446207 0.0072641969 0.69443786
-0.021794412 0.066291332 0.69445646
-0.078361668 -0.071072221 0.69520044
-0.075703152 -0.070230633 0.69541872
-0.065700889 -0.065700889 0.69552153
-0.047388054 -0.05650115 0.69523096
-0.038249593 -0.051910192 0.69508511
-0.027430035 -0.048459709 0.69596148
-0.021883056 -0.044677913 0.69534814
-0.01912111 -0.042794883 0.69504273
-0.011887176 -0.041147918 0.69597685
-0.0045695682 -0.03747046 0.69585985
0.015477027 -0.026401997 0.69501477
0.019159209 -0.025545627 0.6954807
0.025503464 -0.021860123 0.69511735
0.039173886 -0.015487373 0.69516146
0.042908799 -0.014607221 0.69562799
0.057455219 -0.0072958767 0.69539487
0.062068582 -0.0054766536 0.69558454
0.089274861 0.0081987083 0.69514871
-0.0054727704 0.064761162 0.69542885
-0.074401401 -0.072564334 0.69697583
-0.031170119 -0.051339 0.696549
-0.031170119 -0.051339 0.696549
-0.02838017 -0.04943642 0.69624031
-0.019258631 -0.045853913 0.69662368
-0.019258631 -0.045853913 0.69662368
-0.01742211 -0.044930696 0.69659364
-0.0036597878 -0.037512839 0.69610929
0.0091628823 -0.0320701 0.69643307
0.012824603 -0.030229419 0.69637394
0.024741508 -0.02474153 0.69644856
0.025686851 -0.024769485 0.69669855
0.03348615 -0.02110067 0.69670677
0.042149421 -0.016493261 0.69643402
0.063203543 -0.0064119399 0.6963619
0.0660173 -0.0055014491 0.6965825
0.066849634 -0.0045787692 0.69630283
0.071490169 -0.0027496517 0.6964941
0.081415154 0.0027443469 0.69606829
0.085051872 0.0045726895 0.69601011
-0.070458114 -0.071839899 0.69757658
-0.064327516 -0.068003356 0.69707918
-0.061780874 -0.068235606 0.69783688
-0.053514324 -0.064586252 0.69797158
-0.05166214 -0.063655108 0.69794196
-0.047959253 -0.061793685 0.69788289
-0.045563191 -0.0598308 0.6974436
-0.038710333 -0.057143837 0.69773346
-0.02578285 -0.050644904 0.69752628
-0.011518831 -0.044233322 0.697698
-0.0082867956 -0.042354733 0.69751155
-0.0046025561 -0.040502489 0.6974526
-0.0036862381 -0.040548623 0.69770575
0.001842379 -0.037768751 0.69761634
0.016563715 -0.030366778 0.69737905
0.064346291 -0.0073538721 0.69714397
0.065339491 -0.0073621869 0.69739544
0.069168761 -0.0064557493 0.69787246
0.071661957 -0.003674984 0.69702572
0.07935068 -0.0018453598 0.69797677
0.034962263 0.060723931 0.69734359
-0.064794481 -0.071273923 0.6986897
-0.056361534 -0.066525131 0.69828516
-0.048509337 -0.062831491 0.69829309
-0.027694855 -0.052620232 0.69809258
-0.0064599873 -0.042451322 0.69801855
0.01110032 -0.035151005 0.69854271
0.017546037 -0.031398147 0.69816828
0.036141694 -0.024094462 0.69894916
0.039837908 -0.022235125 0.69888949
0.044401456 -0.019425631 0.69854367
0.052758742 -0.01573503 0.69867921
0.076690443 -0.0036959052 0.69829035
0.091376238 0.0036919713 0.69805157
0.067601316 0.0574148 0.6987887
-0.067666821 -0.073228478 0.69900537
-0.067666821 -0.073228478 0.69900537
-0.057497744 -0.068626344 0.6991117
-0.034380369 -0.05853954 0.69955009
-0.022308413 -0.052982479 0.69962686
-0.021351513 -0.051986337 0.69933945
-0.0185853 -0.051109582 0.69956601
-0.0064912988 -0.044511795 0.69909847
-0.0018562814 -0.042694479 0.69929457
0.0046441513 -0.039939702 0.69946098
0.008377552 -0.039095223 0.69994605
0.018580403 -0.033444732 0.69950688
0.031633701 -0.02791208 0.69984078
0.031633701 -0.02791208 0.69984078
0.050174192 -0.01858303 0.69953865
0.060423374 -0.013943851 0.69964457
0.061423529 -0.013959914 0.69990265
0.080951437 -0.0046523809 0.69985843
0.087317258 -0.00092890859 0.69947958
0.088133208 2.9802322e-08 0.69919246
-0.06167227 -0.073819846 0.70081252
-0.037311472 -0.061563939 0.70041621
-0.022417327 -0.055109292 0.70072246
-0.022362694 -0.054043144 0.70017284
-0.014900411 -0.050288886 0.70005143
0.0083979983 -0.040123761 0.70049453
0.012127138 -0.038247108 0.70043314
0.015893076 -0.037395477 0.7009232
0.019579401 -0.034497052 0.70031136
0.027089639 -0.031760246 0.70073938
0.034543931 -0.02800858 0.70061731
0.037382901 -0.027102619 0.70084739
0.046697043 -0.022414565 0.7006948
0.080319233 -0.0065376461 0.70069575
0.090414993 -0.00093212724 0.70025367
0.0037406131 0.066395879 0.70098752
-0.054300137 -0.071151912 0.70124245
-0.052549109 -0.071316659 0.70176584
-0.04866302 -0.068315417 0.7011503
-0.04866302 -0.068315417 0.7011503
-0.031935383 -0.061992198 0.70198286
-0.018721737 -0.054293036 0.70121288
-0.015469866 -0.053442299 0.70157444
0.0056341547 -0.044134229 0.70192242
0.0046782289 -0.04303968 0.70110637
0.016888706 -0.038468719 0.70173788
0.040326186 -0.027196735 0.70163089
0.073244885 -0.012207478 0.70192516
0.087134786 -0.0046846569 0.70141721
0.088105612 0.056237638 0.70150429
-0.010317925 0.068473518 0.70167315
-0.054567154 -0.073383421 0.70235389
-0.047015004 -0.069582224 0.7022301
-0.022638375 -0.059425712 0.70294601
-0.018860193 -0.057523549 0.7028842
-0.0094236648 -0.052772522 0.70272899
-0.0056526433 -0.050873756 0.7026664
-0.0018837036 -0.048976332 0.70260471
0.014128735 -0.041444302 0.70262015
0.020686848 -0.037612468 0.70223284
0.030143466 -0.033911407 0.70263648
0.034798719 -0.031036705 0.70227981
0.040425181 -0.028203607 0.7021867
0.060303759 -0.019787192 0.7026999
0.060303759 -0.019787192 0.7026999
0.065768398 -0.015972316 0.70204866
0.078201443 -0.011306226 0.70268536
0.078201443 -0.011306226 0.70268536
0.082986176 -0.0094302595 0.70288789
0.082986176 -0.0094302595 0.70288789
0.086734734 -0.0075421631 0.70282614
0.087563604 -0.0065908134 0.70253038
0.059259187 0.060199827 0.70230782
0.020667356 0.064820349 0.70201886
-0.00094252813 0.067862034 0.70276797
-0.024462113 0.070563793 0.70236295
-0.045463331 -0.071983606 0.70388442
-0.043455623 -0.06990689 0.70328927
-0.043455623 -0.06990689 0.70328927
-0.032172367 -0.065290958 0.70366555
-0.028379543 -0.063380986 0.70360243
-0.015121286 -0.056704819 0.70338416
-0.012298687 -0.055817127 0.70361894
-0.0047276714 -0.052004397 0.70349371
0.0056759538 -0.047299623 0.70360434
0.0094573097 -0.045395076 0.70354122
0.014163628 -0.042490929 0.70318174
0.026513366 -0.037876248 0.70382488
0.032102171 -0.033990532 0.70316714
0.049158141 -0.026469767 0.70344895
0.052925136 -0.024572402 0.7033869
0.05581779 -0.02365157 0.70362169
0.055680238 -0.022649586 0.70305884
0.083191365 -0.010398924 0.7034508
0.061452594 0.060507178 0.70346725
0.03020717 0.064190269 0.70311707
-0.0066331532 0.06917429 0.70399088
-0.048374791 -0.073984981 0.70421576
-0.022750542 -0.061616033 0.70407438
-0.018071821 -0.060873479 0.70484912
-0.014227936 -0.057860255 0.70421678
0.0018971954 -0.050275654 0.70423329
0.0057041585 -0.049436033 0.70473915
0.0095043303 -0.047521681 0.70467639
0.024684053 -0.039874226 0.70442379
0.044612028 -0.03037414 0.70437682
0.045614731 -0.030409783 0.70464587
0.057988774 -0.024716526 0.70472533
0.072263427 -0.01806587 0.70477337
0.07604596 -0.016159773 0.70471054
0.076895684 -0.01518926 0.70440996
0.047416177 0.062589347 0.70416713
-0.029397795 0.072071999 0.70416528
-0.059805106 0.075942993 0.70439982
-0.044790346 -0.074332893 0.70529276
-0.043889042 -0.074420542 0.70556402
-0.031496558 -0.068719774 0.70564401
-0.012390617 -0.059093714 0.7053262
-0.0028645271 -0.055380851 0.70574087
-0.0028574024 -0.054290652 0.70516753
0.00047728998 -0.053424984 0.70554173
0.018159762 -0.045877308 0.70596653
0.023884472 -0.042992055 0.70587045
0.031510051 -0.039148837 0.70574272
0.036226619 -0.03622663 0.70537633
0.045842431 -0.032471716 0.70579123
0.061928105 -0.023818523 0.7052334
0.06951163 -0.019996494 0.70510644
0.06951163 -0.019996494 0.70510644
0.074339807 -0.018108398 0.7053141
0.089713119 -0.011452734 0.70563287
0.065907024 0.06113115 0.70582104
-0.042915877 0.074387521 0.70546174
-0.037425481 -0.073891342 0.70689619
-0.023501679 -0.067148447 0.70680833
-0.019143261 -0.064129949 0.70630121
-0.019143261 -0.064129949 0.70630121
-0.0076509509 -0.058338493 0.70610946
0.0086079473 -0.050691217 0.70612621
0.014376549 -0.048880279 0.70660865
0.018205199 -0.046950281 0.70654392
0.028687235 -0.041118354 0.70607859
0.032503255 -0.039195091 0.70601505
0.035496853 -0.039334357 0.70683503
0.045957234 -0.033510476 0.70636857
0.051810008 -0.031661689 0.70685196
0.059452493 -0.027808428 0.70672321
0.080627397 -0.018237144 0.70694983
0.081479341 -0.017254472 0.70664346
0.085289791 -0.015332997 0.70657861
0.090163268 -0.013428569 0.70678896
0.035377774 0.065018624 0.70605803
-0.034582835 -0.073008209 0.70713919
-0.033662025 -0.073094666 0.70741391
-0.010561868 -0.061450869 0.70702708
-0.0086620497 -0.061596751 0.70757753
0 -0.057783484 0.70772439
0.0028849407 -0.055775523 0.70738369
0.010598822 -0.052994102 0.70783812
0.012492664 -0.050931633 0.70722127
0.033667099 -0.041362405 0.70744884
0.041339546 -0.037493974 0.70732033
0.056800973 -0.030807316 0.70764476
0.056658536 -0.029769719 0.70706189
0.053934764 0.063565999 0.70773947
0.046241675 0.064545661 0.7077992
0.037483636 0.065356076 0.7072562
0.014427992 0.068292499 0.70743662
-0.03096489 -0.074509263 0.70883363
-0.027018374 -0.071405709 0.70817918
-0.025148366 -0.071576118 0.70873517
-0.021273466 -0.069622219 0.70867008
-0.010641959 -0.064819187 0.70878482
-0.0087058451 -0.063842893 0.70875233
-0.0067531872 -0.061743408 0.7081306
0.0086948806 -0.055067599 0.70845824
0.022198467 -0.04825753 0.7082296
0.03190824 -0.044478178 0.70865583
0.038706589 -0.041609585 0.7088365
0.047325831 -0.036701649 0.70839441
0.07038758 -0.025069565 0.70800328
0.074411139 -0.024159491 0.70852602
0.082304083 -0.021302253 0.70898587
0.082096502 -0.020282686 0.70839626
0.070454277 0.061768174 0.70822388
0.062749669 0.062749684 0.70828474
0.007716951 0.069452554 0.70810115
-0.01649536 -0.068892419 0.70947641
-0.01649536 -0.068892419 0.70947641
-0.0068046697 -0.065130413 0.70990622
-0.0096860882 -0.064896792 0.70906448
-0.0058247619 -0.0640724 0.70959193
0.0038804484 -0.059176862 0.7094273
0.0077587301 -0.057220638 0.70936197
0.021369576 -0.051481247 0.70972484
0.036869708 -0.043661445 0.70946199
0.052334912 -0.035859108 0.70919871
0.068990409 -0.029150873 0.70980972
0.071799204 -0.027167261 0.70946294
0.078652062 -0.024275333 0.70964485
0.080582827 -0.023301065 0.70961213
-0.0058210548 0.07179302 0.70944273
0.0004870116 -0.062300012 0.71023023
0.021478714 -0.053696781 0.71092248
0.029272586 -0.049763411 0.71078914
0.036131054 -0.046872735 0.71097314
0.051696755 -0.039016455 0.71070647
0.062298447 -0.033096045 0.71022433
0.070046224 -0.029185891 0.71009171
0.072165184 -0.029256165 0.71065694
0.082933851 -0.024392337 0.7107746
-0.019515943 0.074160606 0.71079981
-0.022555582 -0.076492846 0.71197802
-0.022555582 -0.076492846 0.71197802
-0.019534256 -0.073253453 0.71102089
-0.0048971064 -0.067580074 0.71167481
0.01274886 -0.059821546 0.71197897
0.01371099 -0.058761388 0.71165919
0.015667494 -0.057773888 0.71162575
0.059618421 -0.036161959 0.71117502
0.06863375 -0.033336401 0.71193087
0.070584752 -0.032351345 0.71189749
0.071468428 -0.031328619 0.71157777
0.080125891 -0.026382893 0.71112525
0.013719007 0.070554912 0.71179736
-0.017668547 -0.074600518 0.71219742
-0.015703158 -0.073608518 0.71216387
-0.011804287 -0.072793126 0.71270549
-0.0029453943 -0.067744046 0.71224856
0.015748097 -0.060039639 0.71284199
0.036409888 -0.050186574 0.71279252
0.06383571 -0.036337256 0.71231854
0.065790579 -0.035350144 0.71228498
0.079663016 -0.029504836 0.71265805
0.084442005 -0.026510864 0.71226931
0.078644492 0.062915623 0.71255231
-0.0108617 -0.074057043 0.71360755
-0.0059148255 -0.070977867 0.71321571
0.011844921 -0.063172907 0.71352303
0.029650701 -0.055347949 0.71383196
0.033594429 -0.053355873 0.71376312
0.048301384 -0.045344174 0.71320087
0.067198977 -0.037552357 0.71379906
0.081828572 -0.0295766 0.71323562
0.012880911 -0.064404547 0.71443135
0.022772973 -0.0594078 0.71425998
0.024749706 -0.058409274 0.71422589
0.031704731 -0.055483282 0.71441531
0.048551537 -0.047560662 0.71443337
0.077225231 -0.03366226 0.71424484
0.083345495 -0.031750649 0.71476185
0.085096918 -0.029684961 0.71410775
-0.0039837048 -0.074694455 0.71565938
0.0039814059 -0.070669979 0.71552068
0.0099491971 -0.06765452 0.71541643
0.014937824 -0.065726429 0.71564221
0.014899078 -0.064562678 0.71501863
0.021869358 -0.061631799 0.71520925
0.023853967 -0.060628831 0.71517402
0.025838101 -0.0596264 0.71513969
0.041798949 -0.052746266 0.71548724
0.041798949 -0.052746266 0.71548724
0.052773189 -0.04779458 0.71560979
0.060703907 -0.043786377 0.71547103
0.069705434 -0.039831698 0.71562696
0.073667489 -0.03782925 0.71555817
0.084441245 -0.031789631 0.71505594
0.068779789 0.065789402 0.71587247
0.060821742 0.0668042 0.71593744
-0.019941388 0.076774359 0.71593541
0.017991738 -0.065969706 0.71653211
0.017991738 -0.065969706 0.71653211
0.021983579 -0.063952237 0.71646273
0.030997181 -0.059994549 0.71662098
0.032992113 -0.058985889 0.71658522
0.047999084 -0.051999032 0.71663839
0.0090371966 -0.072297573 0.71764076
0.015055404 -0.069254845 0.7175346
0.02404136 -0.064110309 0.71705896
0.03011746 -0.062242746 0.71758819
0.039075825 -0.057110816 0.71711236
0.056113165 -0.049099028 0.71713078
0.077341571 -0.040177405 0.71771383
-0.002003846 0.075144231 0.71710718
0.012094568 -0.072567374 0.7185455
0.021123778 -0.067394882 0.71806586
0.036220208 -0.060367018 0.71811968
0.044360001 -0.057466358 0.71861821
0.070438981 -0.04427591 0.71815693
0.078649923 -0.041341633 0.71865451
0.081549637 -0.039264649 0.71828115
0.085551992 -0.037240267 0.7182107
0.033297848 0.071640819 0.71882194
0.025232431 0.072669387 0.71888745
-0.0080611892 0.076581299 0.71848947
0.017195661 -0.07181716 0.71942157
0.025272913 -0.06773141 0.7192784
0.030356459 -0.065772355 0.71951151
0.031324606 -0.064670175 0.71917093
0.040445659 -0.060668498 0.71933275
0.040445659 -0.060668498 0.71933275
0.043526955 -0.059723049 0.71960151
0.047562119 -0.057681739 0.71953034
0.054545619 -0.053535521 0.7190823
0.063678749 -0.049527913 0.71924394
0.070811421 -0.046533197 0.71944141
0.018221991 0.073900312 0.71962035
0.0020257679 0.075966328 0.71975338
0.020306252 -0.072087169 0.72033972
0.023378007 -0.071150452 0.72061074
0.036605205 -0.065075904 0.72070152
0.035543885 -0.064994544 0.72039455
0.037569311 -0.063969374 0.72035766
0.07210362 -0.047730535 0.72039557
0.052872594 0.070157886 0.72069412
0.0030469852 0.076174647 0.72042406
0.044952299 -0.063341856 0.72186804
0.060290501 -0.056203008 0.72192353
0.061226048 -0.055103451 0.72157615
0.062158972 -0.054006964 0.72122979
0.079680927 0.06742236 0.72184563
0.028639814 -0.071599513 0.7221595
0.036800951 -0.067468405 0.72201419
0.039912075 -0.066520125 0.72228891
0.050242998 -0.062547415 0.72276711
0.074919112 -0.051314414 0.72298968
0.076754324 -0.049122781 0.72229004
0.082858063 -0.04603225 0.7221809
0.082858063 -0.04603225 0.7221809
0.033968613 -0.072054654 0.72372913
0.053378861 -0.06159097 0.72304463
0.065814868 -0.056559652 0.72348893
0.069907606 -0.054486811 0.72341549
0.016471853 0.076182336 0.72376263
0.037098203 -0.071104884 0.72400761
0.074197054 -0.053586781 0.72400981
0.081477821 -0.050536901 0.72421503
0.081477821 -0.050536901 0.72421503
0.040453132 -0.072608173 0.72563815
0.043732896 -0.072888136 0.72660387
0.048987336 -0.070875317 0.72685117
0.056177258 -0.066580474 0.72637695
0.057290986 -0.066665858 0.72669911
0.059365395 -0.065614402 0.72666144
0.061439183 -0.064563185 0.72662377
0.065584607 -0.062461495 0.72654736
0.084438391 -0.054207355 0.7268911
0.080230013 0.069810539 0.7267701
0.055518519 -0.070183754 0.72811502
0.064990558 -0.066038758 0.72828782
0.080733061 -0.058714986 0.72834742
0.061151385 -0.070640385 0.72976041
0.069543548 -0.066382498 0.7296049
0.069543548 -0.066382498 0.7296049
0.060117975 0.073829114 0.72984898
0.04209223 0.075765997 0.72927064
0.055978131 -0.073933363 0.73020864
0.080240399 -0.06229189 0.73011291
0.080240399 -0.06229189 0.73011291
0.076146185 -0.07185623 0.73414147
0.080637045 -0.070960611 0.7347883
-0.058640629 0.042699754 0.64015937
-0.056957059 0.037099853 0.64342648
-0.049088426 0.041011106 0.64332342
-0.041919708 0.04331702 0.64389348
-0.047689166 0.045216724 0.64578843
-0.066981614 0.025117349 0.64725316
-0.062989838 0.027071288 0.64721698
-0.051143479 0.032869052 0.64710975
-0.046954889 0.036323596 0.64633036
-0.043024629 0.038421214 0.6462028
-0.033006374 0.041256838 0.6472038
-0.039186131 0.044886988 0.64723229
-0.032993071 0.044229791 0.64744776
-0.054828417 0.02872847 0.64837712
-0.045071043 0.030889621 0.64966899
-0.029032741 0.039040696 0.64936471
-0.02711316 0.040921155 0.64885062
-0.060242876 0.048050851 0.64836347
-0.054864533 0.024937909 0.65036935
-0.045192253 0.02704151 0.65167046
-0.038775846 0.032856714 0.65020013
-0.036861956 0.032680269 0.65077066
-0.033071999 0.03307147 0.65150917
-0.023004375 0.039098088 0.65083754
-0.018967681 0.042164311 0.65022528
-0.018967681 0.042164311 0.65022528
-0.068881862 0.013186084 0.65307856
-0.056824543 0.019022649 0.65300357
-0.056824543 0.019022649 0.65300357
-0.053065576 0.020975519 0.65290982
-0.038936436 0.027205883 0.65314358
-0.040936835 0.047730237 0.65249991
-0.059022952 0.013074409 0.6555959
-0.046820097 0.020821815 0.65454835
-0.025149252 0.029132348 0.65556449
-0.025149252 0.029132348 0.65556449
-0.019080322 0.031426728 0.65586627
-0.0059891376 0.037432104 0.65595984
-0.0089114597 0.038768094 0.65452594
-0.0089114597 0.038768094 0.65452594
-0.0032700323 0.039242975 0.65568197
-0.0081487 0.040002733 0.6540643
-0.065385714 0.052308887 0.65562844
-0.066897906 0.0082451776 0.65618181
-0.049301021 0.013365394 0.65786642
-0.04497797 0.015685387 0.65771973
-0.036907651 0.022482127 0.65614355
-0.015041149 0.031011447 0.65709281
-0.013086311 0.031174457 0.65749401
0.0026485729 0.037834227 0.65790141
0.0049061533 0.044529304 0.65743041
-0.068943635 0.05349873 0.65713334
-0.056546986 0.052023202 0.65724361
-0.070869669 0.002526348 0.65821075
-0.061024707 0.004957851 0.6593821
-0.061024707 0.004957851 0.6593821
-0.053527702 0.0076468289 0.659832
-0.034919519 0.017077638 0.65949261
-0.036966655 0.018388502 0.65829003
-0.024824157 0.024256133 0.65822005
0.0188698 0.042883746 0.65928036
-0.042463891 0.050805002 0.65828741
-0.033632923 0.050449371 0.65976036
-0.058944352 0.053413339 0.65943754
-0.045224592 0.0077307373 0.66185796
-0.047060419 0.0090269502 0.6607157
-0.03688851 0.01301404 0.66114706
-0.033163983 0.016294405 0.660344
-0.029085243 0.017004041 0.66098624
-0.002681975 0.030908287 0.66022915
0.0070992569 0.035014164 0.66050005
0.022433868 0.039452672 0.66198069
-0.068949178 -0.0067299195 0.66357672
-0.063306153 -0.0046893358 0.66390622
-0.063146375 -0.0029833466 0.6630457
-0.045317743 0.003906697 0.66385382
-0.02479735 0.016531503 0.66230488
-0.01301847 0.019267043 0.66379762
-0.011220722 0.020960942 0.6633516
0.030445697 0.044497579 0.66368926
0.011114994 0.046795234 0.66351104
-0.057817087 0.055473149 0.66384697
-0.057098556 -0.0051284097 0.66568619
-0.046826564 0.0026085775 0.66416264
-0.033950157 0.0055267811 0.665833
-0.015125372 0.016921988 0.66451061
-0.010724039 0.01870136 0.66466856
-0.001178283 0.022782739 0.66489398
0.0090099648 0.028595842 0.66436517
0.024854515 0.033533201 0.66570932
-0.0051072175 0.049504772 0.66492802
-0.012535396 0.050141603 0.66436607
-0.062970668 -0.01087171 0.66725415
-0.052985374 -0.0067730024 0.66758025
-0.048908185 -0.0031736072 0.66669649
-0.030467756 0.0063310117 0.66627645
-0.020978546 0.010686882 0.66634291
-0.0013292236 0.017279496 0.6677618
-0.0051425011 0.01839409 0.66622257
0.0029221 0.019589361 0.66760242
0.013125125 0.025056273 0.66726023
0.042311694 0.03752169 0.66795635
0.037448511 0.038503133 0.66622591
0.050926697 0.043286499 0.66732436
-0.025518661 0.053429663 0.66774499
-0.022133557 0.052171946 0.66606134
-0.055043802 -0.0108485 0.6692186
-0.018404149 0.0080017745 0.66840219
0.010876322 0.019335359 0.66971993
0.014829969 0.023045111 0.66874713
0.020159278 0.02338478 0.66989678
0.02119964 0.026798882 0.66835356
0.034914196 0.032910757 0.66854638
0.041292135 0.045701489 0.66878855
0.030646706 0.047583044 0.66992605
-0.018377202 0.052734613 0.66811931
-0.061548188 0.058732674 0.66945887
-0.061548188 0.058732674 0.66945887
-0.072903454 -0.021561529 0.67042148
-0.057360351 -0.016543925 0.67164797
-0.028937556 -0.0012146086 0.6706419
0.0068936967 0.015003063 0.67101407
0.027143262 0.024913721 0.67083091
0.041065581 0.032582995 0.67025322
0.043202005 0.032881264 0.67062861
0.053097822 0.036984969 0.67092955
0.053317636 0.038372099 0.67025208
0.019023418 0.049378797 0.67064941
-0.005288953 0.052894011 0.67167914
-0.072906911 -0.02502805 0.67225093
-0.04683575 -0.013071423 0.67243886
-0.020390732 -0 0.6721319
-0.011020912 0.0040819049 0.67231292
0.0069900029 0.0098679662 0.67374921
0.035506684 0.026119694 0.6722796
0.044814534 0.0277519 0.67373878
0.058665346 0.035115756 0.67330456
0.058665346 0.035115756 0.67330456
0.071131006 0.042861886 0.67232341
0.042939622 0.047437549 0.6726774
0.05836663 0.046035647 0.67368567
-0.036963146 0.057182476 0.67243683
-0.036963146 0.057182476 0.67243683
-0.034929216 0.057531223 0.67363966
-0.070213437 0.061232656 0.67232645
-0.070213437 0.061232656 0.67232645
-0.066713318 -0.025532246 0.6740613
-0.054930132 -0.021063961 0.67464054
-0.04036729 -0.01318118 0.67410988
-0.021068512 -0.0051651224 0.67468977
-0.014975018 -0.0028134733 0.67496759
0.002899488 0.0051760375 0.67520648
0.016936881 0.012805335 0.67467886
0.022754757 0.014975587 0.67498368
0.022754757 0.014975587 0.67498368
0.053314086 0.030778974 0.67426014
0.068947658 0.035304315 0.67576909
0.080784619 0.041221987 0.67559624
0.021108266 0.05132094 0.6750598
-0.00082370453 0.053540796 0.67408139
0.0070238225 0.052881777 0.6747027
-0.045212954 0.059731483 0.67550564
-0.064569935 -0.02888323 0.6763649
-0.062421091 -0.027465254 0.67615205
-0.053087387 -0.024768025 0.67705548
0.044764981 0.021126039 0.67722481
0.06088236 0.028935386 0.67712045
0.029959906 0.050765365 0.67613721
0.037525751 0.050034344 0.67654419
0.037525751 0.050034344 0.67654419
-0.043013122 0.060135528 0.67686039
-0.073276438 -0.0391315 0.67960477
-0.066875443 -0.033648118 0.67830604
-0.056801949 -0.02903267 0.67838097
-0.05302912 -0.027357318 0.67843699
-0.024876239 -0.014757685 0.67880487
-0.012603149 -0.0075618625 0.67806619
-0.0033920929 -0.0067841709 0.6799525
0.014413756 0.0016957223 0.67991507
0.036802277 0.013112895 0.67946994
0.042836051 0.016987253 0.67892879
0.082203671 0.033898413 0.6798166
0.042640686 0.050661623 0.67906821
0.014318191 0.053903788 0.67855787
-0.075348638 -0.044524223 0.68193483
-0.063079938 -0.035681911 0.68032587
-0.05529001 -0.034485321 0.68163681
-0.050884336 -0.032497704 0.68168575
