# .PCD v0.7 - Point Cloud Data file format
VERSION 0.7
FIELDS x y z
SIZE 4 4 4
TYPE F F F
COUNT 1 1 1
WIDTH 1327
HEIGHT 1
VIEWPOINT 0 0 0 1 0 0 0
POINTS 1327
DATA ascii
0.00030247687 -0.01665628 0.62144631
0.00030247687 -0.01665628 0.62144631
-0.00060787657 -0.014589012 0.6219759
-0.0024492568 -0.047454342 0.62304735
-0.0024492568 -0.041331217 0.62304735
0.014112765 -0.033440471 0.62335736
-0.0024492568 -0.032452643 0.62304729
-0.003380446 -0.01843676 0.62358904
-0.0024492568 -0.018675581 0.62304729
-0.003380446 -0.014442131 0.62358904
0.0024591666 -0.014755011 0.62364542
0.00061289553 -0.012257904 0.62318766
-0.0018438761 -0.0079901218 0.62360525
-0.004737027 -0.034392349 0.6243788
-0.0045273788 -0.028602511 0.62425679
-0.0046322029 -0.024394259 0.62431771
-0.0046359384 -0.0033993423 0.62444657
-0.0074936706 -0.052455693 0.62598252
-0.0074936706 -0.049645573 0.62598258
-0.0074936706 -0.046523213 0.62598258
-0.0064266529 -0.045605909 0.6253618
-0.0074936706 -0.032472581 0.62598258
-0.0065330379 -0.029552475 0.62542367
0.0080671646 -0.022339821 0.62503588
0.004670368 -0.016501024 0.62554622
0.00062063424 -0.010550797 0.62505597
-0.0074936706 -0.0084303766 0.62598264
-0.0074936706 -0.0084303766 0.62598264
-0.0065330379 -0.0065326616 0.62542367
-0.00559026 -0.00062114 0.62517804
0.018764328 -0.038154125 0.62622523
-0.0084622819 -0.034474388 0.62654614
-0.0084622819 -0.027579471 0.62654614
0.01257319 -0.027661026 0.62699342
-0.0084622819 -0.014416546 0.62654608
-0.0084622819 -0.0075216889 0.62654614
-0.010420606 -0.05146952 0.6276859
-0.010420606 -0.05146952 0.6276859
-0.010420606 -0.037575908 0.6276859
0.017651025 -0.035302073 0.62741214
-0.0094373506 -0.026424587 0.62711346
-0.0094373757 -0.019503891 0.62711382
0.0069381455 -0.018291473 0.62749577
-0.010420606 -0.013577856 0.6276859
0.0025222683 -0.011350214 0.62745392
-0.010420606 -0.00063154101 0.6276859
-0.0094373757 0.0034603924 0.62711382
-0.010420606 0.0053679943 0.6276859
-0.010420606 0.0053679943 0.6276859
-0.01141044 -0.050396107 0.6282618
-0.01141044 -0.045324787 0.6282618
-0.01141044 -0.03359741 0.62826174
-0.012074773 -0.02256076 0.62864828
-0.01141044 -0.017432615 0.6282618
-0.012074773 -0.008579433 0.62864828
-0.01141044 0.0015847832 0.6282618
-0.012742469 -0.052562669 0.62903678
-0.013413555 -0.046628118 0.62942725
-0.012742469 -0.046509996 0.62903678
-0.012742469 -0.030581892 0.62903678
-0.013413555 -0.018523484 0.62942719
-0.013413555 0.0044712126 0.62942719
-0.0063840421 0.0044688284 0.62934601
-0.0083085261 0.0076694191 0.62951815
-0.013413555 0.0086229891 0.62942719
-0.015447455 -0.032504022 0.63061094
-0.014766001 -0.03145802 0.6302141
0.016394287 -0.030538023 0.63043064
0.015438205 -0.028946638 0.63051796
-0.014766001 -0.024396002 0.6302141
-0.014766001 -0.024396002 0.6302141
0.011554243 -0.023108482 0.63019049
-0.014766001 -0.020543993 0.6302141
0.0051507903 -0.012554348 0.63066041
0.00064366724 -0.0054704845 0.63061655
-0.014766042 -0.00064200163 0.63021451
-0.014766042 0.0025680363 0.63021451
-0.0083811851 0.009025842 0.63086754
-0.014766042 0.012519047 0.63021445
-0.014766042 0.012519047 0.63021445
-0.012834387 0.015401274 0.63014632
-0.012834387 0.015401274 0.63014632
-0.017512776 -0.029512271 0.63181257
-0.017512776 -0.023674697 0.63181257
-0.017512776 -0.0084320903 0.63181257
-0.017512776 -0.0084320903 0.63181257
-0.00064744649 -0.002589792 0.63152897
-0.0012944418 -0.0016173571 0.63147449
-0.018441387 -0.057492383 0.63235295
-0.018441387 -0.057492383 0.63235295
-0.018557914 -0.05144006 0.63242066
-0.018557914 -0.036463842 0.63242066
0.0097670713 -0.018231899 0.63242018
-0.018557914 -0.011394948 0.63242072
-0.018557914 0.002604574 0.63242066
-0.018557914 0.0094415322 0.63242072
-0.018557914 0.01465065 0.63242066
-0.02031674 -0.05537951 0.63344401
-0.02031674 -0.045548826 0.63344407
-0.021026887 -0.039425403 0.63385719
-0.02031674 -0.03965041 0.63344395
-0.02031674 -0.03965041 0.63344395
0.022240128 -0.03728494 0.63314044
-0.019610288 -0.02647388 0.63303298
-0.021026945 -0.022669718 0.63385761
-0.02031674 -0.020644426 0.63344401
0.0072159721 -0.013119906 0.63359332
-0.021026945 -0.011499107 0.63385761
0.0045854002 -0.0091708004 0.63336635
-0.021026945 0.0036140084 0.63385761
-0.021026945 0.0036140084 0.63385761
-0.0039382367 0.004594624 0.63368398
-0.021026945 0.012484729 0.63385761
-0.019610288 0.015361398 0.63303292
-0.013430152 0.019326523 0.63338876
-0.018396888 0.027595341 0.63384306
-0.019408433 0.028349748 0.63316649
-0.022458421 -0.030384898 0.6346904
0.017814212 -0.029030591 0.63450789
0.018522149 -0.029767722 0.63492304
0.018522149 -0.029767722 0.63492304
0.0026349556 -0.0052699149 0.63425523
-0.022458421 -0.0026421547 0.63469046
-0.021740809 0.00065881014 0.63427299
-0.0092449747 0.013867438 0.63464546
-0.0092449747 0.013867438 0.63464546
-0.021740809 0.017458498 0.63427293
-0.022458421 0.021467611 0.63469052
-0.022458421 0.032366514 0.63469046
-0.023421546 -0.052586928 0.63525081
-0.023542412 -0.04244186 0.63532114
-0.023542412 -0.041447125 0.63532114
-0.023542412 -0.035478741 0.63532114
-0.023542412 -0.021552503 0.63532114
0.011917405 -0.019200265 0.63506138
-0.024634043 -0.014647305 0.63595629
-0.023542412 -0.010610446 0.63532114
-0.023542412 -0.0056368038 0.63532114
0.0019978054 -0.0026637614 0.63599253
-0.00066198158 0.00066199899 0.63503808
-0.024634043 0.0036618263 0.63595629
-0.0053181876 0.0086420476 0.63571209
-0.024634043 0.011651248 0.63595629
-0.024634043 0.015645951 0.63595629
-0.025366947 -0.058410741 0.6363827
-0.025366947 -0.058410741 0.6363827
-0.025366947 -0.048397496 0.6363827
0.023991244 -0.03731969 0.63611042
-0.025366947 -0.032376245 0.6363827
0.011378944 -0.016733736 0.63681686
0.011378944 -0.016733736 0.63681686
-0.026103748 -0.0053546131 0.63681138
-0.0060214857 0.010704875 0.63674545
-0.026103748 0.016398519 0.63681138
-0.026103748 0.016398519 0.63681138
-0.026103748 0.019410521 0.63681138
-0.025366947 0.026368275 0.6363827
-0.017326912 0.027989626 0.63610947
-0.021375287 0.034734845 0.6364857
-0.025366947 0.036381513 0.6363827
-0.027589254 -0.051477529 0.63767612
-0.027589254 -0.035664111 0.63767606
-0.027589254 -0.035664111 0.63767606
0.021488464 -0.032232702 0.63733947
-0.026844483 -0.030535579 0.63724232
-0.027589254 -0.028598607 0.63767612
-0.026844483 -0.023488879 0.63724238
-0.026844559 -0.016442299 0.63724279
0.0080723977 -0.010763228 0.63762569
0.0053736735 -0.0067170858 0.6373865
-0.0033654729 0.0074040592 0.63772094
-0.027589254 0.0084113628 0.63767606
-0.027589254 0.0084113628 0.63767606
-0.0080747427 0.014803708 0.63767284
-0.0087644113 0.016180485 0.63798434
-0.013418391 0.022811294 0.63719589
-0.016780375 0.028191 0.63726723
-0.016780375 0.028191 0.63726723
-0.027589254 0.030617341 0.63767612
-0.026844559 0.032549024 0.63724279
-0.026844559 0.032549024 0.63724279
-0.027589254 0.036337078 0.63767612
-0.02934292 -0.066584736 0.63869643
-0.028337944 -0.060386807 0.63811171
-0.028337944 -0.046555191 0.63811165
-0.028337944 -0.035422459 0.63811171
0.018305697 -0.025763601 0.63890254
-0.029469047 -0.009484157 0.63876975
-0.0054158601 0.011508703 0.6386596
-0.029469047 0.017613426 0.63876975
-0.029469047 0.017613426 0.63876975
-0.010151713 0.018949836 0.63861096
-0.028337944 0.023614973 0.63811165
-0.029595178 0.042471677 0.63884318
-0.02934292 0.043562155 0.63869643
-0.0306083 -0.062576979 0.63943261
-0.0306083 -0.053394489 0.63943267
-0.031373292 -0.04944703 0.63987768
-0.031373292 -0.048423976 0.63987768
-0.0306083 -0.043531805 0.63943267
-0.0306083 -0.040470973 0.63943267
-0.0306083 -0.040470973 0.63943267
-0.031373292 -0.033419341 0.63987768
-0.031373292 -0.027622133 0.63987774
-0.031373292 -0.015345633 0.63987768
-0.0306083 -0.013603687 0.63943267
-0.0306083 -0.0034009218 0.63943261
-0.0306083 0.0013603568 0.63943261
-0.0306083 0.0013603568 0.63943261
-0.0306083 0.010542855 0.63943261
-0.0306083 0.01462397 0.63943261
-0.0306083 0.01462397 0.63943261
-0.031373292 0.033419371 0.63987768
-0.031373292 0.037511528 0.63987768
-0.031373292 0.039557636 0.63987774
-0.023839053 0.041548073 0.63965744
-0.0306083 0.044552088 0.63943267
-0.031373292 0.045354858 0.63987768
0.024659995 -0.034249961 0.6405952
-0.032529108 -0.028419748 0.6405502
0.017094221 -0.022564381 0.64029801
-0.032529108 -0.015408307 0.6405502
0.012304172 -0.01503846 0.64024878
0.00068397273 0.0034198761 0.64034718
-0.026033692 0.045901507 0.64061868
-0.034475274 -0.068261057 0.64168292
-0.033693347 -0.059479065 0.6412276
-0.033693347 -0.052602872 0.6412276
-0.033693347 -0.052602872 0.6412276
-0.033693444 -0.047445863 0.64122808
-0.033693444 -0.04263249 0.64122802
-0.033693444 -0.036443919 0.64122802
-0.033693444 -0.03541249 0.64122802
-0.034475274 -0.024477452 0.64168292
-0.033693444 -0.019597203 0.64122808
-0.033693444 -0.016502917 0.64122802
-0.033693444 -0.010314316 0.64122808
-0.034475274 -0.0096530616 0.64168286
0.0054989383 -0.0034368336 0.64116669
-0.033693444 -0.001375258 0.64122808
-0.034475274 0.0086188167 0.64168292
-0.0041410085 0.012423009 0.6418429
-0.034475274 0.015513882 0.64168292
-0.033693444 0.029567719 0.64122802
-0.033693444 0.030599147 0.64122802
-0.034475274 0.032406777 0.64168292
-0.033693444 0.054322094 0.64122802
-0.033693444 0.054322094 0.64122802
-0.0352614 -0.028347403 0.64214033
-0.036051862 -0.027385563 0.64260018
-0.036051862 -0.016639292 0.64260018
0.013144987 -0.014528692 0.64224684
-0.0352614 -0.012445241 0.64214033
-0.0352614 -0.0086424947 0.64214027
-0.036051862 0.0024265796 0.64260018
-0.036051862 0.0055464208 0.64260018
-0.0013889371 0.0090280771 0.6428811
-0.0013889371 0.0090280771 0.6428811
-0.036051862 0.014559418 0.64260018
-0.0352614 0.018667787 0.64214033
-0.0352614 0.018667787 0.64214033
-0.036051862 0.040558353 0.64260018
-0.021443693 0.040120482 0.64222044
-0.036051862 0.044371516 0.64260018
-0.029136511 0.052723169 0.64270192
-0.029749004 0.053271443 0.64224589
-0.036051862 0.057544321 0.64260018
-0.03684669 -0.065350756 0.64306271
-0.03684669 -0.061527006 0.64306271
-0.03684669 -0.060484231 0.64306271
-0.038449593 -0.058373481 0.64399529
-0.03684669 -0.054574825 0.64306265
-0.03684669 -0.050403476 0.64306259
-0.03684669 -0.046579778 0.64306265
-0.037645921 -0.044617385 0.64352769
-0.03684669 -0.041365623 0.64306265
-0.038449593 -0.039498225 0.64399529
-0.037645921 -0.038343042 0.64352763
-0.038449593 -0.033556014 0.64399523
-0.037645921 -0.030674458 0.64352769
0.022952408 -0.029212117 0.64313674
-0.038449593 -0.028662384 0.64399523
-0.03684669 -0.026418388 0.64306265
0.020891223 -0.025765836 0.64334118
-0.038449593 -0.024467885 0.64399523
0.018825071 -0.022311211 0.64354652
-0.03684669 -0.019466162 0.64306265
-0.038449593 -0.014680773 0.64399529
-0.038449593 -0.014680773 0.64399529
-0.03684669 -0.012513965 0.64306271
0.0097820172 -0.0076858699 0.64390641
-0.038449593 -0.0066412836 0.64399529
-0.03684669 -0.006604597 0.64306265
-0.038449593 0.003495425 0.64399523
-0.038449593 0.0066413134 0.64399529
-0.037645921 0.0076686144 0.64352763
-0.03684669 0.0083426535 0.64306265
-0.0027888911 0.011852771 0.64354604
-0.037645921 0.017428666 0.64352763
-0.011489667 0.025417104 0.64334071
-0.038449593 0.026565164 0.64399529
-0.012542313 0.027175009 0.64344281
-0.037645921 0.031371593 0.64352769
-0.037645921 0.031371593 0.64352769
-0.03684669 0.042408437 0.64306265
-0.038449593 0.04648903 0.64399529
-0.025149744 0.047505081 0.64387953
-0.038449593 0.052431256 0.64399523
-0.028520742 0.052172095 0.643161
-0.040070407 -0.068541497 0.64493829
-0.040070407 -0.067487001 0.64493823
-0.039257742 -0.062391788 0.64446545
-0.039257742 -0.054680422 0.64446545
-0.040070407 -0.050615251 0.64493823
-0.040070407 -0.037609935 0.64493829
0.025896048 -0.032894999 0.64419079
-0.039257742 -0.024536073 0.64446545
0.018250309 -0.020356119 0.64468366
-0.039257742 -0.011567026 0.64446545
-0.039257742 -0.0045567006 0.64446545
-0.040070526 0.014411345 0.64493883
-0.039257862 0.034350604 0.64446598
-0.039257862 0.038556814 0.64446598
-0.039257862 0.040659934 0.64446598
-0.023135263 0.04486838 0.64447451
-0.022496339 0.044289649 0.64494336
-0.039257862 0.048371285 0.64446592
-0.034304928 0.062308967 0.64424074
-0.039257862 0.063443512 0.64446592
-0.039257862 0.067299187 0.64446592
-0.040887751 -0.060626686 0.64541423
-0.040887751 -0.048642337 0.64541429
-0.041709565 -0.042416513 0.64589244
-0.041709565 -0.041356087 0.64589238
0.030951804 -0.04009667 0.64504945
0.02822919 -0.035286486 0.64559984
-0.041709565 -0.034640133 0.64589238
-0.041709565 -0.031458914 0.64589238
0.0253671 -0.03100422 0.6453371
0.023939326 -0.02886799 0.6452058
-0.041709565 -0.018380493 0.64589238
-0.041709565 -0.014492303 0.64589238
-0.041709565 -0.014492303 0.64589238
-0.040887751 -0.0024673641 0.64541423
0.0021122871 0.0056327581 0.64520532
-0.040887751 0.018328995 0.64541423
-0.011317807 0.027587146 0.64599407
-0.040887751 0.031370789 0.64541423
-0.029695373 0.056562632 0.64591438
-0.041709565 0.057615757 0.64589238
-0.03247327 0.060710907 0.64565068
-0.042536009 -0.05955039 0.64637321
-0.043367125 -0.054386623 0.64685678
-0.042536009 -0.054587901 0.64637327
-0.043367125 -0.048343718 0.64685684
-0.043367125 -0.028437465 0.64685684
-0.042536009 -0.020559072 0.64637327
0.018425748 -0.019134462 0.64631271
-0.042536009 -0.017368883 0.64637327
-0.043367125 -0.0095976442 0.64685678
-0.043367125 -0.0095976442 0.64685678
-0.042536009 -0.0035446882 0.64637327
-0.043367125 -0.0014218688 0.64685678
-0.042536009 0.0046080649 0.64637327
-0.042536009 0.0063803792 0.64637327
-0.043367125 0.0095976293 0.64685678
-0.043367125 0.01137495 0.64685678
-0.042536009 0.019495681 0.64637327
-0.042536009 0.028357357 0.64637327
-0.011372384 0.028430969 0.64681756
-0.017005628 0.036845535 0.64628494
-0.042536009 0.044662803 0.64637327
-0.027672732 0.053926349 0.64652383
-0.042536009 0.054587871 0.64637327
-0.042536009 0.054587871 0.64637327
-0.045043524 -0.063632905 0.64783216
-0.044202946 -0.063452631 0.64734316
-0.044202946 -0.057392523 0.6473431
-0.044202946 -0.057392523 0.6473431
-0.044202946 -0.038499326 0.6473431
-0.045043524 -0.035391346 0.64783216
0.027187126 -0.031479836 0.64794666
0.027187126 -0.031479836 0.64794666
-0.044202946 -0.028518051 0.64734316
-0.045043524 -0.021449268 0.64783216
0.018514765 -0.018514782 0.64713925
0.01716006 -0.015730053 0.64783841
-0.045043524 -0.012512073 0.64783216
-0.045043524 -0.0025024116 0.64783216
-0.045043524 -0.00071498752 0.64783216
-0.012845865 0.031401008 0.64751416
-0.045043524 0.039323688 0.64783216
-0.045043524 0.054338217 0.64783216
-0.045043524 0.066492826 0.64783216
-0.045043524 0.069352746 0.64783221
-0.045888886 -0.059512168 0.64832407
0.031553973 -0.038008183 0.64835346
-0.046739224 -0.0035953224 0.64881921
0.0078822728 -0.00071656704 0.6482169
0.0071803359 0.00071808696 0.64857018
-0.045888886 0.0053776056 0.64832401
0.0043014437 0.0050183237 0.64829832
-0.046739224 0.0093478858 0.64881921
-0.045889024 0.017566904 0.64832449
-0.045889024 0.021510482 0.64832455
-0.046739224 0.032357931 0.64881921
-0.045889024 0.036567837 0.64832455
-0.018677557 0.041665316 0.64865088
-0.020858916 0.045314193 0.6488694
-0.045889024 0.046606034 0.64832455
-0.045889024 0.051625162 0.64832455
-0.045889024 0.058436811 0.64832455
-0.046739224 0.062558681 0.64881921
-0.048454285 -0.062556639 0.64981711
-0.048454285 -0.059302256 0.64981705
-0.047594298 -0.053363293 0.64931673
-0.047594298 -0.051560491 0.64931667
-0.048454285 -0.04266873 0.64981711
-0.048454285 -0.04266873 0.64981711
-0.048454285 -0.038329482 0.64981705
-0.048454285 -0.027481526 0.64981711
0.024524936 -0.025967568 0.64936399
-0.047594298 -0.020552084 0.64931673
0.02092823 -0.020206571 0.64944649
-0.048454285 -0.018441558 0.64981711
-0.047594298 -0.0086534917 0.64931673
-0.048454285 -0.0065087676 0.64981711
-0.048454285 0.0025312006 0.64981711
-0.048454285 0.0065087676 0.64981705
0.0043436829 0.0065155327 0.64999789
0.0014456002 0.010841995 0.64972091
-0.00072018057 0.013683438 0.6490885
-0.047594298 0.022354931 0.64931667
-0.047594298 0.025599957 0.64931667
-0.047594298 0.042546421 0.64931667
-0.047594298 0.059492871 0.64931667
-0.048454285 0.062556654 0.64981705
-0.031376705 0.062393248 0.64936244
-0.048454285 0.06870383 0.64981711
-0.048454285 0.06870383 0.64981711
-0.048454285 0.069427043 0.64981705
-0.049319226 -0.061649054 0.65032035
-0.050189171 -0.056371897 0.65082645
-0.049319226 -0.045692801 0.65032029
0.015949562 -0.01159966 0.65024722
0.013093271 -0.0065466166 0.65083241
0.010871266 -0.003623724 0.65019196
-0.050189171 -0.0025458336 0.65082645
-0.049319226 -0.0025384873 0.65032029
-0.050189171 0.0025458187 0.65082645
0.0043651094 0.0072751939 0.65086001
-0.050189171 0.011638045 0.65082645
-0.049319226 0.015593588 0.65032029
-0.049319226 0.015593588 0.65032029
-0.049319226 0.027560741 0.65032029
-0.01015452 0.029738247 0.65032995
-0.0094562219 0.029096097 0.65083188
-0.0094562219 0.029096097 0.65083188
-0.049319226 0.032637715 0.65032035
-0.023273056 0.050909817 0.65080321
-0.034859587 0.068992913 0.6505518
-0.051504202 -0.017533183 0.65159154
0.0087511279 0.00072926283 0.65128064
-0.051504202 0.0014610887 0.6515916
-0.0051039895 0.022603393 0.65125185
-0.051650986 0.027530462 0.65167731
-0.05150428 0.036527514 0.65159184
-0.027055794 0.057767808 0.65175796
-0.05150428 0.061366171 0.65159184
-0.052829448 -0.055397555 0.65236264
-0.052829448 -0.043290824 0.65236264
-0.053720005 -0.038266301 0.65288121
-0.052829448 -0.033385262 0.65236264
-0.053720005 -0.031643271 0.65288121
-0.053720005 -0.025388211 0.65288126
0.020550465 -0.016880751 0.65241164
-0.053720005 -0.015453696 0.65288126
-0.053720005 -0.015453696 0.65288126
0.019857971 -0.015445113 0.65278226
-0.052829616 -0.0055030435 0.65236318
-0.052829616 -0.0055030435 0.65236318
0.011033958 -0.0014711916 0.65281045
0.011033958 -0.0014711916 0.65281045
0.0080785668 0.0029376447 0.65252507
-0.053720005 0.011406302 0.65288126
-0.052829616 0.015408635 0.65236324
-0.053720005 0.025388241 0.65288126
-0.053720005 0.033483028 0.65288126
-0.016913207 0.0426507 0.6527524
-0.026400624 0.057201326 0.65226805
-0.029433142 0.062545449 0.6528663
-0.052829616 0.068605125 0.65236318
-0.054615621 -0.0365334 0.65340233
-0.0555165 -0.021466374 0.65392649
0.020653306 -0.016227633 0.65329838
-0.054615621 -0.002583161 0.65340233
-0.054615621 0.018451214 0.65340233
-0.054615621 0.018451214 0.65340233
-0.0022128404 0.019915581 0.65329725
-0.0555165 0.021466404 0.65392649
-0.011065963 0.033935606 0.65332556
-0.01253133 0.036119729 0.65318215
-0.054615621 0.038378507 0.65340233
-0.054615621 0.063472211 0.65340233
-0.057334263 -0.04058072 0.65498412
-0.057334263 -0.04058072 0.65498412
-0.057334263 -0.036485434 0.65498412
-0.056422703 -0.036377817 0.65445375
0.033506401 -0.034995556 0.65498072
-0.056422703 -0.018560082 0.65445369
-0.057334263 -0.014519736 0.65498412
-0.056422703 -0.014476851 0.65445375
-0.056422703 -0.011507243 0.65445375
0.017852584 -0.010413975 0.65480471
-0.057334263 -0.0085629225 0.65498412
0.0014819257 0.014819294 0.65410584
-0.0037036063 0.022962362 0.65404749
-0.0089306226 0.032001376 0.65489179
-0.056422703 0.035635382 0.65445375
-0.056422703 0.035635382 0.65445375
-0.057334263 0.040580735 0.65498412
-0.056422703 0.048627481 0.65445375
-0.056422703 0.04974106 0.65445375
-0.056422703 0.057536319 0.65445375
-0.057334263 0.065524876 0.65498412
0.028428584 -0.026184201 0.65583384
-0.058251236 -0.021657526 0.65551758
-0.058251236 0.0037340522 0.65551758
0.0074713896 0.0067242384 0.65559685
0.0074713896 0.0067242384 0.65559685
-0.058251236 0.01045534 0.65551764
-0.058251236 0.024644762 0.65551764
-0.058251418 0.044435367 0.65551817
-0.0336321 0.071748495 0.65565503
-0.0336321 0.071748495 0.65565503
-0.060101796 -0.038314879 0.65659481
-0.060101796 -0.038314879 0.65659481
0.021781014 -0.015021384 0.65654576
-0.060101796 -0.012396008 0.65659475
-0.060101796 0.0022538006 0.65659481
-0.059173856 0.0067413449 0.65605485
-0.059173856 0.014606208 0.65605485
-0.059173856 0.017602354 0.65605485
-0.059173856 0.018725902 0.65605491
-0.059173856 0.024718195 0.65605491
-0.059173856 0.052432507 0.65605485
-0.060101796 0.057472333 0.65659481
-0.060101796 0.062355638 0.65659475
-0.061661374 -0.037499618 0.65750217
0.023421708 -0.016621858 0.65762484
0.023421708 -0.016621858 0.65762484
0.016602637 -0.0060373247 0.6574139
-0.061504852 0.0094331875 0.6574111
-0.0030171582 0.024891555 0.65732318
-0.0075628622 0.032520354 0.6578052
-0.061348334 0.04550777 0.65732002
-0.029519446 0.067364901 0.65795553
0.034197178 -0.032677323 0.65868664
0.027325924 -0.022012562 0.65847331
0.027325924 -0.022012562 0.65847331
-0.06291917 -0.020467669 0.658234
-0.063869655 -0.013686329 0.65878701
0.01370161 -0 0.65899163
-0.06291917 0.0064435452 0.658234
-0.063869655 0.019389004 0.65878701
-0.063869655 0.025471807 0.65878701
-0.063869655 0.04143922 0.65878701
-0.015218862 0.045656592 0.65892947
-0.06291917 0.063677251 0.658234
-0.028848574 0.06680724 0.65850216
0.03749257 -0.036727428 0.6599462
0.035062101 -0.033537656 0.65923768
0.031266637 -0.027453631 0.65932971
-0.065787941 -0.025244206 0.65990317
-0.064825892 -0.01754114 0.65934342
-0.064825892 -0.01754114 0.65934342
0.019857362 -0.0091649294 0.65960586
-0.064825892 0.00076264143 0.65934336
-0.064825892 0.00076264143 0.65934336
-0.064825892 0.0045759976 0.65934336
-0.065788157 0.031364083 0.65990376
-0.065788157 0.034424037 0.65990376
-0.064825892 0.036607563 0.65934336
-0.064825892 0.047284782 0.65934336
-0.064826101 0.0526236 0.65934396
-0.025988825 0.063443273 0.65975857
0.038373288 -0.037605822 0.66050422
-0.066756077 -0.01649718 0.66046691
-0.066756077 -0.010742366 0.66046691
-0.066756077 -0.010742366 0.66046691
-0.066756077 -0.0015346408 0.66046691
-0.066756077 -0.0015346408 0.66046691
0.015315835 -0.0015315711 0.6601001
0.0099519389 0.0068897903 0.66003776
-0.066756077 0.0095913857 0.66046691
-0.066756077 0.010742366 0.66046691
-0.066756077 0.014578938 0.66046691
-0.066756077 0.025321305 0.66046685
-0.066756077 0.039516523 0.66046691
-0.014576831 0.046032101 0.66044044
-0.06772992 -0.02039592 0.66103351
0.024629144 -0.015393198 0.66103411
-0.068709746 -0.013510346 0.66160357
-0.068709746 0.00038601458 0.66160357
-0.068709746 0.0054041147 0.66160357
-0.06772992 0.014623523 0.66103345
-0.06772992 0.015393138 0.66103351
-0.068709746 0.019300491 0.66160357
-0.068709746 0.026248693 0.66160357
-0.06772992 0.054645777 0.66103351
-0.021568486 0.057772756 0.6611892
0.036499944 -0.032616973 0.6627081
0.034216609 -0.02877304 0.66296291
0.034216609 -0.02877304 0.66296291
0.034216609 -0.02877304 0.66296291
0.020900527 -0.0085150301 0.66210425
-0.070687532 -0.0023303628 0.6627543
-0.070687532 0.0015535653 0.6627543
0.013581723 0.0034916848 0.66258013
-0.069695592 0.0077439547 0.66217715
-0.069695592 0.015487909 0.66217715
0.0038750507 0.018600255 0.66232556
0.0031068891 0.020194769 0.66273892
-0.070687532 0.021750003 0.6627543
-0.069695592 0.029426992 0.66217715
-0.069695592 0.029426992 0.66217715
-0.069695592 0.033298999 0.66217715
-0.070687532 0.034566984 0.6627543
-0.069695592 0.037558213 0.66217721
-0.070687532 0.039616108 0.6627543
-0.069695592 0.042591751 0.66217715
-0.070687532 0.046607167 0.66275436
-0.016266838 0.050349712 0.6622293
-0.023210794 0.061121762 0.66200763
0.041264623 -0.039707452 0.66318691
-0.072689891 -0.0093793273 0.66391933
-0.071685612 -0.0062335432 0.66333503
-0.071685612 -0.0015583932 0.66333503
-0.072690137 0.0093793869 0.66391999
-0.0023416979 0.029661506 0.66366684
-0.071685612 0.038569987 0.66333503
-0.0078030047 0.038234711 0.66360277
-0.0078030047 0.038234711 0.66360277
-0.071685612 0.050647438 0.66333503
-0.071685612 0.050647438 0.66333503
-0.071685612 0.056491375 0.66333503
-0.028920401 0.071910173 0.66392434
-0.028920401 0.071910173 0.66392434
0.037589487 -0.032890797 0.66428208
0.028196881 -0.018014699 0.66431409
0.028196881 -0.018014699 0.66431409
-0.073700681 -0.010584682 0.66450793
-0.073700681 -0.0047042966 0.66450793
-0.073700681 -0.0035282373 0.66450799
0.018801099 -0.0031335354 0.66434604
0.013312854 0.0054817498 0.66428083
0.0086378762 0.013349444 0.66480041
-0.073700681 0.024305522 0.66450793
-0.073700681 0.033714145 0.66450793
-0.012518998 0.046163797 0.66411871
-0.019641588 0.058139086 0.66489756
0.023688134 -0.0094752312 0.66584897
-0.075740777 -0.0023669302 0.66569495
-0.074717537 0.00078651309 0.66509956
-0.074717537 0.0062920153 0.66509962
-0.074717537 0.011404261 0.66509956
0.0039371285 0.0212605 0.6653229
-0.074717537 0.043257505 0.66509956
-0.074717537 0.051515803 0.66509962
-0.074717537 0.051515803 0.66509962
-0.077806629 0.0087334216 0.66689682
0.012692844 0.0087263286 0.66674179
-0.077806629 0.010321289 0.66689688
-0.076770455 0.013454646 0.66629404
-0.076770455 0.023743451 0.66629404
-0.0039623762 0.034868926 0.66654205
-0.010321876 0.045257479 0.66690785
-0.015046583 0.052267104 0.66640931
0.020715803 -0.0031870306 0.66757691
-0.07884936 0.00039823353 0.6675036
-0.07884936 0.0087610483 0.6675036
0.010327291 0.012710512 0.66700834
-0.07884936 0.01951322 0.6675036
0.0031909312 0.024729729 0.66781127
-0.07884936 0.031460091 0.6675036
-0.0015912964 0.03182593 0.66730803
-0.07884936 0.035442397 0.6675036
-0.07884936 0.049380392 0.6675036
0.040040612 -0.032833278 0.66855478
0.027184682 -0.012792796 0.66824991
-0.079898983 0.025567681 0.66811478
0.0023986404 0.026385039 0.66824925
0.013676059 0.0096536875 0.66943878
-0.0048174951 0.038539976 0.66906261
-0.0064527974 0.041943192 0.66995192
-0.0064527974 0.041943192 0.66995192
-0.01651136 0.057590023 0.66967762
-0.024095908 0.069074959 0.66913044
0.044504728 -0.03803131 0.67057419
0.019420179 0.0016183555 0.67057347
0.015382474 0.0080960393 0.67067724
0.0064630788 0.021812886 0.67026222
0.0040451502 0.02588892 0.67053866
-0.015376941 0.05665189 0.67060691
-0.025456674 0.072330475 0.67033076
0.010554759 0.016238123 0.67123264
0.0064986753 0.022745371 0.67133641
0.0064986753 0.022745371 0.67133641
-0.0097688362 0.048844159 0.67175543
-0.021150727 0.066706151 0.67161524
0.026129542 -0.0073489547 0.67235374
-0.00081581512 0.035080045 0.67217678
0.045249801 -0.036199808 0.67384464
0.028697101 -0.01065889 0.67316711
0.028697101 -0.01065889 0.67316711
0.028697101 -0.01065889 0.67316711
0.016424792 0.0090336502 0.67348635
0.0032796462 0.029516846 0.67316568
-0.006560476 0.045103282 0.67320144
-0.006560476 0.045103282 0.67320144
-0.01151384 0.053457111 0.67377067
-0.01151384 0.053457111 0.67377067
-0.015634362 0.060068876 0.67387784
0.032213643 -0.014867842 0.67463338
0.021409974 0.0016469359 0.6740225
0.0016475067 0.032950163 0.67409319
-0.0033045411 0.041306794 0.67466825
0.014935292 0.013275802 0.67553812
0.013263751 0.015750706 0.67535609
0.0083139678 0.024110466 0.67593849
0.0083139678 0.024110466 0.67593849
0.0083139678 0.024110466 0.67593849
-0.0016630919 0.039914191 0.67597449
0.041623004 -0.028303653 0.6761952
0.019968066 0.0058239996 0.67608482
0.020868482 0.0050084591 0.67674547
0.049457543 -0.039398372 0.67759627
0.0033542556 0.033542573 0.67766881
-0.0025147723 0.042751133 0.67759478
0.030288484 -0.0084134638 0.67834067
0.024390025 0.00084102154 0.67826545
0.022687119 0.0033610761 0.67807919
0.0025217058 0.035303891 0.6781528
0.038127381 -0.019487321 0.67977184
0.028743347 -0.0050723553 0.67931741
0.020311952 0.0084633231 0.67954403
0.01860203 0.01099211 0.67935467
-0.010161545 0.056735307 0.67965603
-0.010161545 0.056735307 0.67965603
0.038347673 -0.018747777 0.68095374
0.02294868 0.0050997138 0.6804179
-0.0017014752 0.044238359 0.6806078
-0.0050949417 0.049251109 0.68022621
0.03682182 -0.015413791 0.68195581
0.02655087 0.00085648894 0.68199408
-0.0068262275 0.052903265 0.68122119
-0.018758103 0.071621805 0.68106735
0.035281025 -0.012047201 0.68296778
0.017190786 0.016331226 0.6827327
0.016276123 0.017132729 0.68203229
-0.011163452 0.060969621 0.68253666
0.012069861 0.025001854 0.68335885
-0.0017213392 0.046476185 0.68300557
-0.017268619 0.07166478 0.68367225
0.040797427 -0.019096643 0.68478268
0.035488077 -0.011252284 0.68418694
0.035488077 -0.011252284 0.68418694
0.025106104 0.005194366 0.68422675
0.025106104 0.005194366 0.68422675
0.015639313 0.020852417 0.68498069
0.0017347352 0.042501003 0.68462265
0.052250743 -0.036575526 0.68546236
0.033136103 -0.0061039925 0.68574166
0.030566799 -0.0017466843 0.68606383
0.013970657 0.024448663 0.68602252
0.0052450048 0.038463354 0.68626428
-0.0017520166 0.04993245 0.68670869
0.04488327 -0.022881657 0.68768787
0.035121325 -0.0079022944 0.68719751
0.028964007 0.0017553568 0.68711638
-0.0052772984 0.056291163 0.68756366
0.043340094 -0.01945883 0.68875676
0.042308316 -0.018509865 0.68801594
0.0097255874 0.033597469 0.6886729
0.0017658966 0.045913279 0.68838412
-0.0053089582 0.057513714 0.68883753
-0.017682819 0.076920241 0.68867207
0.012433337 0.030195236 0.68962681
0.0062142634 0.039948851 0.68954384
0.0026580822 0.045187384 0.6891275
0.0017765383 0.047078311 0.68966866
0.053514834 -0.033892691 0.69054866
0.049849894 -0.028485656 0.69012928
0.032930084 -0.0017800033 0.69008714
0.032930084 -0.0017800033 0.69008714
0.0017873023 0.048257172 0.69096804
-0.014259374 0.073079288 0.6903789
0.01525774 0.027822942 0.69190067
0.024352398 0.014431059 0.69296926
0.032514915 0.0018063784 0.69327146
0.021680839 0.018970728 0.69331396
0.020830991 0.020830989 0.69387573
0.0063285623 0.043395877 0.69348586
0 0.053319544 0.69339901
0 0.053319544 0.69339901
0.056376766 -0.034553528 0.69474667
0.039898153 -0.009067744 0.69413668
0.037236843 -0.0045410991 0.69448423
0.0045437682 0.047255188 0.69461405
-0.011780992 0.072498411 0.69400489
0.027349707 0.011851549 0.695315
0.020100502 0.023755133 0.6957984
0.01457487 0.031882524 0.69513929
0.015541521 0.031083018 0.69593072
0.0036444338 0.049199849 0.69518262
0.010088559 0.040354252 0.69663918
0.051723536 -0.024014473 0.69820666
0.039828852 -0.0046312809 0.69883871
0.0166186 0.031390697 0.69811517
0.049341474 -0.018619418 0.69997787
0.041723717 -0.0074175894 0.69906598
0.027866552 0.01486218 0.69947428
0.025120782 0.019538403 0.69983983
0.00092982815 0.057649344 0.69970191
0.055881169 -0.028871953 0.70007008
0.060108639 -0.033811092 0.70196396
0.021628108 0.027270257 0.70224273
-0.0056478917 0.070598662 0.70247519
0.039756667 -0 0.70374793
0.024565408 0.023620576 0.70332211
0.011328504 0.044369936 0.70313346
0.048346069 -0.013271451 0.70407987
0.029459987 0.017105788 0.70464963
0.0075852182 0.051200241 0.70412576
0.056162748 -0.024749666 0.70503318
0.033330582 0.011427641 0.70512772
0.0047794264 0.057353109 0.7059927
0.051769644 -0.016297847 0.7066716
0.018177042 0.036354095 0.70618612
0.050125599 -0.0125314 0.70794058
0.039422393 0.0038461089 0.70735347
0.039422393 0.0038461089 0.70735347
0.029844701 0.019254655 0.70764571
0.016352657 0.040400684 0.70744979
0.065673709 -0.03670004 0.70838386
0.045633115 -0.0038836598 0.70962179
0.035969611 0.011665791 0.70991975
-0.0048483708 0.075634599 0.70932162
0.032224994 0.018553793 0.71097308
0.031128708 0.019455433 0.71006954
0.023401348 0.032176822 0.71062094
0.014604027 0.04575932 0.71026981
0.061692037 -0.027418643 0.7116307
0.027359946 0.026382804 0.71112424
0.0058716116 0.060673296 0.71147692
0.0058716116 0.060673296 0.71147692
0.00097923062 0.068546146 0.71162868
-0.0029314107 0.07426241 0.71112323
0.047094211 -0.0039245188 0.71208715
0.02863707 0.026662081 0.71362156
0.0078896265 0.059172213 0.71331209
0.070294179 -0.038612276 0.71424294
0.060471885 -0.022800833 0.71455276
0.044523545 0.0019788444 0.71408677
0.038720999 0.011914164 0.71491575
0.024799582 0.033727407 0.71470755
0.016904097 0.046734899 0.71528101
0.0030006925 0.070016176 0.71669865
0.07125105 -0.037130833 0.71749651
0.065459475 -0.027190864 0.71834946
0.020123538 0.044271767 0.71813411
0.0080511635 0.063402921 0.71818691
0.028297551 0.03234005 0.71920848
0.02026185 0.045589179 0.71980369
0.008106512 0.064852118 0.71985722
0.05289194 -0.0050857663 0.72078395
0.041880306 0.01327914 0.72182643
0.036797609 0.021465272 0.72199184
0.017372666 0.052118003 0.72193527
0.070608169 -0.031722516 0.72226965
0.047283649 0.0061674118 0.72337991
0.029835997 0.033951312 0.72360247
0.029835997 0.033951312 0.72360247
0.0082194889 0.067810804 0.72326654
0.0082194889 0.067810804 0.72326654
0.06002352 -0.012418687 0.72506571
0.041555334 0.017661005 0.72603023
0.040636521 0.019797266 0.7267735
0.069939144 -0.026096672 0.72723353
0.027177665 0.041811794 0.7275781
0.012532061 0.064748943 0.72734714
0.013632435 0.063967586 0.72838777
0.070437975 -0.02523151 0.72903097
0.022123151 0.051620692 0.72955495
0.059131902 -0.0063355565 0.73014486
0.023273239 0.050777972 0.73061508
0.008455161 0.073982686 0.73037863
0.075353689 -0.030778259 0.7314468
0.064830773 -0.013816357 0.73180407
0.04990511 0.0095562935 0.73156536
0.079784252 -0.037232637 0.73204321
0.079784252 -0.037232637 0.73204321
0.0096210651 0.074830502 0.73330277
0.082604319 -0.039692998 0.73421437
0.041818615 0.024662256 0.73409098
0.040870983 0.026888818 0.73488283
0.021440286 0.056816757 0.7340287
0.073362291 -0.023734868 0.7356807
0.045279752 0.020483732 0.73549539
0.035518281 0.035518289 0.73506618
0.030158017 0.044159979 0.73524976
0.049709368 0.014048338 0.73611081
0.012992143 0.072539479 0.73660338
0.056393087 0.0043379068 0.73703879
0.059974104 -0 0.73847663
0.050076272 0.01524061 0.73803639
0.084447399 -0.037288427 0.7399931
0.076733321 -0.025212377 0.7398653
0.050448861 0.016450733 0.73999184
0.017492786 0.067784548 0.73916733
0.049506567 0.018702447 0.74082029
0.031835157 0.0461061 0.74024522
0.034327488 0.044293523 0.74255669
0.070068359 -0.011121958 0.74372953
0.041121066 0.034452796 0.74353254
0.058102507 0.008938849 0.74497509
0.058102507 0.008938849 0.74497509
0.032316364 0.049031734 0.74425125
0.021203792 0.066959351 0.74464512
0.041433275 0.035834193 0.74556959
0.067371093 -0.0044913888 0.74630189
0.018027479 0.074363351 0.74723518
0.018027479 0.074363351 0.74723518
0.026127048 0.063613683 0.74946624
0.06605009 0.0011387765 0.75015092
0.075536892 -0.012589484 0.75152791
0.0594543 0.012576908 0.75125116
0.0594543 0.012576908 0.75125116
0.074635334 -0.010334164 0.75243026
0.089085631 -0.031237811 0.7545355
0.089085631 -0.031237811 0.7545355
0.064691037 0.0069311559 0.75411081
0.033585444 0.056747824 0.75481617
0.028879786 0.063535541 0.75410944
0.038315013 0.049925596 0.75552654
0.02910791 0.06520173 0.75631243
0.093839392 -0.035189748 0.758407
0.059899032 0.018791884 0.75876874
0.044791851 0.043613106 0.75979292
0.080423854 -0.011827052 0.76075149
0.031982306 0.065149128 0.76119238
0.028487844 0.071219623 0.76178706
0.040621433 0.053763628 0.7636593
0.062355492 0.020385444 0.76472062
0.053933021 0.033558309 0.76456791
0.052914876 0.036078304 0.76555747
0.052914876 0.036078304 0.76555747
0.031408239 0.071272552 0.76686078
0.067882083 0.014546156 0.76786768
0.058354985 0.030393243 0.7687245
0.044511952 0.056876391 0.77372527
0.067021847 0.022340626 0.77486056
0.047048356 0.053238928 0.77412891
0.062413309 0.031206638 0.77657968
0.060345247 0.036458611 0.77873474
0.05410362 0.046554267 0.77898365
0.0445529 0.064919949 0.78253645
0.041181348 0.073354274 0.78591084
0.011016421 -0.039043702 0.61521184
0.014895594 -0.040373262 0.61716807
0.0069519794 -0.039113592 0.61757684
0.0069281687 -0.032950044 0.61759073
0.0032912749 -0.045035496 0.61970699
0.0050001293 -0.024961915 0.61887157
0.00090477313 -0.038972564 0.62109572
0.016521305 -0.039286379 0.62114179
0.010440145 -0.029502884 0.62132788
-0.00060787657 -0.015044935 0.6219759
0.011570551 -0.030448824 0.6222415
-0.0015255904 -0.014947172 0.6225099
-0.0051054605 -0.031090535 0.62459308
-0.0051054605 -0.031090535 0.62459308
-0.0051054605 -0.024980551 0.62459302
-0.00077451649 -0.0085217953 0.62486446
-0.0089498162 -0.047019981 0.6268298
-0.010420606 -0.044996358 0.6276859
-0.010420606 -0.038996842 0.6276859
-0.010420606 -0.032997321 0.6276859
-0.0089498283 -0.017112525 0.62682998
-0.0089498283 -0.017112525 0.62682998
-0.0127436 -0.051022917 0.6290375
0.021616861 -0.040371999 0.62871486
0.012335982 -0.025201773 0.62925851
0.012335982 -0.025201773 0.62925851
-0.014088058 -0.022893079 0.62981963
0.0076204129 -0.018415987 0.62853241
-0.014088058 -0.011046313 0.62981963
-0.01141044 -0.0011093393 0.6282618
-0.0127436 0.0030263513 0.6290375
-0.0055230008 0.002868861 0.62908608
-0.014088058 0.011046313 0.62981963
-0.012743599 0.010990429 0.6290375
0.020078145 -0.035297975 0.63158584
0.01688895 -0.030764189 0.63103473
-0.016994677 -0.027027812 0.63151115
-0.016994677 -0.027027812 0.63151115
-0.0085367365 0.0091824383 0.63077062
-0.01314756 0.016697671 0.63101721
-0.01314756 0.016697671 0.63101721
-0.0190841 -0.0570038 0.63272685
-0.020671815 -0.052990925 0.63365054
-0.0190841 -0.048930295 0.63272685
-0.0190841 -0.04102001 0.63272679
0.016409367 -0.027567714 0.6336844
-0.020671843 -0.018866744 0.63365078
0.0076723769 -0.014527015 0.6328482
-0.020671843 0.0070545264 0.63365078
-0.0071864324 0.0090659596 0.63296354
-0.0071864324 0.0090659596 0.63296354
-0.0086501259 0.01126302 0.63283676
-0.020671871 0.014929377 0.63365102
-0.024634043 -0.057091068 0.63595629
-0.024634043 -0.057091068 0.63595629
-0.023000415 -0.022999216 0.63500577
-0.021740809 -0.016964436 0.63427293
0.010823933 -0.017338958 0.63520586
0.00059720984 -0.0012581468 0.63511437
0.00059720984 -0.0012581468 0.63511437
-0.023000417 0.0031437818 0.63500583
-0.0033926843 0.0050495192 0.63511539
-0.023000415 0.026970306 0.63500583
-0.01883705 0.029166266 0.634794
-0.024634043 0.031125456 0.63595629
-0.023627106 0.036962591 0.63552368
-0.025366947 -0.046895489 0.6363827
-0.025366947 -0.046895489 0.6363827
-0.025366947 -0.038884863 0.6363827
-0.026845828 -0.035065785 0.63724327
-0.026845828 -0.020972371 0.63724327
-0.026845854 -0.014932337 0.63724339
-0.026845854 -0.014932337 0.63724339
0.0051339832 -0.0068072132 0.63687706
-0.030990794 -0.065045416 0.63965511
-0.028903496 -0.053071618 0.63844073
0.022423495 -0.031936467 0.63926733
0.0033856821 -0.0023692101 0.63869679
-0.028903496 -0.0010141209 0.63844073
-0.0013632533 0.0061346591 0.63978082
-0.018966634 0.033023521 0.63876337
-0.030990794 0.049039412 0.63965511
-0.03311123 -0.060987324 0.64088893
-0.034475274 -0.052919544 0.64168292
-0.034475274 -0.050851025 0.64168292
-0.034475274 -0.034992419 0.64168298
-0.033111278 -0.012952173 0.64088911
-0.033111278 -0.012952173 0.64088911
-0.034475274 0.0049989298 0.64168298
-0.01271162 0.025311347 0.64112675
-0.034475274 0.0329239 0.64168292
-0.026033692 0.045901507 0.64061868
-0.034475274 0.050851017 0.64168292
-0.032975432 0.056848526 0.6413089
-0.038449593 -0.056975313 0.64399529
-0.038449593 -0.056975313 0.64399529
-0.0352614 -0.048916541 0.64214027
-0.036848158 -0.040959973 0.64306349
0.025290627 -0.033070724 0.64296013
-0.038449593 -0.021147288 0.64399529
-0.0352614 -0.012963764 0.64214027
0.009713022 -0.0086715072 0.64271665
0.0090438211 -0.0072169378 0.64314789
-0.038449593 0.0029711053 0.64399529
0.0020923042 0.0041846335 0.64359725
-0.0352614 0.017112158 0.64214027
-0.036848158 0.01894486 0.64306349
-0.0352614 0.02091486 0.64214027
-0.0090263039 0.021093134 0.64287311
-0.036848158 0.029025599 0.64306355
-0.036848158 0.029025599 0.64306355
-0.038449593 0.041071154 0.64399529
-0.022179058 0.041585743 0.64254963
-0.023658521 0.0445337 0.6432119
-0.023658521 0.0445337 0.6432119
-0.030649267 0.055171128 0.64276373
-0.031481445 0.056876995 0.64318788
-0.034798253 0.061211582 0.64257997
-0.040889245 -0.069027424 0.64541501
-0.040889245 -0.06303522 0.64541495
-0.039257742 -0.051000029 0.64446545
-0.039257742 -0.028917529 0.64446545
0.022752166 -0.027089685 0.64509922
0.019622667 -0.022775441 0.64441192
-0.040889286 -0.020972706 0.64541519
0.018911216 -0.021020472 0.6450969
0.00023564234 0.0086889863 0.64530313
-0.039257742 0.011041254 0.64446545
-0.040889286 0.026964918 0.64541519
-0.016109759 0.033620387 0.644319
-0.018994328 0.038869679 0.64506865
-0.018994328 0.038869679 0.64506865
-0.040889286 0.042943798 0.64541519
-0.040889286 0.042943798 0.64541519
-0.039257862 0.051000148 0.64446592
-0.026715048 0.050972477 0.64495897
-0.039257862 0.056958966 0.64446592
-0.040889286 0.060979135 0.64541519
-0.036922891 0.067166507 0.64502275
-0.036922891 0.067166507 0.64502275
-0.03740323 0.068454951 0.64559782
-0.044623233 -0.050959025 0.64758766
-0.042951569 -0.048985261 0.64661503
-0.042951569 -0.026977271 0.64661503
-0.044623233 0.0090136714 0.64758766
-0.0021276877 0.013475388 0.64644468
-0.042951565 0.018990759 0.64661503
-0.042951565 0.025025215 0.64661503
-0.023583807 0.048596948 0.64775598
-0.042951569 0.052978784 0.64661503
-0.042951565 0.054931093 0.64661503
-0.048454285 -0.066534236 0.64981705
-0.045888886 -0.06506899 0.64832401
-0.045888886 -0.057002597 0.64832401
-0.047166761 -0.028983831 0.649068
-0.045888886 -0.017029084 0.64832401
0.017016746 -0.014619152 0.64879918
0.017016746 -0.014619152 0.64879918
-0.045888886 -0.0030473173 0.64832401
-0.045888886 -0.0030473173 0.64832401
0.0071998774 0.0010792091 0.64899611
0.003236512 0.0071914792 0.64883047
-0.045888953 0.014878057 0.64832431
-0.0053980513 0.020994678 0.64899862
-0.048454285 0.02910874 0.64981705
-0.048454285 0.02910874 0.64981705
-0.048454285 0.037063919 0.64981711
-0.020098528 0.043786079 0.64851487
-0.020098528 0.043786079 0.64851487
-0.048454285 0.056951858 0.64981711
-0.050810017 -0.052995142 0.65118772
-0.050846685 -0.041004222 0.651209
-0.049319226 -0.027016804 0.65032029
-0.050846685 -0.008929804 0.651209
-0.050846685 -0.006925147 0.651209
-0.049319226 0.0048956573 0.65032029
-0.050846685 0.0089298114 0.651209
-0.050846688 0.014943764 0.651209
-0.0021801244 0.017440975 0.65066445
-0.021649592 0.048894674 0.65140212
-0.032269701 0.065269195 0.65095401
-0.05506606 -0.044902414 0.65366441
-0.053274728 -0.038944986 0.65262192
0.03500662 -0.039059035 0.65314192
0.025760658 -0.024655715 0.65291226
-0.05327481 -0.015063748 0.65262222
-0.0036850991 0.022110581 0.6531539
-0.05506606 0.041021965 0.65366447
-0.05506606 0.065043561 0.65366441
-0.056878485 -0.039033882 0.65471894
-0.056878481 -0.027044754 0.65471894
0.025610723 -0.023012087 0.654441
0.014910539 -0.0054050609 0.65519446
0.013140908 -0.0029747686 0.65479589
-0.058251236 0.0091484264 0.65551764
0.0037186798 0.011899769 0.65477526
0 0.018696815 0.65577382
-0.058251418 0.061051972 0.65551817
-0.060568549 -0.038936552 0.65686631
-0.05917367 -0.03314475 0.65605432
0.03402188 -0.033265829 0.6577462
-0.060803324 -0.02898908 0.65700293
0.029337782 -0.026703954 0.65683103
-0.059173856 -0.0031833649 0.65605485
-0.059173856 0.0031834096 0.65605485
0.0069144638 0.0091761453 0.65730482
-0.059173856 0.013108164 0.65605485
-0.059173856 0.019100428 0.65605491
-0.059173856 0.031085014 0.65605485
-0.016556105 0.04590559 0.65690327
-0.059173856 0.052994289 0.65605485
-0.059173856 0.052994289 0.65605485
-0.06068594 0.065012351 0.65693462
-0.034903906 0.075083241 0.6570943
-0.065306917 -0.023105461 0.65962327
-0.063394412 -0.0189799 0.65851057
-0.065306917 -0.012984589 0.65962327
0.010666638 0.0049533546 0.65916121
-0.063394412 0.011008531 0.65851051
0.006095692 0.012191415 0.65917534
0.0030478672 0.016947024 0.65910786
0.00038085302 0.020915046 0.65883887
-0.001014563 0.023356836 0.65909541
-0.063394412 0.026951887 0.65851051
-0.065307021 0.029024806 0.65962356
-0.065307021 0.034944683 0.65962356
-0.026535757 0.062927693 0.65825868
-0.028673332 0.066989742 0.65900135
0.035336319 -0.032646686 0.66067684
0.024629144 -0.015393198 0.66103411
0.019960787 -0.0084449351 0.66056621
-0.067242995 -0.0071084909 0.66075021
-0.068709746 -0.0011580288 0.66160357
-0.067242995 0.017098773 0.66075021
-0.068709746 0.026827693 0.66160357
-0.067242995 0.034966044 0.66075021
-0.067242995 0.04303487 0.66075015
-0.067242995 0.048894711 0.66075021
-0.017437913 0.051034562 0.6609621
-0.069695592 -0.020521462 0.66217721
-0.072689891 -0.0068390891 0.66391933
-0.069695592 0.056918085 0.66217721
-0.069695592 0.056918085 0.66217721
0.039884102 -0.036755919 0.66402304
0.029110068 -0.018685177 0.66515398
-0.073700681 -0.0068604425 0.66450787
-0.073700681 0.00098004937 0.66450799
-0.075229153 0.010831337 0.66539723
-0.075229153 0.031115465 0.66539729
-0.073700681 0.039006472 0.66450799
0.031481951 -0.020898899 0.66682243
0.027528098 -0.014557382 0.66692227
-0.077288538 0.00099088624 0.66659546
-0.077288538 0.0091160163 0.66659546
0.005546378 0.019808501 0.66650933
-0.077288538 0.027149845 0.66659546
-0.0075436127 0.040897056 0.66694152
-0.077288538 0.043102719 0.66659546
-0.011139423 0.046950065 0.66734266
-0.07884936 0.048982173 0.6675036
-0.077288538 0.055092417 0.6665954
-0.021218505 0.062860638 0.66731977
0.038867392 -0.030853629 0.66869092
0.037794024 -0.028545454 0.66935527
0.014447478 0.0080263913 0.66899544
-0.0026736511 0.035038769 0.66894042
-0.026901774 0.073479101 0.66909665
0.046164032 -0.04049477 0.67074764
0.0048643504 0.024922669 0.6708957
0.036489181 -0.022958815 0.67318523
0.027587578 -0.009013107 0.67304963
0.023460783 -0.0027276576 0.67279148
-0.024564419 0.073284984 0.6729008
-0.024564419 0.073284984 0.6729008
0.043326303 -0.032598034 0.67445457
0.03408739 -0.016627997 0.6759392
0.01103993 0.01904439 0.67511576
0.0066451184 0.026580513 0.6757558
-0.016495828 0.061859339 0.67434382
0.041623004 -0.028303653 0.6761952
0.033429582 -0.014624253 0.67698693
0.019181453 0.0075058043 0.67656124
0.014620777 0.015038311 0.67691314
0.0075003062 0.025834382 0.67641425
-0.0012557765 0.040625066 0.6774469
0.050389126 -0.038955688 0.67967761
0.030462362 -0.0076155961 0.67950666
0.026171055 -0.0012651235 0.67903614
-0.0042234613 0.046881631 0.67914832
-0.0085248109 0.055411309 0.68102866
-0.013680516 0.064127386 0.68164462
0.021135043 0.010782078 0.68347764
0.011999676 0.023999363 0.68214858
-0.016365001 0.069766611 0.68316162
-0.019375294 0.07448934 0.68312323
0.044866383 -0.024829313 0.6855424
0.028707899 0.0004362464 0.68524277
0.016930526 0.018665403 0.68482214
0.0026033581 0.041221112 0.68472368
0.045649074 -0.0245803 0.68715739
0.037697569 -0.01227361 0.68687272
-0.001168298 0.049073242 0.68677795
-0.0017624914 0.051112235 0.68797314
-0.0079281358 0.060782373 0.68789065
-0.0184476 0.076866314 0.68729991
0.052281678 -0.033228561 0.68915236
0.022120824 0.014157355 0.68883914
-0.013415219 0.072442204 0.6911363
-0.016026137 0.075678974 0.69016892
-0.0099174101 0.068520308 0.6928829
-0.01443386 0.075777739 0.6930117
-0.013579962 0.075142443 0.69378775
0.036945205 -0.0031935424 0.6954478
0.0031839907 0.049565792 0.69478917
-0.0054563615 0.063204259 0.69476855
-0.0063625239 0.064534158 0.69465715
0.061646868 -0.040484548 0.69735396
0.061646868 -0.040484548 0.69735396
0.044155981 -0.012878835 0.69730896
0.0018317098 0.0531196 0.69632852
-0.0064824191 0.068528444 0.69879222
0.047732301 -0.014974833 0.70117438
0.04389869 -0.0093401372 0.70071262
0.019602221 0.028936625 0.70057368
0.014944175 0.036426425 0.70071173
0.057569671 -0.028783351 0.70306665
0.03119202 0.013232976 0.70341611
0.026482377 0.020807594 0.70355767
0.013230227 0.041580707 0.70336866
0.05420237 -0.02187115 0.70479369
0.045311112 -0.0071551502 0.70551324
0.019470422 0.032764927 0.70450747
0.00047694508 0.06331405 0.70507985
-0.0047545559 0.071318328 0.70479178
-0.005720939 0.073418707 0.70541441
0.020242946 0.034702212 0.70793962
-0.0066925776 0.075530529 0.70604026
0.030040912 0.020350307 0.70917368
0.0067862705 0.057198584 0.70927167
0.0067862705 0.057198584 0.70927167
0.0570543 -0.020969242 0.71067286
0.048784215 -0.0078054667 0.71077263
0.040208943 0.0068649054 0.71198499
0.023557084 0.033372551 0.71218759
0.012812354 0.051249415 0.71315819
0 0.073646396 0.71548927
0 0.073646396 0.71548927
0.059221443 -0.018067539 0.71754909
0.048053388 -0.0010011494 0.71691144
0.04512921 0.0040115118 0.71733612
0.069641501 -0.033306807 0.71888745
0.044404473 0.006561473 0.71886218
0.042483941 0.010115206 0.71942466
0.024201527 0.038319111 0.71867013
0.0040442888 0.070775092 0.71931601
0.066366054 -0.025525451 0.7217167
0.066366054 -0.025525451 0.7217167
0.053753592 -0.007099539 0.72007567
0.016828954 0.05252251 0.72144103
