# .PCD v0.7 - Point Cloud Data file format
VERSION 0.7
FIELDS x y z
SIZE 4 4 4
TYPE F F F
COUNT 1 1 1
WIDTH 1331
HEIGHT 1
VIEWPOINT 0 0 0 1 0 0 0
POINTS 1331
DATA ascii
0.013237387 -0.040972859 0.62740195
0.030976985 -0.033505738 0.6278441
0.0025253077 -0.023990422 0.62763739
0.0075654928 -0.019544154 0.62742752
0.012296675 -0.01513499 0.62746799
0.013679452 -0.013679385 0.62764752
0.030976985 -0.0094827414 0.6278441
0.030633163 0.0015792996 0.62770462
0.03178991 -0.050545968 0.62871683
0.03178991 -0.046413273 0.62871683
0.03178991 -0.046413273 0.62871683
0.03178991 -0.044505864 0.62871683
0.0012705229 -0.035574645 0.62858725
-0.0057022981 -0.031045824 0.62818342
0.015234603 -0.011425942 0.62846982
0.015234603 -0.011425942 0.62846982
0.03178991 -0.001589492 0.62871683
0.027432555 -0.049123406 0.62924027
-0.0025560549 -0.026838541 0.62949312
0.03261219 -0.020462602 0.62959957
0.010206966 -0.015310466 0.62923282
0.010206966 -0.015310466 0.62923282
0.03261219 -0.014387757 0.62959957
0.03261219 -0.0044761896 0.62959957
0.03081952 -0.051365882 0.6302318
0.015431943 -0.043723822 0.63045496
0.0051489132 -0.038616836 0.63060379
-0.0070919655 -0.029657304 0.63087177
0.0070582614 -0.017324805 0.63013196
0.0070582614 -0.017324805 0.63013196
0.014807241 -0.0096568763 0.63064694
0.023581004 -0.0017146965 0.63048553
0.024388848 -0.0012836158 0.63016862
0.031487666 0.005462721 0.63036025
0.034285445 -0.05045782 0.63139588
0.02264276 -0.047873273 0.63140571
0.0097157443 -0.041453868 0.63159412
0.034285445 -0.036549583 0.63139594
0.034285445 -0.036549583 0.63139594
-0.0032424924 -0.035018921 0.63178295
0.034285445 -0.03137441 0.63139594
-0.00064887787 -0.022710741 0.6318745
-0.00064887787 -0.022710741 0.6318745
0.034285445 -0.016495824 0.63139594
0.009397421 -0.013610855 0.63169533
0.011005897 -0.0123007 0.63151914
0.014915261 -0.0084303617 0.63178074
0.034285352 -0.00064688921 0.63139546
0.028492644 0.0038853586 0.63155639
0.031004455 0.0058133304 0.63116193
0.034285352 0.0084096193 0.63139546
0.032538254 -0.053362727 0.63233012
0.035136767 -0.032534033 0.63230979
-0.0045511313 -0.02600643 0.63218445
0.035136666 -0.013338923 0.63230938
0.020148136 -0.0032497048 0.63213092
0.02347362 0.00032661855 0.63263917
0.035136666 0.0045547485 0.63230938
0.033415142 -0.05438149 0.63340056
0.035998005 -0.052360728 0.63323408
0.017716357 -0.046587452 0.6336329
0.0019713747 -0.038770378 0.63386559
0.0026279441 -0.01773864 0.63383198
0.010469942 -0.011124313 0.63320076
0.012489541 -0.0085454583 0.63391852
0.035619169 -0.056067184 0.63446653
0.027724233 -0.052147985 0.63458401
0.025089998 -0.050840229 0.63462317
0.015375662 -0.0054911179 0.63431025
0.016461542 -0.0046092272 0.63418829
0.022361899 0.00065770745 0.63400513
0.025273979 0.0037364762 0.63439721
0.037751462 -0.055633709 0.63511646
0.037751462 -0.054640271 0.63511646
0.037751462 -0.04934182 0.63511646
0.037751462 -0.036426842 0.63511646
-0.01329517 -0.030578882 0.63570845
0.037751462 -0.021524966 0.63511646
0.0026574042 -0.015944421 0.63561016
0.0079904776 -0.010653973 0.63597757
0.037751462 0.0016557723 0.63511646
0.018758848 -0.048907027 0.63696396
0.038643949 -0.048638061 0.63607454
0.0046630306 -0.041301131 0.63604373
0.038643949 -0.039643362 0.63607454
0.038643949 -0.033646882 0.63607454
-0.0086754877 -0.025692165 0.63633299
-0.0086754877 -0.025692165 0.63633299
0.038643949 -0.023652747 0.6360746
-0.0026712616 -0.020034462 0.63644648
-0.00066838966 -0.018046528 0.63658512
0.039547198 -0.055634186 0.63704425
0.016083026 -0.047578961 0.63700438
-0.0094040632 -0.034929395 0.63738883
-0.0094040632 -0.034929395 0.63738883
-0.016154487 -0.031298816 0.63772315
-0.011395893 -0.027484208 0.6370576
0.039547198 -0.014411271 0.63704419
0.015450619 -0.002350539 0.63740021
0.016835613 -0.00067341328 0.63780063
0.039547086 -0.00067028403 0.63704377
0.039547086 -0.00067028403 0.63704377
0.024650967 0.0062751374 0.63753057
0.032173261 0.012735248 0.63704056
0.040461402 -0.043495998 0.63802564
0.040461402 -0.0374268 0.6380257
0.040461402 -0.026637077 0.63802564
0.0067818337 -0.0088163912 0.63894951
0.040461287 0.0094409883 0.63802522
0.040461287 0.017533213 0.63802522
0.037492931 0.018915638 0.63831598
0.031221975 -0.056335285 0.63908356
0.031221975 -0.056335285 0.63908356
-0.014996739 -0.033401847 0.63979125
-0.014996739 -0.033401847 0.63979125
-0.011570364 -0.025182545 0.63953525
-0.01053456 -0.024465978 0.63929403
-0.0047599892 -0.019039989 0.63938773
0.041386645 -0.011534005 0.6390186
0.012601115 -0.0027246922 0.6396715
0.020425836 0.0044262558 0.63959599
0.021072432 0.0047582984 0.63932914
0.042323366 -0.059389219 0.64002419
0.023942998 -0.053358659 0.64037442
0.023942998 -0.053358659 0.64037442
0.013010886 -0.04793486 0.64054292
-0.0034291749 -0.039778411 0.64079672
0.042323366 -0.037544936 0.64002424
-0.015066721 -0.027394027 0.6405592
0.0027392847 -0.010957152 0.64055204
0.042323366 0.000341326 0.64002419
0.042323366 0.005461067 0.64002424
0.042323366 0.012628779 0.64002419
0.032098774 0.01570794 0.6401009
0.034177762 0.017772436 0.64024639
0.042323366 0.020479053 0.64002424
0.042323366 0.023550898 0.64002419
0.043271657 -0.058382377 0.64104223
0.031673074 -0.057837784 0.64145106
0.024803597 -0.054430157 0.64155823
0.043271657 -0.052544147 0.64104223
0.043271657 -0.050483607 0.64104223
0.015171379 -0.049651802 0.64170766
0.0082806144 -0.046233416 0.64181465
-0.015807791 -0.027491808 0.64114928
0.043271657 -0.022666097 0.64104223
-0.0062113679 -0.017943919 0.64183903
-0.0044812467 -0.016543865 0.64163995
0.043271657 -0.0044645518 0.64104223
0.015839536 0.0020660162 0.64148259
0.015839536 0.0020660162 0.64148259
0.043271657 0.0075553656 0.64104223
0.043271657 0.012363315 0.64104223
0.043271657 0.015454158 0.64104223
0.040885564 -0.06306076 0.64252067
0.044231739 -0.06047307 0.64207292
-0.017985243 -0.033203542 0.6422224
-0.021504635 -0.031216413 0.64269507
0.044231739 -0.030409306 0.64207292
0.044231739 -0.030409306 0.64207292
0.044231739 -0.0165869 0.64207292
0.044231739 -0.007602334 0.64207292
0.044231739 -0.007602334 0.64207292
0.0094834045 -0.0025440853 0.6427502
0.01317125 0.00069320202 0.64258057
0.017549023 0.0046185357 0.64246261
0.031896431 0.018028408 0.64262331
0.044231739 0.023498118 0.64207292
0.039499495 0.024947047 0.64252019
0.041615643 0.027050167 0.64266998
0.045203835 -0.062589914 0.64311647
0.0090355007 -0.047262609 0.64301872
0.0034769927 -0.044505477 0.64310563
0.045203835 -0.03651078 0.64311647
-0.017441738 -0.026511431 0.64365387
-0.007646481 -0.018073499 0.64304191
0.00069763861 -0.0097669363 0.64364642
0.045203835 -0.0076498687 0.64311647
0.012572343 0.0013969243 0.64384556
0.034140341 0.020902246 0.64342988
0.036617432 0.023365438 0.64360666
0.045203701 0.023644984 0.643116
0.046188165 -0.066482946 0.64417326
0.020981072 -0.053851426 0.64406419
-0.008415469 -0.039272159 0.64452773
-0.008415469 -0.039272159 0.64452773
-0.013332051 -0.021752298 0.64462376
-0.011237169 -0.019665062 0.64477742
0.046188094 -0.013646483 0.64417303
-0.0035094141 -0.01263389 0.64467108
0.046188027 0.0055985451 0.64417273
0.023862457 0.012633055 0.64466
0.024475092 0.01258719 0.6440447
0.027413007 0.016166627 0.64491606
0.046188027 0.017495453 0.64417273
0.046188027 0.01854521 0.64417273
0.036405984 0.02380392 0.64424431
0.042381518 0.029422313 0.64434487
0.044969928 0.032322109 0.64485753
0.026055967 -0.057041436 0.64523417
0.024650769 -0.056344599 0.64525646
-0.023589402 -0.030631036 0.64522153
0.047184821 -0.026409417 0.64524281
-0.0154842 -0.023226291 0.64514053
0.047184821 -0.018310517 0.64524281
-0.0063468819 -0.014456078 0.64547408
0.047184821 -0.014437124 0.64524281
0.00070594909 -0.0077654123 0.64565271
0.0084660519 -0.00070551038 0.64554536
0.021910081 0.012015224 0.64585257
0.031392712 0.020458579 0.64553678
0.033831172 0.022554129 0.64537919
0.041723296 0.030408502 0.64594859
0.048194461 -0.050320685 0.64632702
-0.0028455439 -0.043394566 0.64696532
-0.0028455439 -0.043394566 0.64696532
0.048194319 -0.042524397 0.64632654
0.048194319 -0.042524397 0.64632654
0.048194319 -0.036500111 0.64632654
0.048194319 -0.036500111 0.64632654
0.048194319 -0.029412702 0.64632654
0.048194319 0.023388445 0.64632654
0.036988616 0.02703017 0.64694929
0.030723259 -0.060732022 0.64771575
0.04921677 -0.054566428 0.64742416
0.04921677 -0.04743354 0.6474241
0.04921677 -0.043510467 0.64742422
-0.021401828 -0.026395589 0.64745015
-0.012836872 -0.018542171 0.64739352
-0.0057228254 -0.011445642 0.64792311
0.04921677 -0.0096293688 0.64742422
0.04921677 -0.0064195693 0.64742422
0.011392328 0.003560096 0.64711851
0.019212337 0.010673523 0.64700925
0.04921677 0.012482524 0.64742422
0.036411796 0.027130336 0.64758605
0.04921677 0.033524483 0.64742416
0.04921677 0.033524483 0.64742416
0.04921677 0.033524483 0.64742416
0.04921677 0.037447527 0.64742416
0.038845468 -0.065461814 0.64889055
0.050252426 -0.064610243 0.64853597
0.0050134677 -0.047986031 0.64812988
0.0050134677 -0.047986031 0.64812988
0.050252426 -0.026561975 0.64853597
-0.019357141 -0.023658752 0.6483041
0.050252426 0.015434653 0.64853597
0.046334833 0.037355766 0.64865381
0.051301539 -0.070449293 0.64966226
0.051301539 -0.063584998 0.64966226
0.051301539 -0.049495161 0.64966226
0 -0.046206295 0.64952153
-0.02170299 -0.035448223 0.64987373
0.051301539 -0.034682721 0.64966226
0.051301539 -0.030347377 0.64966226
-0.017327264 -0.020575374 0.64952034
-0.015535064 -0.018785775 0.64965564
-0.01299323 -0.016602427 0.64949059
-0.0057692518 -0.010096192 0.64932418
-0.0050496678 -0.0093779564 0.64937836
-0.0050496678 -0.0093779564 0.64937836
-0.0007227271 -0.0050590932 0.64970332
0.0014468039 -0.0028936267 0.64986628
0.0093600936 0.0036000609 0.64904666
0.051301539 0.0043353438 0.64966226
0.022354349 0.015864402 0.64931244
0.023082644 0.016590655 0.64936668
0.051301382 0.025289416 0.64966172
0.047724217 0.039770216 0.64979196
0.047079075 -0.070256457 0.65008146
0.03986302 -0.066679999 0.65019947
0.052364379 -0.056364417 0.65080321
0.016706118 -0.055202842 0.65057874
0.052364379 -0.045455202 0.65080321
0.052364379 -0.040364206 0.65080321
-0.02974545 -0.031196445 0.65037251
-0.026158839 -0.02761215 0.65064663
-0.023186488 -0.025360227 0.65015006
-0.020313529 -0.022489995 0.65036869
-0.013072861 -0.015614077 0.65055871
0.052364379 -0.0083637834 0.65080321
0.0036351955 -0 0.65074432
0.013033086 0.0079646707 0.65002525
0.052364219 0.014545649 0.65080273
0.052364219 0.031273067 0.65080273
0.052364219 0.031273067 0.65080273
0.047178425 0.039920181 0.65045047
0.052364219 0.040364087 0.65080267
0.052373569 0.045099437 0.65083402
0.026326185 -0.060696498 0.65176892
0.053441215 -0.060395889 0.65195924
0.053441215 -0.043558255 0.65195924
0.053441215 -0.041728079 0.65195924
0.053441215 -0.040629983 0.6519593
-0.029910024 -0.032098562 0.65134156
-0.027822077 -0.027822047 0.65198058
-0.016056223 -0.017515868 0.65141773
-0.001456844 -0.0043705404 0.65107822
0.053441048 -0.0043924153 0.6519587
0.0065784724 0.0036547184 0.65168643
0.024104808 0.019722164 0.65156746
0.02558176 0.021196336 0.6516782
0.041607536 0.035767883 0.65144873
0.041607536 0.035767883 0.65144873
0.048115607 0.041554391 0.65122366
0.049269982 -0.072801873 0.65275627
-0.0014663645 -0.046923637 0.65222746
-0.010272968 -0.042559415 0.65237254
-0.02648348 -0.025747836 0.65282375
-0.0095539596 -0.010288894 0.65264696
-0.0073410226 -0.0084414333 0.65244955
-0.0036687232 -0.005136162 0.65236318
0.00073513493 -0.00073513389 0.65269887
0.024204252 0.020536959 0.65229499
0.030893158 0.027215421 0.65279937
0.034482785 0.030080706 0.65234673
0.054532323 -0.060427681 0.65313059
-0.0066529973 -0.045092523 0.65368551
-0.017018503 -0.03995648 0.65385765
-0.032488246 -0.030641571 0.6534797
-0.030966712 -0.02949211 0.6532222
0.054532152 -0.027266085 0.65312999
0.054532152 -0.023581475 0.65313005
0.054532152 -0.017686099 0.65313005
-0.016989877 -0.016251177 0.65355718
0 -0.0007379353 0.65337956
0.0055356566 0.004429087 0.65343446
0.054532152 0.0073691905 0.65313005
0.016483583 0.014515996 0.65341079
0.054532152 0.016580746 0.65313005
0.019930184 0.017715693 0.65342796
0.031395823 0.028440922 0.65356529
0.042879026 0.039182574 0.6537028
0.054532152 0.040530652 0.65313005
0.022289697 -0.060182184 0.65459526
0.055637814 -0.050444931 0.65431702
0.055637814 -0.043397486 0.65431702
0.055637814 -0.036350071 0.65431702
0.055637814 -0.034495443 0.65431702
-0.031592309 -0.028618902 0.6546821
0.055637814 -0.024480641 0.65431702
-0.025603946 -0.023377493 0.65439129
0.055637814 -0.021513283 0.65431696
0.055637814 -0.002596423 0.65431702
0.0096331518 0.0088921487 0.65411758
0.031150917 0.028925836 0.65428102
0.03642403 0.034193993 0.6546815
0.03642403 0.034193993 0.6546815
0.055637814 0.035608202 0.65431696
0.047603596 0.044628382 0.65479225
0.056758329 -0.067587234 0.6555199
0.056758329 -0.046302855 0.6555199
0.056758329 -0.040328264 0.6555199
-0.032828853 -0.029098332 0.65534854
0.056758329 -0.023524821 0.65551984
-0.0059627257 -0.0044720471 0.65516269
0.056758329 0.0014936626 0.6555199
0.0089639956 0.0097110271 0.65556324
0.056758329 0.010455459 0.6555199
0.023671841 0.023423335 0.65569401
0.023671841 0.023423335 0.65569401
0.026873464 0.026126981 0.65543902
0.056758329 0.029499382 0.65551996
0.056758329 0.029499382 0.65551996
0.032481611 0.03136225 0.65549576
0.056758329 0.033606857 0.65551996
0.038094331 0.036600411 0.65555066
0.043552533 0.041562229 0.65547156
0.056758329 0.048543304 0.6555199
0.057893999 -0.058645874 0.65673912
-0.014276537 -0.042829603 0.65662479
-0.024820402 -0.037606716 0.65680265
-0.032364402 -0.033869714 0.65692985
-0.015038072 -0.01127854 0.65674716
-0.0075115543 -0.0045069456 0.6565665
-0.0044937609 -0.0022468865 0.65603656
0.057893999 0.0052630901 0.65673906
0.012017952 0.013520211 0.65655845
0.013528927 0.015032142 0.65667558
0.057893999 0.019548655 0.65673906
0.057893999 0.025563568 0.65673912
0.05789391 0.048495561 0.65673882
0.057893816 0.050375134 0.65673852
0.05789391 0.051503047 0.65673876
0.054414909 0.052539229 0.65642297
0.055685703 0.054180682 0.65689343
0.028664652 -0.064872652 0.65733361
0.059045132 -0.063587055 0.6579749
0.059045132 -0.061316118 0.65797484
0.0075581931 -0.054418981 0.65769255
0.0075581931 -0.054418981 0.65769255
0.059045132 -0.044662327 0.65797484
-0.031010812 -0.024959892 0.65782332
0.059045132 -0.018546239 0.65797484
-0.01967774 -0.014379889 0.65793794
-0.015851872 -0.011322767 0.65745872
0.059045132 -0.002270937 0.65797484
0.0064232927 0.00944601 0.6576575
0.017388571 0.019656628 0.65774214
0.020352628 0.021860242 0.65720522
0.032444291 0.033198833 0.65737844
0.059044942 0.036335319 0.65797424
0.041484073 0.041484058 0.65731508
0.059044942 0.055260003 0.65797424
0.032683503 -0.067647293 0.65872151
-0.016665608 -0.04242155 0.65810496
-0.028831337 -0.022381425 0.65839267
-0.027273357 -0.021212578 0.65812075
-0.027273357 -0.021212578 0.65812075
-0.02427466 -0.018206 0.65835977
-0.01063724 -0.0053186417 0.65865421
0.00076028204 0.0053219497 0.65876991
0.0053096903 0.0091022849 0.65834624
0.0053096903 0.0091022849 0.65834624
0.0091172243 0.012916058 0.65864593
0.02503027 0.027305752 0.65833801
0.029639268 0.031919211 0.65869731
0.03412025 0.035636723 0.65827394
0.043203868 0.043961823 0.65820992
0.047070391 0.047829598 0.6585086
0.047070391 0.047829598 0.6585086
0.060212046 -0.054495737 0.65922761
0.060212046 -0.050303727 0.65922761
0.060212046 -0.041538686 0.65922761
0.060212046 -0.032392561 0.65922761
0.060212046 -0.032392561 0.65922761
0.060212046 -0.032392561 0.65922761
-0.037442006 -0.029036641 0.65969712
0.060212046 -0.021340966 0.65922761
0.060212046 -0.016386837 0.65922761
0.00076354726 0.0061083734 0.65955818
0.060211852 0.012575895 0.65922695
0.011456726 0.016039431 0.65961474
0.011456726 0.016039431 0.65961474
0.060211852 0.017530054 0.65922701
0.039687656 0.041977316 0.65948015
0.054568134 0.055713713 0.65947461
0.054568134 0.055713713 0.65947461
0.042866971 -0.073486239 0.66002518
0.021476414 -0.062895223 0.66039538
0.061395068 -0.057557881 0.66049761
0.061394867 -0.037604362 0.66049695
0.061394867 -0.021488219 0.66049701
-0.020692071 -0.013028324 0.66024035
-0.016888032 -0.0092116296 0.66054571
0.061394867 -0.0046046078 0.66049695
-0.0092023257 -0.0023005903 0.66035807
0.0034548379 0.0095966607 0.6605674
0.016491219 0.021477923 0.66040838
0.061394867 0.04067412 0.66049695
0.048466206 0.051543444 0.66094816
0.061394867 0.051418215 0.66049695
0.056889661 0.059196025 0.66082132
0.062594332 -0.051389158 0.66178465
-0.040114086 -0.032399833 0.66145998
-0.030788334 -0.021551818 0.66104567
-0.02622219 -0.016967267 0.66141558
-0.013895808 -0.0054039359 0.6615963
0.062594332 0.0034774691 0.66178465
0.0034698215 0.010409355 0.66137123
0.062594332 0.024728626 0.66178465
0.023905581 0.029303581 0.66139311
0.030479534 0.035496056 0.66151512
0.062594332 0.035547405 0.66178459
0.046312701 0.05017212 0.66156948
0.062594332 0.060276061 0.66178465
0.062594332 0.060276061 0.66178465
0.059254806 0.061563432 0.66100568
0.011609426 -0.058821082 0.66207248
-0.010081879 -0.048082799 0.66245085
-0.016295524 -0.045006692 0.66255909
-0.019405043 -0.043467283 0.66261321
-0.034117345 -0.023261845 0.66241831
-0.031440135 -0.020571932 0.66263729
-0.023269003 -0.01318574 0.66247606
-0.0069687376 0.0015486181 0.66215515
-0.00077637262 0.0077637136 0.66265452
0.01745305 0.024434239 0.6624893
0.018625842 0.025610536 0.66258305
0.031860903 0.038077652 0.66282898
0.031860903 0.038077652 0.66282898
0.032648951 0.038867801 0.66289192
0.049681969 0.054339647 0.66263235
0.053419281 0.057290226 0.66212821
0.054211594 0.058083832 0.66219068
0.03891594 -0.073162004 0.66312438
0.0078058406 -0.057763249 0.66367126
0.063810579 -0.051359683 0.66309035
0.063810579 -0.026458055 0.66309029
-0.035800423 -0.024126381 0.66311258
-0.033499267 -0.021813452 0.66330153
0.063810579 -0.010505408 0.66309029
-0.010140759 -0 0.6635443
-0.0062372945 0.0035093427 0.66344857
0.063810579 0.0085600019 0.66309029
0 0.0093604922 0.66353995
0.013278176 0.021869957 0.66378838
0.063810579 0.0213999 0.66309035
0.024220752 0.03203392 0.66384763
0.063810579 0.043577969 0.66309029
0.063810579 0.044356108 0.66309035
0.063810579 0.063421503 0.66309029
0.038454425 -0.073769718 0.66468519
-0.040774241 -0.033717185 0.66452491
-0.043052025 -0.029745042 0.6641975
-0.043052025 -0.029745042 0.6641975
-0.03920418 -0.025874734 0.66451609
0.065043971 -0.016456932 0.66441441
-0.024355248 -0.011784822 0.66489506
-0.013360279 -0.0015718043 0.6649543
0.065043971 0.0015673637 0.66441441
-0.0054955883 0.0054956079 0.66475761
0.065043971 0.029779136 0.66441441
0.065043971 0.03526479 0.66441435
0.065043971 0.039574936 0.66441441
0.065043971 0.039574936 0.66441441
0.032936979 0.040779114 0.66454744
0.054929234 0.061206877 0.6646657
0.054929234 0.061206877 0.6646657
-0.014985408 -0.047322333 0.66563201
0.066294879 -0.046564251 0.6657573
0.066294879 -0.030779749 0.66575718
-0.042470459 -0.028313637 0.665097
0.066294879 -0.010259956 0.6657573
0.066294879 -0.0055245757 0.66575724
0.066294879 -0.0015784502 0.66575724
-0.013419599 -0.00078937411 0.66579676
0.066294879 0.003551513 0.6657573
0.066294879 0.003551513 0.6657573
0.066294879 0.0074976385 0.6657573
0.066294879 0.01854679 0.6657573
0.066294879 0.023676723 0.6657573
0.014188698 0.024436086 0.6655246
0.015775904 0.026030213 0.66565359
0.028299225 0.036946207 0.66500038
0.0031757378 -0.057163298 0.66689432
0 -0.055591851 0.666951
-0.045960788 -0.030112237 0.66653049
-0.02055252 -0.0071142912 0.66606069
0.0047523649 0.016633272 0.66644192
0.032427862 0.041918933 0.66616738
0.043514479 0.052217424 0.66622746
0.061645597 0.068758577 0.66602361
0.063269213 0.070386976 0.66615331
-0.028666504 -0.041407168 0.66746342
-0.033459138 -0.039035648 0.66754895
0.06756366 -0.035769016 0.66711932
-0.035426021 -0.019504175 0.66741514
-0.034249548 -0.018319547 0.66751397
-0.02874293 -0.012774616 0.66797596
-0.0075697354 0.0063738227 0.66756856
-0.0063628075 0.0071581602 0.66723627
0.0071677854 0.019910514 0.66749454
0.022345193 0.034315854 0.66788608
0.038225353 0.048578084 0.66748023
0.038225353 0.048578084 0.66748023
0.067563437 0.04848671 0.66711867
0.053225983 0.061964601 0.6670109
0.067563437 0.073524892 0.66711867
0.067563437 0.073524892 0.66711867
0.024768852 -0.068713561 0.66811603
0.018387834 -0.065556616 0.66823095
0.0024019973 -0.057647943 0.66851938
0.068850487 -0.034425229 0.66850036
-0.038511038 -0.020860136 0.66891712
-0.025584457 -0.009594202 0.66824138
-0.024397708 -0.0083991736 0.66834104
-0.012008928 0.0032023787 0.66850233
-0.012008928 0.0032023787 0.66850233
-0.012008928 0.0032023787 0.66850233
-0.0063913995 0.0079892278 0.66809911
-0.0055943853 0.0087911785 0.66816497
0.068850487 0.010407627 0.66850036
0.068850487 0.017612904 0.66850042
0.068850487 0.028420851 0.66850042
0.020020306 0.032833308 0.66855472
0.026380669 0.038371861 0.66821724
0.030430146 0.042442054 0.66855013
0.045533027 0.05591774 0.66807503
0.05563182 0.065638512 0.66847211
0.066598333 0.076227039 0.66893554
0.033813585 -0.074067861 0.66958636
0.016128359 -0.065319866 0.66990811
0.070156209 -0.03951326 0.66990209
0.070156209 -0.03951326 0.66990209
-0.039385304 -0.036973953 0.66927159
0.070156209 -0.030642956 0.66990209
0.070156209 -0.02943334 0.66990209
-0.045796238 -0.027317047 0.66918981
-0.045008402 -0.026522815 0.6692571
-0.045008402 -0.026522815 0.6692571
0.070156209 -0.024594977 0.66990209
-0.041851457 -0.023340255 0.6695261
0.070156209 -0.01653105 0.66990209
0.070156209 -0.0084671378 0.66990209
-0.005619647 0.0096336603 0.66903627
0.0072325831 0.02169776 0.66923267
0.012079367 0.026574612 0.66963607
0.070156209 0.027417362 0.66990215
0.015252602 0.028899699 0.66902703
0.015252602 0.028899699 0.66902703
0.025687894 0.03853184 0.66902179
0.028125279 0.040982544 0.66922283
0.033015247 0.045899272 0.66962606
0.034649838 0.04754281 0.66976136
0.053125493 0.064394534 0.66954929
0.060284857 0.070734233 0.66927558
0.061109856 0.071562856 0.66934299
0.06358809 0.074051946 0.6695447
-0.0032314952 -0.055743277 0.67025954
-0.017797321 -0.048538148 0.670524
-0.038906846 -0.038096279 0.67090791
-0.026735434 -0.0081016123 0.67081261
0.006485342 0.022698671 0.67093408
0.021833643 0.03638941 0.67044783
0.021833643 0.03638941 0.67044783
0.043680292 0.056622624 0.67050594
0.04780791 0.060772777 0.67084616
0.050888218 0.063004494 0.67022955
0.010578495 -0.063470989 0.67167342
-0.0008145945 -0.057836205 0.67188209
-0.035034206 -0.014665484 0.67191941
-0.031674508 -0.012182504 0.67129606
0.071481004 -0.0044675618 0.67132431
0.071481004 0.006498307 0.67132431
-0.010557625 0.0073091388 0.67128587
-0.0016230729 0.015419215 0.67114377
0.071481004 0.024368525 0.67132431
0.016281506 0.032563001 0.67175674
0.018657904 0.034070969 0.67106575
0.071481004 0.035740525 0.67132431
0.028511889 0.043989748 0.67188954
0.071481004 0.044675618 0.67132437
0.071481004 0.055235296 0.67132431
0.052780148 0.065772176 0.67125624
0.052780148 0.065772176 0.67125624
0.072825305 -0.035185248 0.6727674
0.072825305 -0.031503111 0.6727674
-0.052238144 -0.030200183 0.67227471
-0.047440786 -0.025356293 0.67269087
0.072825305 -0.020456553 0.67276746
-0.039218981 -0.01797536 0.67247778
-0.028596383 -0.0081704259 0.67247236
0.072825305 0.0032730997 0.6727674
0.072825305 0.015546978 0.67276746
-0.0024561719 0.016374499 0.67287898
0.072825305 0.020456553 0.67276746
0.072825305 0.020456553 0.67276746
0.013066713 0.030216753 0.67238307
0.072825052 0.062187672 0.6727668
0.072825052 0.067506373 0.6727668
0.05720127 0.071093023 0.67250168
0.029494707 -0.073736757 0.6730175
-0.043628503 -0.020579457 0.67395461
-0.029538853 -0.008205235 0.6733135
-0.025481187 -0.0041098893 0.67366362
-0.015611582 0.0049299896 0.6735884
-0.013978126 0.0065779388 0.67372847
0.0065752869 0.025479257 0.67364842
0.009440993 0.02791509 0.67343622
0.039462566 0.055905312 0.67370296
0.015722241 -0.067853868 0.67499447
0.015722241 -0.067853868 0.67499447
-0.024703383 -0.046936423 0.67401904
0.074189529 -0.032560945 0.67423195
0.074189276 -0.013189197 0.67423129
-0.033079531 -0.0099238753 0.67487419
0.074189276 -0.0045337975 0.67423129
-0.02314684 -0.00082665682 0.67479801
-0.015684066 0.0057783425 0.67450941
0.074189276 0.0094797462 0.67423129
-0.0074211797 0.01319319 0.67429173
0.020672029 0.039690316 0.67484832
0.025568981 0.043714732 0.67434734
0.074189276 0.046574384 0.67423129
0.030582938 0.048767388 0.6747722
0.036290567 0.05361104 0.67434245
0.040486291 0.057837576 0.67469621
-0.032416832 -0.044053614 0.67589122
0.075573869 -0.034465015 0.67571765
0.075573869 -0.024499238 0.67571771
-0.046479061 -0.021579564 0.67559725
-0.042207424 -0.018207073 0.67502105
-0.031594969 -0.0074830353 0.67595053
0.075573869 0.0083048046 0.67571771
0.011639022 0.03242299 0.67592931
0.022446133 0.042398244 0.67592436
0.027364936 0.046437472 0.6754179
0.031567421 0.050674051 0.67577553
0.075573869 0.052320361 0.67571771
0.058001034 0.074572742 0.67525995
-0.049960803 -0.024147719 0.67624831
-0.037496503 -0.012498826 0.67638731
-0.035445102 -0.010424972 0.67656803
-0.0033351514 0.019177139 0.67651576
0.051706709 0.070054263 0.67656195
-0.015068587 -0.053577185 0.67732596
-0.020100851 -0.051089615 0.6774205
-0.030179515 -0.04610759 0.67760992
0.076979317 -0.02928561 0.67722642
-0.044451773 -0.017612964 0.67770469
-0.039319146 -0.013385236 0.67718929
0.076979317 -0.00083673 0.67722642
0.076979317 0.02175501 0.67722642
0.076979317 0.02928558 0.67722642
0.014214823 0.035955131 0.67708993
0.024239467 0.045135558 0.67701209
0.076979317 0.04936716 0.67722648
0.031865202 0.052829146 0.67766738
0.076979317 0.063591599 0.67722648
0.076979317 0.063591599 0.67722648
0.024402013 -0.074047461 0.67836523
-0.00084343413 -0.061570704 0.67884457
-0.047963601 -0.020195186 0.67836964
0.078406066 -0.014332294 0.67875808
-0.033706564 -0.0067412853 0.67865866
-0.026915716 -0.00084111094 0.67828494
0.078406066 0.010538459 0.67875814
-0.010958034 0.014329761 0.67872179
0.0033605527 0.026884407 0.67804885
0.078406066 0.027821511 0.67875814
0.078406066 0.034566134 0.67875808
0.078406066 0.03625229 0.67875814
0.078406066 0.054799944 0.67875814
0.078406066 0.054799944 0.67875814
0.036549859 0.057555512 0.67806983
0.036549859 0.057555512 0.67806983
0.078406066 0.061544567 0.67875808
0.043826345 0.064896673 0.67869496
0.045545116 0.06663084 0.67884314
0.050476138 0.070666611 0.67832184
0.051335864 0.071533561 0.67839491
-0.0092850663 -0.057398587 0.67900461
-0.046586439 -0.038963199 0.67971176
-0.057535283 -0.027921528 0.67948991
-0.05505709 -0.02541098 0.67971325
-0.026208108 0.00084543228 0.67932469
-0.025371946 0.0016914606 0.67939919
-0.014377024 0.011839867 0.67939341
0.0059153358 0.030421734 0.67923421
0.0093090776 0.033851206 0.67953157
0.013565158 0.038152039 0.67990398
0.017752038 0.041421443 0.67930353
-0.052825239 -0.022152513 0.68091738
0.079854622 -0.018689394 0.68031317
0.079854622 -0.018689394 0.68031317
-0.040813379 -0.011477754 0.68049705
-0.033190597 -0.0042552054 0.68068111
-0.025493124 0.0025493503 0.68037438
-0.018749848 0.0093749166 0.68097675
0.079854622 0.014441818 0.68031317
-0.003398912 0.022942662 0.68036407
0.079854622 0.025485516 0.68031317
0.0085001532 0.034000605 0.68043345
0.079854622 0.037378788 0.68031317
0.030598901 0.05439806 0.68042237
0.03232256 0.056139201 0.68057305
0.039918412 0.062850267 0.68026745
0.054435059 0.076549321 0.68056202
-0.02729791 -0.049477458 0.68116844
-0.05808796 -0.026481271 0.68145204
0.081325181 -0.0034242272 0.68189144
-0.032506991 -0.0025663376 0.68174475
0.081325181 -0.0025681555 0.68189144
0.081325181 0.0068484247 0.68189144
0.081325181 0.015408993 0.68189144
-0.00085475075 0.026497304 0.68157667
0.081325181 0.029533863 0.68189144
0.081325181 0.029533863 0.68189144
0.010256713 0.036753178 0.68157071
0.081325181 0.044514805 0.68189144
0.081325181 0.052219301 0.68189144
0.081325181 0.057355672 0.68189144
0.081325181 0.059495792 0.68189144
0.049459781 0.072484165 0.68109477
0.051202804 0.074244082 0.68124574
0.053822238 0.076888889 0.68147302
-0.014615412 -0.056742162 0.68277872
-0.027434895 0.0025720298 0.68220186
-0.0086017139 0.020644099 0.68288529
-0.0077444185 0.02151227 0.68296248
0.030025003 0.055760711 0.68232661
-0.064835273 -0.03025648 0.68392313
-0.061171044 -0.027570039 0.68322152
-0.037920848 -0.0060328841 0.6832875
0.082818858 0.00086271763 0.68349493
0.082818858 0.0017254055 0.68349493
0.082818858 0.011215061 0.68349493
-0.0060278927 0.023250431 0.6831162
-0.0025872202 0.026734591 0.68342495
0.082818858 0.036233246 0.68349493
0.082818858 0.03882134 0.68349493
0.016360588 0.043915272 0.68310547
0.082818858 0.05780068 0.68349493
0.039622407 0.065463126 0.68317151
0.0051956801 -0.067543834 0.68427956
-0.044267923 -0.010416001 0.68477494
-0.021698765 0.010415405 0.68476343
-0.0034651456 0.026854903 0.68436158
0.024309138 0.052959204 0.68481958
-0.054974318 -0.019197375 0.68588781
0.084335893 -0.016519427 0.68512344
0.084335893 -0.014780521 0.68512344
-0.045340292 -0.010463148 0.68572378
0.084335893 -0.0078249574 0.68512344
-0.039147656 -0.0052197278 0.68524557
-0.035721395 -0.001742512 0.68556076
-0.030413242 0.0026068389 0.68500459
0.084335893 0.020866603 0.68512344
0.084335893 0.053470686 0.68512344
0.02531031 0.05498448 0.68592674
0.033114593 0.061872005 0.68560505
-0.027172377 -0.052591711 0.68683422
0.085876845 -0.0074485093 0.68677771
0.085876845 0.0035052001 0.68677771
-0.012261526 0.021019757 0.68666404
0.085876845 0.029794008 0.68677771
-0.0017509391 0.030641437 0.68657863
0.085876845 0.034175485 0.68677771
0.0087511614 0.040255368 0.68649328
0.012270122 0.043821841 0.68681222
0.085876845 0.046443582 0.68677771
-0.028980263 0.0061473548 0.68723536
-0.015818883 0.018455386 0.68738914
-0.012322228 0.022004008 0.68771076
0.043985344 0.073895395 0.68760157
-0.0070639295 -0.063575357 0.68839449
-0.019448191 -0.057460517 0.68864012
-0.069888189 -0.030078501 0.68879759
-0.05465864 -0.016750246 0.68805647
-0.040598325 -0.0035302639 0.68829334
-0.035383511 0.0017691851 0.68877995
-0.0070573096 0.027347058 0.68819475
-0.0070573096 0.027347058 0.68819475
0.087442264 0.030472308 0.6884582
0.087442264 0.036213458 0.68845826
0.019436046 0.052123934 0.68850684
0.039708041 0.070592046 0.68825197
-0.001777193 0.033766657 0.68974775
0.0035448009 0.038106591 0.68916923
0.0035448009 0.038106591 0.68916923
0.00089058268 -0.068574846 0.69022721
-0.013376538 -0.06153208 0.69051373
-0.022312755 -0.057120651 0.6906926
-0.03484844 -0.050932348 0.6909436
-0.065485388 -0.024501264 0.69031799
-0.063318722 -0.022295296 0.69052422
-0.038375333 0.00089246035 0.69067794
-0.029416058 0.008913964 0.69042355
-0.017827444 0.019610167 0.69041789
-0.002678148 0.033923209 0.69074225
0.0089269234 0.04463461 0.69073653
0.0098233642 0.045544684 0.69081879
0.016934665 0.051695287 0.6904
0.019631147 0.054431796 0.69064784
-0.068856455 -0.026827186 0.69111013
-0.056357149 -0.015207499 0.69118702
-0.051984541 -0.01075539 0.69160396
-0.042970669 -0.0026856661 0.69134736
-0.039450612 0.00089660287 0.69168109
0.025042787 0.059923798 0.6911453
-0.028847234 -0.054990053 0.69285715
-0.067459114 -0.024285287 0.69236922
-0.063084066 -0.019826382 0.69279075
-0.055764712 -0.013491482 0.69236338
-0.03415003 0.0062907934 0.69218332
-0.03415003 0.0062907934 0.69218332
-0.027044181 0.013522089 0.69285631
-0.01979343 0.019793451 0.69242871
-0.010783606 0.027857661 0.69217092
-0.010783606 0.027857661 0.69217092
-0.0036056843 0.035155445 0.69284391
-0.041516688 -0.04873696 0.69311315
-0.041516688 -0.04873696 0.69311315
-0.052399971 -0.043365479 0.69333309
-0.072181977 -0.027970493 0.69304997
-0.072181977 -0.027970493 0.69304997
-0.071307473 -0.027078778 0.69313484
-0.064286128 -0.019919634 0.69381374
-0.047836453 -0.0054154396 0.69312239
-0.039852574 0.0027172565 0.69388664
-0.031650562 0.0099473298 0.69353932
-0.01630239 0.02445361 0.69387406
-0.0054318598 0.034401774 0.69378269
0.027125316 0.064196587 0.69350922
0.031707838 0.068851322 0.69393444
0.0099745765 -0.075262725 0.69413757
-0.015451783 -0.062716037 0.69465631
-0.071671076 -0.026309639 0.69424599
-0.058991387 -0.014520973 0.69432592
-0.058991387 -0.014520973 0.69432592
-0.066667989 -0.037443668 0.69570208
-0.066724472 -0.020108759 0.69588888
-0.066724472 -0.020108759 0.69588888
-0.045645189 -0.00091290474 0.69561607
-0.036472183 0.0072944462 0.69535065
-0.0082218833 0.033801109 0.69577026
-0.0082218833 0.033801109 0.69577026
-0.0009117272 0.040115982 0.69533199
0.013691599 0.053853601 0.69558454
0.013691599 0.053853601 0.69558454
-0.005500908 -0.068761319 0.69656098
-0.024744868 0.019246012 0.69647861
-0.0045749121 0.037514299 0.69611788
-0.038625203 -0.052419901 0.69724417
-0.049712058 -0.04695031 0.69747251
-0.016555334 0.027592182 0.69726664
0.019312901 0.060697675 0.69724762
0.026754968 0.068271279 0.69795334
0.030335976 0.070783973 0.69715345
0.033133112 0.073629141 0.69741714
-0.018475795 0.026789904 0.69824415
-0.018475795 0.026789904 0.69824415
-0.045529328 -0.05017519 0.69954306
-0.060479764 -0.042801082 0.69985402
-0.054793015 -0.00557217 0.69942844
-0.04545033 0.0027826726 0.69915378
-0.042718802 0.005572021 0.69942224
-0.040894091 0.007435292 0.69960129
0.022329409 0.066057831 0.6998381
0.022329409 0.066057831 0.6998381
0 -0.073811084 0.70078576
-0.070839778 -0.019574136 0.70025098
-0.068125442 -0.016798049 0.70052207
-0.01681632 0.030829936 0.70076704
-0.012105822 0.034455061 0.70003724
-0.012105822 0.034455061 0.70003724
0.0018638738 0.047528803 0.70021105
0.009349349 0.055161148 0.70093483
-0.022470536 -0.062730223 0.70125771
-0.067573875 -0.015016407 0.70180172
-0.067573875 -0.015016407 0.70180172
-0.047765594 0.0028097034 0.70133209
-0.047765594 0.0028097034 0.70133209
-0.038352363 0.011225075 0.70105278
-0.017837096 0.030980229 0.70186663
-0.012169563 0.035572588 0.70122099
-0.0056326101 0.042244583 0.70186031
0.0056301719 0.052548259 0.7017622
0.01216884 0.058036029 0.70120758
0.015938798 0.061880052 0.70157248
-0.083838522 -0.029202193 0.7026419
-0.063008383 -0.010344654 0.7022599
-0.060260262 -0.0075325072 0.70253581
0.027321981 0.073486716 0.70267361
-0.012280396 -0.068959147 0.70327926
-0.04262922 -0.05399698 0.70392382
-0.071053535 -0.016105443 0.70393944
-0.026469557 0.02457884 0.70344716
-0.024598852 0.026491076 0.70363265
-0.023662407 0.027448386 0.70372593
-0.075120769 -0.019017905 0.70478809
0.010453417 0.059869558 0.70464689
0.013320689 0.062797517 0.70492864
-0.081980936 -0.024784923 0.70536053
-0.079218298 -0.021952033 0.70564312
-0.02769815 0.02578795 0.70580518
-0.020960113 0.031440139 0.70523155
-0.020960113 0.031440139 0.70523155
0.016195014 0.065732718 0.70521116
0.021964923 0.071624756 0.70577818
0.021964923 0.071624756 0.70577818
0.027614653 0.076178342 0.70511007
-0.063268878 -0.045055121 0.70665276
-0.03446988 0.020107418 0.70638168
-0.082869262 -0.023126304 0.70785427
-0.072207868 -0.013478816 0.70765519
-0.072207868 -0.013478816 0.70765519
-0.065304019 -0.0076828003 0.7070713
-0.058751568 -0.00096312165 0.70774424
-0.052817922 0.0038412809 0.70706475
-0.038443659 0.017299682 0.70724958
-0.038443659 0.017299682 0.70724958
-0.0096262246 0.044280618 0.70761919
-0.0067467405 0.047227174 0.70790839
-0.0019212139 0.050912172 0.70713264
0.0019243903 0.054845124 0.70751607
-0.029924687 -0.062745333 0.70826864
-0.08798182 -0.027071357 0.70863575
-0.061899364 -0.0029015243 0.7087189
-0.033891447 0.023239851 0.70899636
-0.026089657 0.029954791 0.70850307
0.0077167307 0.06076923 0.70809454
0.023178389 0.075329781 0.70837814
-0.070735119 -0.042634875 0.70915264
-0.044581406 0.013568252 0.70919776
-0.031025244 0.026177496 0.70928895
-0.031025244 0.026177496 0.70928895
-0.020342704 0.035841942 0.70908648
-0.019382108 0.036826044 0.70918429
-0.01360145 0.042747408 0.7097702
-0.0058487686 0.05068934 0.71055782
0.014590439 0.069061399 0.71005118
-0.050806917 -0.053738087 0.71110374
-0.060632639 -0.048897266 0.71131861
-0.060632639 -0.048897266 0.71131861
-0.084287532 -0.037243336 0.71183568
-0.055900007 0.0058842003 0.71198392
0.00097766251 0.057682067 0.71125019
0.00097766251 0.057682067 0.71125019
-0.014757447 -0.072803438 0.71273911
-0.016728172 -0.071832716 0.71278262
-0.090385519 -0.02554372 0.71240628
-0.03736002 0.02359581 0.71257704
-0.0088591529 0.050201863 0.71286476
-0.030543491 -0.065028071 0.71308768
-0.068221726 -0.046469867 0.71391988
-0.069988593 -0.0059145391 0.71320391
-0.066157632 -0.0019748211 0.71360761
-0.041451853 0.020725906 0.7134921
-0.028620562 0.032568216 0.71348417
-0.024714913 0.036578029 0.71388996
0.0098682521 0.068090945 0.71346223
-0.096154153 -0.032712221 0.71453774
-0.087083943 -0.020781398 0.71412981
-0.082311466 -0.015867263 0.71464014
-0.068454608 -0.0029762387 0.71473467
-0.057490621 0.0069385171 0.71452272
-0.049453828 0.013847053 0.71400577
0.0039591901 0.063347042 0.71417987
0.015829533 0.074200928 0.7140708
-0.096696138 -0.027912289 0.71588665
-0.06459634 0.00099375844 0.71514368
-0.061694119 0.0039802492 0.71545184
0.012916879 0.07253325 0.71509933
-0.061903197 -0.050920337 0.71626592
-0.10011928 -0.030035794 0.71693087
-0.029926982 0.033917248 0.71605527
-0.022022042 0.042042077 0.71688485
-0.011996167 0.050983727 0.71656585
0.010981618 0.071879685 0.71623951
0.013994641 0.074971288 0.71655047
-0.098201364 -0.028057545 0.71713901
-0.065326661 0.003015101 0.71785617
-0.059115715 0.0080156922 0.71711642
-0.0561825 0.01103586 0.7174297
-0.055203144 0.012044311 0.71753466
-0.052259773 0.015074939 0.71784902
-0.046088852 0.020038605 0.71710932
-0.018049156 0.04612565 0.7173022
-0.027153939 -0.069393396 0.71801937
-0.047356658 -0.059447706 0.71847498
-0.094891772 -0.023218185 0.71893322
-0.022146737 0.0432868 0.71825314
-0.071700223 -0.047463536 0.71902394
-0.075906746 -0.0050604641 0.71956176
-0.027275492 0.039397925 0.71910626
-0.011126414 0.054620594 0.71941733
-0.0081024813 0.057730198 0.71973556
0.0050638989 0.069881827 0.71972823
0.0050638989 0.069881827 0.71972823
-0.022350803 -0.073148102 0.7204926
-0.022350803 -0.073148102 0.7204926
-0.050868802 0.019330114 0.72083789
-0.050868802 0.019330114 0.72083789
-0.038641989 0.030506849 0.72072166
-0.059126195 -0.055048525 0.72133064
-0.059126195 -0.055048525 0.72133064
-0.073495701 -0.047976345 0.72165811
-0.098914623 -0.024473697 0.72140813
-0.097937569 -0.023464203 0.72151554
-0.073384106 -0.0010192096 0.72128391
-0.072396733 2.9802322e-08 0.72139227
-0.072396733 2.9802322e-08 0.72139227
-0.018359806 0.049979478 0.72146875
-0.016334143 0.052065074 0.72168475
-0.01532001 0.053109348 0.72179341
-0.096153773 -0.036824882 0.72217453
-0.10046638 -0.024603993 0.72271878
-0.065459885 0.0071596503 0.72214991
-0.06446553 0.0081861019 0.72225899
-0.017447522 0.052342564 0.72299832
-0.080208026 -0.0051415265 0.72347713
-0.069830127 0.0041076839 0.72314042
-0.041110136 0.030832589 0.72334325
-0.013365853 0.05654785 0.72343719
-0.0030802456 0.065711945 0.7231006
-0.088633537 -0.012367457 0.7240358
-0.029083109 -0.072707772 0.72598165
-0.091142021 -0.013464123 0.72526276
-0.085155487 -0.0072693825 0.72593319
-0.077675477 -0.0010356605 0.72525519
-0.0456683 0.029061675 0.72579664
-0.03524084 0.038350314 0.72545373
-0.021765638 0.050786525 0.72544485
-0.018681256 0.053968072 0.72578013
-0.0051890779 0.066420197 0.72577244
0.0031064064 0.073518276 0.7252059
-0.043683808 -0.065525681 0.7263217
-0.055109765 0.02079615 0.72625315
-0.05206022 0.023947686 0.72659051
-0.051041957 0.025000125 0.72670364
-0.039546773 0.03538394 0.72646987
0 0.071769387 0.72633278
-0.10223446 -0.021907389 0.7270745
-0.095231362 -0.014650971 0.72786868
-0.072073683 0.0062672496 0.72739732
-0.068017878 0.010464281 0.72785187
-0.068017878 0.010464281 0.72785187
-0.044912703 0.03133446 0.72738171
-0.040808018 0.035576254 0.72783506
-0.020860123 0.053193301 0.72702551
-0.01360177 0.06068483 0.72781825
-0.036779594 -0.070406646 0.72891814
-0.031518497 0.045176506 0.72886288
-0.07275036 -0.052717626 0.72976494
-0.095795229 -0.013685018 0.72936463
-0.095795229 -0.013685018 0.72936463
-0.067398593 0.012637258 0.7294631
-0.043115731 0.034702897 0.72910106
-0.10041851 -0.016912609 0.7304129
-0.08565601 -0.0031724572 0.73052025
-0.06227408 0.017943382 0.73004007
-0.027528403 0.050821662 0.73083484
-0.027528403 0.050821662 0.73083484
-0.0021155125 0.074042946 0.73058653
-0.03712634 0.042430133 0.73130989
-0.059627272 -0.060692072 0.73228043
-0.059627272 -0.060692072 0.73228043
-0.078934394 -0.051200718 0.73274118
-0.025586599 0.054371536 0.73260289
-0.017018111 0.061690658 0.732005
-0.015961809 0.062783122 0.73212302
-0.098553769 -0.0117836 0.73384094
-0.098553769 -0.0117836 0.73384094
-0.08359208 0.002143383 0.73395121
-0.075877883 0.0085496008 0.73322922
-0.04284364 0.039630383 0.73380578
-0.0064111426 0.072659612 0.73318601
-0.041924015 -0.070948333 0.73474348
-0.012864114 0.067536622 0.73402756
-0.0064498778 0.074173629 0.73474455
-0.057053611 -0.063512504 0.7351076
-0.045216415 0.038756937 0.73513126
-0.045491889 0.040076196 0.73671472
-0.095596798 -0.0054316521 0.73748416
-0.091422565 -0.0010883808 0.7379759
-0.079373412 0.0097858012 0.73772067
-0.020675389 0.064202517 0.73793101
-0.010861075 0.072769225 0.73743111
-0.010861075 0.072769225 0.73743111
-0.085140631 -0.051302671 0.73874426
-0.069881901 0.019654274 0.73883069
-0.088825613 0.0032898486 0.73996723
-0.088825613 0.0032898486 0.73996723
-0.037191961 0.050318509 0.73930782
-0.051732149 -0.06934309 0.74095017
-0.084598973 0.0076908171 0.74046826
-0.050971486 0.040998787 0.74273473
-0.062143464 0.031071723 0.74312794
-0.026707543 0.064543247 0.74387872
-0.016659731 0.073302805 0.74335587
-0.032396734 0.060324967 0.74492025
-0.085118294 0.012319744 0.74560809
-0.071641542 0.024626762 0.74546844
-0.071641542 0.024626762 0.74546844
-0.039232872 0.054926038 0.74584019
-0.064290032 -0.066545844 0.74751961
-0.038372435 0.057558656 0.74768996
-0.02258216 0.072262943 0.74781233
-0.02258216 0.072262943 0.74781233
-0.071456492 0.028355747 0.74904895
-0.055602361 0.043120235 0.74917257
-0.027218517 0.069180399 0.74901873
-0.063911736 -0.068476886 0.7507512
-0.033231985 0.066463977 0.75187367
-0.063439377 0.040370554 0.75368744
-0.062316965 0.041544646 0.75382614
-0.062316965 0.041544646 0.75382614
-0.051826011 0.050674319 0.75326395
-0.03798556 0.063309252 0.75311631
-0.03798556 0.063309252 0.75311631
-0.073327363 0.033753842 0.75621825
-0.077208601 0.031585336 0.75764287
-0.057434998 0.050402135 0.7582019
-0.035269789 0.071715236 0.75905091
-0.065102473 -0.073388219 0.76098752
-0.056665115 0.053123593 0.76022512
-0.037832882 0.07093665 0.76064861
-0.072495833 0.040407538 0.76214027
-0.054722935 0.057102203 0.7624234
-0.067127541 -0.07431978 0.76461482
-0.069501683 0.045535594 0.76451796
-0.044519033 0.069786638 0.76570386
-0.050747279 0.065246493 0.76692343
-0.050747279 0.065246493 0.76692343
-0.060573265 0.056938857 0.76769519
-0.058210921 0.059423655 0.76799989
-0.069272667 0.049827695 0.76862335
-0.054590896 0.069479346 0.77475351
0.01424763 -0.033624411 0.61280882
0.011281561 -0.029735684 0.61372054
0.012873843 -0.028951939 0.6130296
0.019041402 -0.036823474 0.61521941
0.012965653 -0.026865326 0.61504376
0.018955488 -0.022931892 0.61493939
0.020843744 -0.036988541 0.61696631
0.0075606965 -0.02945694 0.61745852
0.013578148 -0.023614168 0.6177457
0.017742189 -0.019516438 0.61799967
0.014901198 -0.037352812 0.61912054
0.022968991 -0.022968192 0.61924779
0.017759986 -0.01775994 0.61975038
0.023066677 -0.013194792 0.61965632
0.012678422 -0.03723076 0.62097621
0.010224111 -0.024056733 0.62041676
0.024424179 -0.018995948 0.62080979
-0.00081975223 -0.031249121 0.62363285
0.027815731 -0.039096564 0.62445074
0.027815731 -0.039096564 0.62445074
0.0056029861 -0.036108166 0.62551945
0.008762815 -0.020918295 0.62493265
0.027815731 -0.0169985 0.62445068
0.015059 -0.015058845 0.62497783
0.026998915 -0.0048004314 0.62478793
0.029378628 -0.042974059 0.62612855
0.029378628 -0.042974059 0.62612855
0.029378628 -0.03703583 0.62612855
-0.00063116674 -0.034082979 0.6275987
0.030575117 -0.03301679 0.62741268
0.02937855 -0.018908545 0.6261282
0.03261219 -0.035010137 0.62959957
0.0052159629 -0.019698154 0.62945592
0.012044288 -0.014579952 0.62826097
0.03261219 -0.012948975 0.62959957
0.021115756 -0.0052302512 0.62923908
0.03178991 -0.004927434 0.62871683
0.026745774 -0.049626723 0.63081837
0.034285445 -0.037034757 0.63139594
-0.0054958761 -0.033615053 0.63128686
-0.0054958761 -0.033615053 0.63128686
0.034285445 -0.033153385 0.63139594
0.034285445 -0.027007878 0.63139594
0.025219113 0.00064772862 0.63134032
0.03296091 0.0069797742 0.63074553
-0.0089564184 -0.029219965 0.63304442
-0.00087381917 -0.021402717 0.63339943
0.035567336 -0.016966969 0.63277173
0.011594243 -0.0096253259 0.63366425
0.021698095 2.9802322e-08 0.63396049
0.021698095 2.9802322e-08 0.63396049
0.029321179 0.0067835851 0.63370252
0.037310503 -0.053075016 0.63464308
0.037310503 -0.048865065 0.63464308
0.0052918647 -0.04101193 0.63491768
0.037310503 -0.036978852 0.63464308
-0.0014316512 -0.020689327 0.63463545
0.0055286316 -0.013490747 0.63541102
0.01372673 -0.0057561598 0.63557553
0.017038058 -0.0031270469 0.635144
0.030928597 -0.055358261 0.63754404
0.028113641 -0.053549781 0.63682234
0.016083026 -0.047578961 0.63700438
0.039095573 -0.047113463 0.63655937
-0.011341417 -0.033357114 0.63628399
-0.01210839 -0.027580202 0.63762289
-0.010099094 -0.02558437 0.63776404
0.039095573 -0.023055267 0.63655937
0.0053812768 -0.011435241 0.63761598
0.039095517 -0.0010856986 0.63655913
0.019551992 0.002022624 0.63798946
0.039095517 0.0090213045 0.63655919
-0.0013616115 -0.04016754 0.63958257
-0.012857289 -0.033834964 0.63859129
-0.012857289 -0.033834964 0.63859129
0.040924024 -0.032975134 0.63852215
-0.010215147 -0.023835361 0.63963187
0.040923968 -0.015050169 0.63852191
0.012384552 -0.0042780838 0.63830996
0.013060357 -0.0029393807 0.63902891
0.016559292 -0.00033791363 0.63839519
0.029163506 -0.056270808 0.64089203
0.04279751 -0.053067081 0.64053321
-0.0061740917 -0.038416564 0.64083904
-0.014497808 -0.025543749 0.64189208
0.042797513 -0.0029101409 0.64053321
0.041994151 0.02616024 0.64142299
0.029350566 -0.058002293 0.64393234
0.025045257 -0.055424847 0.643179
0.0062569669 -0.04588443 0.64306217
-0.017292434 -0.033547238 0.64221168
0.044717789 -0.0050262958 0.6425947
0.044717789 0.00086659938 0.6425947
0.032764178 0.019021427 0.64281642
0.033076432 -0.06052281 0.64512277
0.033076432 -0.06052281 0.64512277
0.020981072 -0.053851426 0.64406419
0.04668656 -0.049053997 0.64470828
0.046686508 -0.031065114 0.6447081
-0.0026990236 -0.011380499 0.64517927
0.011006357 0.00093759102 0.64483821
0.014032822 0.00350824 0.64461267
0.026674682 0.015268996 0.6446991
0.026674682 0.015268996 0.6446991
0.030866336 0.019238792 0.64479846
0.039177727 0.027151391 0.64503706
0.038267825 -0.063779712 0.64630806
0.048705615 -0.061057512 0.64687562
0.004976029 -0.047272697 0.64684033
0.004976029 -0.047272697 0.64684033
-0.0085411575 -0.040570498 0.64705634
-0.011391229 -0.039157361 0.64710194
-0.021378461 -0.034205556 0.64726216
0.048705548 -0.028973792 0.64687538
0.048705544 -0.019019596 0.64687538
-0.0097503848 -0.016663693 0.64641559
0.048705548 0.0051548481 0.64687538
0.048705548 0.012975987 0.64687538
0.041097105 0.031055752 0.64718193
0.046277173 0.035107285 0.64644504
0.049054049 0.038814954 0.64768857
0.034543186 -0.06332919 0.64896035
0.050776981 -0.051045045 0.64909911
-0.0035839272 -0.043723911 0.64826888
-0.026850587 -0.029258078 0.64963305
-0.021109337 -0.024879981 0.6487034
-0.021109337 -0.024879981 0.6487034
0.050776981 -0.0090028122 0.64909911
0.012205829 0.0057439506 0.64855963
0.015884448 0.010108262 0.64953268
0.021192703 0.014881644 0.64940327
0.023536369 0.016812246 0.64916801
0.03888553 0.030894089 0.64907426
0.043286145 0.034917992 0.6490339
0.029020704 -0.061306313 0.65037727
-0.011603848 -0.01450482 0.65031016
0.052902713 -0.011127561 0.65138096
-0.0068018455 -0.0092303362 0.65115476
0.026753649 0.021186024 0.65057921
0.026753649 0.021186024 0.65057921
0.052902631 0.028913081 0.65138072
