# .PCD v0.7 - Point Cloud Data file format
VERSION 0.7
FIELDS x y z
SIZE 4 4 4
TYPE F F F
COUNT 1 1 1
WIDTH 1319
HEIGHT 1
VIEWPOINT 0 0 0 1 0 0 0
POINTS 1319
DATA ascii
-0.041173708 -0.04975155 0.68230933
-0.041144729 -0.050573736 0.6821636
-0.041115943 -0.051394939 0.68201882
-0.041087046 -0.052214801 0.68187344
-0.04105819 -0.053033501 0.68172836
-0.041029524 -0.053851247 0.68158412
-0.041000746 -0.054667681 0.6814394
-0.040972013 -0.055482954 0.68129486
-0.040943317 -0.056297094 0.68115056
-0.040914811 -0.05711025 0.68100715
-0.040886197 -0.057922095 0.68086326
-0.040857621 -0.058732837 0.68071949
-0.040829085 -0.059542418 0.68057603
-0.044488177 0.072884887 0.7037406
-0.044453628 0.071882457 0.70356321
-0.044419136 0.070881575 0.70338595
-0.044384871 0.069882542 0.70321
-0.044350483 0.06888479 0.70303333
-0.044316147 0.067888588 0.70285696
-0.044281866 0.066893876 0.70268089
-0.04424781 0.065900981 0.70250595
-0.044213638 0.064909369 0.70233041
-0.04417951 0.063919276 0.70215511
-0.044145443 0.062930733 0.70198011
-0.044111602 0.061943948 0.70180631
-0.044077631 0.060958415 0.70163184
-0.04404372 0.059974432 0.70145762
-0.044010028 0.058992177 0.70128459
-0.043976221 0.058011174 0.7011109
-0.043942463 0.057031721 0.70093751
-0.043908756 0.056053758 0.7007643
-0.043875273 0.055077493 0.7005924
-0.043841671 0.05410251 0.70041978
-0.043808118 0.053128988 0.70024741
-0.04377462 0.052156985 0.70007539
-0.043741342 0.051186711 0.69990444
-0.043707944 0.050217628 0.6997329
-0.043674592 0.049250096 0.6995616
-0.043641295 0.048284024 0.69939053
-0.043608222 0.047319561 0.69922066
-0.04357503 0.04635641 0.69905013
-0.043541886 0.045394719 0.6988799
-0.043508787 0.044434518 0.69870991
-0.043475915 0.043475926 0.69854105
-0.043442916 0.042518586 0.69837153
-0.043409977 0.041562736 0.69820231
-0.043377079 0.040608317 0.69803339
-0.043344401 0.039655536 0.69786549
-0.043311607 0.038704008 0.69769704
-0.043278862 0.03775391 0.69752884
-0.043246165 0.036805242 0.69736087
-0.043213688 0.035858154 0.6971941
-0.043181092 0.034912348 0.69702661
-0.04314854 0.033968002 0.69685942
-0.043116037 0.033025056 0.69669247
-0.043083757 0.03208366 0.69652665
-0.043051355 0.031143516 0.69636023
-0.043019 0.030204833 0.69619405
-0.042986695 0.02926749 0.69602811
-0.042954601 0.028331786 0.69586325
-0.042922396 0.027397245 0.69569784
-0.042890236 0.026464194 0.69553262
-0.042858124 0.025532454 0.69536769
-0.042826224 0.024602294 0.69520384
-0.042794213 0.023673385 0.69503933
-0.042762242 0.022745878 0.69487518
-0.04273032 0.021819741 0.69471115
-0.042698614 0.020895064 0.69454831
-0.042666785 0.019971699 0.69438481
-0.042635005 0.019049674 0.69422162
-0.042603273 0.018129051 0.69405866
-0.042571757 0.017209858 0.69389671
-0.042540114 0.016291946 0.69373417
-0.042508528 0.015375435 0.69357193
-0.042476986 0.014460236 0.69340992
-0.042445652 0.013546497 0.69324893
-0.0424142 0.012634039 0.69308734
-0.042382795 0.011722922 0.69292605
-0.04235144 0.010813117 0.692765
-0.042320289 0.009904772 0.69260502
-0.042289026 0.0089976788 0.69244444
-0.042257808 0.0080919266 0.69228405
-0.042226795 0.0071875751 0.69212472
-0.04219567 0.0062844753 0.69196486
-0.042164586 0.0053826869 0.69180524
-0.042133555 0.0044823289 0.6916458
-0.042102564 0.0035831928 0.69148666
-0.042071778 0.0026854575 0.69132847
-0.042040881 0.0017890036 0.69116974
-0.042010028 0.00089386106 0.69101131
-0.041979376 2.9802322e-08 0.69085383
-0.041948613 -0.00089249015 0.69069588
-0.041917898 -0.0017837286 0.69053805
-0.041887224 -0.0026736557 0.69038045
-0.041856755 -0.0035622716 0.69022393
-0.04182617 -0.0044496059 0.69006687
-0.04179563 -0.005335629 0.68991005
-0.041765135 -0.0062203109 0.68975341
-0.041734844 -0.0071037412 0.68959779
-0.041704439 -0.0079859197 0.68944156
-0.041674074 -0.008866787 0.68928564
-0.041643757 -0.0097464025 0.68912995
-0.041613638 -0.010624766 0.68897527
-0.041583411 -0.011501789 0.68881989
-0.041553225 -0.01237756 0.68866491
-0.041523084 -0.01325202 0.68851
-0.04149314 -0.014125317 0.68835628
-0.041463085 -0.014997303 0.6882019
-0.041433074 -0.015868008 0.68804777
-0.041403107 -0.016737431 0.68789381
-0.041373335 -0.017605662 0.68774086
-0.041343454 -0.018472612 0.68758738
-0.041313615 -0.01933834 0.68743414
-0.04128382 -0.020202696 0.68728113
-0.041254222 -0.02106598 0.68712902
-0.041224509 -0.021927923 0.68697643
-0.041194845 -0.022788674 0.68682402
-0.041165221 -0.023648113 0.68667185
-0.041135792 -0.02450645 0.6865207
-0.04110625 -0.025363445 0.68636894
-0.041076753 -0.026219189 0.68621743
-0.04104745 -0.02707389 0.68606693
-0.041018035 -0.02792716 0.68591583
-0.040988669 -0.028779268 0.68576491
-0.040959336 -0.029630184 0.68561435
-0.040930204 -0.030479908 0.68546468
-0.040900957 -0.03132841 0.68531442
-0.040871754 -0.03217566 0.68516445
-0.040842593 -0.033021718 0.68501467
-0.040813621 -0.033866614 0.68486577
-0.040784542 -0.034710258 0.68471646
-0.040755507 -0.03555271 0.68456733
-0.040726509 -0.036393881 0.68441844
-0.040697705 -0.037234068 0.68427038
-0.040668789 -0.038072944 0.68412191
-0.040639918 -0.038910568 0.68397355
-0.040611234 -0.039747179 0.68382621
-0.040582441 -0.040582448 0.68367833
-0.040553693 -0.041416526 0.68353063
-0.040524982 -0.042249441 0.68338317
-0.040496457 -0.043081343 0.68323672
-0.040467832 -0.043911904 0.68308961
-0.040439244 -0.044741333 0.68294287
-0.040410694 -0.045569509 0.68279612
-0.040382333 -0.046396703 0.68265045
-0.040353864 -0.047222614 0.6825043
-0.040325437 -0.048047334 0.68235826
-0.04029705 -0.048870891 0.68221235
-0.04026885 -0.049693465 0.68206757
-0.040240541 -0.050514698 0.68192214
-0.040212274 -0.051334828 0.68177694
-0.040184043 -0.052153736 0.68163192
-0.040155999 -0.05297175 0.68148792
-0.040127851 -0.053788364 0.68134326
-0.04009974 -0.054603934 0.68119889
-0.040071815 -0.055418462 0.68105543
-0.040043786 -0.056231678 0.68091142
-0.040015791 -0.057043791 0.68076766
-0.039987836 -0.057854772 0.68062407
-0.039960068 -0.058664799 0.68048143
-0.039932191 -0.059473485 0.6803382
-0.043485355 0.072790682 0.70344532
-0.043451797 0.07178995 0.70326924
-0.043418128 0.07079047 0.70309246
-0.043384504 0.069792479 0.70291603
-0.043350931 0.068796009 0.70273983
-0.04331759 0.067801446 0.70256484
-0.043284122 0.066808134 0.70238918
-0.04325071 0.065816283 0.70221382
-0.043217346 0.064826012 0.70203876
-0.043184202 0.063837528 0.70186484
-0.043150943 0.062850296 0.7016902
-0.043117736 0.061864585 0.70151591
-0.043084577 0.060880363 0.70134193
-0.043051641 0.059897959 0.70116907
-0.043018583 0.058916777 0.70099556
-0.042985573 0.057937086 0.70082235
-0.042952791 0.056959122 0.70065027
-0.042919882 0.055982471 0.70047754
-0.042887028 0.055007249 0.70030516
-0.042854223 0.054033607 0.70013303
-0.042821642 0.053061604 0.6999619
-0.04278893 0.052090883 0.69979036
-0.042756278 0.051121652 0.69961894
-0.042723671 0.050153881 0.69944787
-0.042691287 0.049187809 0.69927782
-0.04265878 0.048222989 0.69910723
-0.042626321 0.047259629 0.69893688
-0.042593915 0.046297729 0.69876683
-0.042561725 0.045337468 0.69859791
-0.042529415 0.044378519 0.69842827
-0.042497154 0.043421 0.698259
-0.042464942 0.042464972 0.6980899
-0.042432945 0.041510493 0.69792199
-0.042400833 0.040557325 0.69775343
-0.04236877 0.039605558 0.69758517
-0.042336751 0.038655281 0.69741714
-0.042304948 0.037706554 0.69725025
-0.042273026 0.036759138 0.69708264
-0.042241152 0.035813153 0.69691539
-0.042209327 0.034868568 0.69674838
-0.042177718 0.033925533 0.6965825
-0.04214599 0.03298378 0.69641602
-0.042114306 0.032043517 0.69624966
-0.042082675 0.031104624 0.69608366
-0.042051248 0.030167192 0.69591874
-0.04201971 0.029231131 0.69575322
-0.04198822 0.028296411 0.69558793
-0.041956775 0.027363062 0.69542295
-0.041925538 0.026431292 0.69525898
-0.04189419 0.025500774 0.69509447
-0.041862883 0.024571687 0.69493014
-0.041831627 0.02364397 0.6947661
-0.041800577 0.022717714 0.69460315
-0.041769415 0.02179274 0.69443953
-0.041738294 0.020869166 0.69427627
-0.041707225 0.019946933 0.69411319
-0.041676357 0.01902616 0.69395119
-0.041645378 0.018106699 0.69378865
-0.041614447 0.017188579 0.69362628
-0.041583557 0.01627183 0.69346416
-0.041552875 0.015356481 0.69330311
-0.041522078 0.014442474 0.69314146
-0.041491326 0.013529778 0.69298011
-0.041460622 0.012618423 0.692819
-0.041430123 0.011708498 0.6926589
-0.041399505 0.010799885 0.69249821
-0.041368939 0.0098925829 0.69233775
-0.041338414 0.0089865923 0.69217753
-0.04130809 0.0080820322 0.69201839
-0.041277658 0.007178694 0.69185871
-0.041247267 0.0062767565 0.69169915
-0.041217078 0.0053761601 0.69154078
-0.04118678 0.0044768155 0.69138175
-0.041156523 0.0035788119 0.69122291
-0.041126307 0.0026821494 0.69106436
-0.041096143 0.0017867684 0.69090605
-0.041066173 0.00089275837 0.69074881
-0.041036095 -0 0.69059086
-0.041006058 -0.00089141726 0.69043326
-0.040976223 -0.0017815828 0.69027668
-0.040946275 -0.0026703775 0.6901195
-0.040916372 -0.0035579503 0.68996251
-0.04088651 -0.0044442117 0.68980587
-0.040856846 -0.0053291321 0.68965018
-0.040827073 -0.0062128603 0.68949395
-0.040797345 -0.0070951879 0.68933791
-0.040767659 -0.0079762638 0.6891821
-0.040738165 -0.0088561177 0.68902731
-0.040708568 -0.0097346604 0.68887192
-0.040679008 -0.010611922 0.68871677
-0.040649492 -0.011487871 0.68856192
-0.040620174 -0.012362659 0.68840802
-0.040590741 -0.013236076 0.68825358
-0.040561356 -0.01410827 0.68809938
-0.040532012 -0.014979213 0.68794537
-0.040502861 -0.015848964 0.6877923
-0.040473599 -0.016717374 0.68763876
-0.040444382 -0.017584503 0.68748546
-0.040415205 -0.018450409 0.68733227
-0.040386226 -0.019315153 0.68718022
-0.040357132 -0.020178527 0.68702751
-0.040328082 -0.021040738 0.68687505
-0.040299077 -0.021901667 0.68672276
-0.040270258 -0.022761464 0.68657154
-0.040241331 -0.02361989 0.68641973
-0.040212449 -0.024477154 0.68626821
-0.040183607 -0.025333136 0.68611681
-0.040154953 -0.026188016 0.68596637
-0.040126193 -0.027041525 0.68581551
-0.040097475 -0.027893871 0.68566477
-0.040068947 -0.028745085 0.68551505
-0.04004031 -0.029595017 0.68536478
-0.040011715 -0.030443698 0.68521464
-0.039983161 -0.031291187 0.68506485
-0.039954789 -0.032137513 0.6849159
-0.039926317 -0.032982618 0.68476641
-0.039897885 -0.03382647 0.68461728
-0.039869491 -0.034669101 0.68446821
-0.039841287 -0.035510689 0.68432021
-0.039812975 -0.036350995 0.68417162
-0.039784703 -0.03719005 0.68402326
-0.039756469 -0.038027942 0.68387508
-0.039728422 -0.038864762 0.68372786
-0.03970027 -0.03970027 0.68358016
-0.039672159 -0.040534616 0.68343258
-0.03964423 -0.041367859 0.68328601
-0.039616197 -0.04219985 0.68313885
-0.039588206 -0.043030649 0.68299192
-0.039560251 -0.043860257 0.68284518
-0.039532479 -0.04468891 0.68269956
-0.039504603 -0.045516163 0.68255317
-0.039476767 -0.046342283 0.68240708
-0.039448973 -0.047167212 0.68226123
-0.039421357 -0.047991246 0.68211633
-0.039393641 -0.04881385 0.68197083
-0.039365958 -0.049635351 0.68182558
-0.039338317 -0.05045566 0.6816805
-0.039310858 -0.051275045 0.68153638
-0.039283294 -0.052093029 0.68139172
-0.039255772 -0.05290994 0.68124729
-0.039228283 -0.05372569 0.68110299
-0.039200976 -0.054540515 0.6809597
-0.039173566 -0.05535394 0.68081582
-0.039146192 -0.056166291 0.68067217
-0.039119001 -0.056977659 0.68052942
-0.039091706 -0.057787716 0.68038619
-0.039064452 -0.058596671 0.68024313
-0.039037231 -0.059404463 0.68010026
-0.042485286 0.072697043 0.7031517
-0.042452376 0.071697354 0.70297515
-0.042419519 0.070699215 0.70279884
-0.042386882 0.069702864 0.70262372
-0.042354126 0.068707824 0.70244801
-0.042321421 0.067714274 0.70227253
-0.042288769 0.066722274 0.70209742
-0.042256329 0.065732062 0.70192337
-0.042223774 0.064743102 0.70174873
-0.042191271 0.063755691 0.70157433
-0.042158816 0.0627698 0.70140016
-0.042126581 0.061785668 0.70122725
-0.042094227 0.060802788 0.70105362
-0.042061921 0.059821397 0.70088035
-0.042029664 0.058841527 0.70070732
-0.041997623 0.057863384 0.70053542
-0.041965466 0.056886524 0.70036286
-0.041933358 0.055911154 0.7001906
-0.041901298 0.054937243 0.7000187
-0.041869454 0.053965092 0.69984782
-0.041837495 0.052994162 0.69967633
-0.04180558 0.052024722 0.69950509
-0.041773878 0.051056981 0.6993351
-0.041742064 0.050090492 0.69916439
-0.041710295 0.049125463 0.69899392
-0.041678578 0.048161924 0.69882375
-0.041646909 0.047199845 0.69865382
-0.041615449 0.046239376 0.69848508
-0.041583873 0.045280188 0.69831568
-0.041552346 0.044322491 0.69814658
-0.041521028 0.043366432 0.6979785
-0.041489597 0.042411566 0.69780993
-0.041458212 0.041458189 0.69764155
-0.041426878 0.040506303 0.69747341
-0.041395746 0.039555937 0.69730645
-0.041364506 0.038606882 0.69713879
-0.04133331 0.037659258 0.69697142
-0.041302163 0.036713064 0.69680429
-0.041271221 0.03576839 0.69663829
-0.041240167 0.034825027 0.69647169
-0.041209158 0.033883065 0.69630539
-0.041178197 0.032942563 0.69613922
-0.041147441 0.032003582 0.69597423
-0.041116569 0.031065851 0.69580865
-0.04108575 0.030129522 0.69564331
-0.041054972 0.029194623 0.6954782
-0.041024402 0.028261244 0.69531417
-0.040993717 0.027329117 0.69514954
-0.040963076 0.02639845 0.69498515
-0.040932484 0.025469095 0.69482106
-0.040902093 0.024541229 0.69465804
-0.04087159 0.023614705 0.69449437
-0.040841132 0.022689521 0.69433093
-0.040810723 0.021765739 0.69416779
-0.040780514 0.020843416 0.69400573
-0.040750191 0.019922346 0.69384301
-0.040719919 0.019002646 0.69368058
-0.040689688 0.018084288 0.69351846
-0.040659655 0.017167419 0.69335735
-0.040629514 0.016251802 0.69319558
-0.040599417 0.015337527 0.69303417
-0.040569365 0.014424652 0.69287288
-0.040539511 0.013513178 0.69271278
-0.040509544 0.012602985 0.69255197
-0.040479627 0.011694133 0.69239151
-0.040449753 0.010786593 0.69223118
-0.040420074 0.0098804832 0.69207197
-0.040390287 0.008975625 0.69191217
-0.040360544 0.008072108 0.69175261
-0.040330842 0.0071699321 0.69159329
-0.040301338 0.0062691271 0.69143498
-0.040271726 0.005369544 0.69127607
-0.040242158 0.0044713318 0.69111747
-0.040212631 0.0035744607 0.6909591
-0.040183302 0.002678901 0.69080168
-0.040153861 0.0017846227 0.69064379
-0.040124465 0.00089165568 0.69048607
-0.040095109 2.9802322e-08 0.69032854
-0.040065952 -0.00089037418 0.69017214
-0.040036682 -0.0017794073 0.69001514
-0.040007457 -0.0026671588 0.68985832
-0.039978273 -0.0035535991 0.6897018
-0.039949283 -0.0044388175 0.68954623
-0.039920185 -0.0053226948 0.68939012
-0.039891127 -0.0062052906 0.6892342
-0.039862264 -0.0070866346 0.6890794
-0.039833292 -0.0079666674 0.68892395
-0.039804365 -0.0088454187 0.6887688
-0.03977548 -0.0097228587 0.68861377
-0.039746631 -0.010599077 0.68845904
-0.039717976 -0.011474073 0.68830532
-0.039689217 -0.012347758 0.688151
-0.039660495 -0.013220161 0.68799692
-0.039631963 -0.014091372 0.6878438
-0.039603326 -0.014961272 0.6876902
-0.039574731 -0.015829891 0.68753684
-0.039546173 -0.016697288 0.68738359
-0.039517805 -0.017563462 0.68723136
-0.039489333 -0.018428326 0.6870786
-0.039460901 -0.019291997 0.68692613
-0.039432511 -0.020154387 0.68677378
-0.039404307 -0.021015644 0.68662244
-0.039375994 -0.02187556 0.68647057
-0.039347727 -0.022734255 0.68631893
-0.039319497 -0.023591697 0.68616748
-0.039291456 -0.024448007 0.68601704
-0.039263308 -0.025303006 0.68586606
-0.039235201 -0.026156813 0.68571526
-0.039207134 -0.027009308 0.68556464
-0.039179251 -0.02786082 0.68541509
-0.039151262 -0.028710932 0.68526489
-0.039123315 -0.029559821 0.68511498
-0.039095551 -0.030407667 0.68496609
-0.039067682 -0.031254143 0.68481654
-0.039039854 -0.032099456 0.68466723
-0.039012067 -0.032943487 0.6845181
-0.038984459 -0.033786505 0.68437004
-0.03895675 -0.034628212 0.68422139
-0.038929079 -0.035468757 0.68407291
-0.038901448 -0.03630805 0.68392467
-0.038873997 -0.03714627 0.68377745
-0.038846444 -0.037983179 0.68362957
-0.038818929 -0.038818926 0.68348199
-0.038791455 -0.03965348 0.68333459
-0.03876416 -0.040487021 0.68318814
-0.038736761 -0.041319251 0.68304121
-0.038709402 -0.042150229 0.68289441
-0.038682222 -0.042980254 0.68274856
-0.038654942 -0.043808937 0.68260217
-0.038627695 -0.044636458 0.68245602
-0.038600493 -0.045462787 0.6823101
-0.038573466 -0.046288162 0.68216509
-0.038546335 -0.047112167 0.68201947
-0.038519245 -0.047935039 0.68187416
-0.038492192 -0.048756778 0.68172908
-0.038465317 -0.049577534 0.68158484
-0.038438339 -0.050396919 0.68144011
-0.038411401 -0.051215172 0.68129563
-0.038384501 -0.052032322 0.68115127
-0.038357776 -0.052848488 0.68100792
-0.038330946 -0.053663343 0.68086398
-0.038304158 -0.054477006 0.68072027
-0.038277406 -0.055289596 0.68057674
-0.03825083 -0.056101233 0.68043417
-0.038224153 -0.056911498 0.68029106
-0.03819751 -0.057720721 0.68014812
-0.038171045 -0.05852893 0.68000609
-0.03814448 -0.059335858 0.67986363
-0.041487623 0.072603345 0.70285791
-0.041455694 0.071605325 0.70268267
-0.041423649 0.070608467 0.7025069
-0.041391652 0.069613278 0.7023313
-0.041359708 0.068619519 0.70215607
-0.041327976 0.067627609 0.70198196
-0.041296128 0.06663692 0.7018072
-0.041264329 0.065647811 0.70163268
-0.041232582 0.064660132 0.70145857
-0.041201044 0.063674361 0.70128542
-0.04116939 0.062689781 0.70111179
-0.041137788 0.061706692 0.70093834
-0.041106232 0.060725123 0.70076525
-0.041074887 0.059745312 0.70059329
-0.041043431 0.058766723 0.70042068
-0.041012019 0.057789654 0.7002483
-0.040980816 0.056814313 0.70007718
-0.040949505 0.055840194 0.69990534
-0.040918235 0.054867625 0.69973379
-0.040887017 0.053896546 0.69956243
-0.040855844 0.052926928 0.69939142
-0.040824879 0.051958948 0.69922149
-0.040793803 0.05099225 0.69905102
-0.040762775 0.050027013 0.69888079
-0.040731952 0.049063474 0.69871163
-0.040701013 0.048101217 0.69854188
-0.040670127 0.04714036 0.69837242
-0.040639285 0.046181023 0.69820321
-0.040608648 0.045223296 0.69803506
-0.0405779 0.04426679 0.69786638
-0.040547196 0.043311805 0.69769788
-0.04051654 0.04235819 0.69752973
-0.04048609 0.041406214 0.69736266
-0.040455524 0.04045552 0.69719493
-0.040425006 0.039506257 0.69702744
-0.040394537 0.038558453 0.69686031
-0.040364265 0.03761217 0.6966942
-0.040333886 0.036667168 0.69652754
-0.040303551 0.035723627 0.69636106
-0.040273264 0.034781456 0.69619489
-0.040243175 0.033840865 0.69602978
-0.040212978 0.032901525 0.69586414
-0.040182825 0.031963617 0.69569868
-0.040152717 0.031027079 0.69553345
-0.040122811 0.03009212 0.69536936
-0.040092792 0.029158413 0.69520468
-0.040062819 0.028226107 0.69504023
-0.04003289 0.027295142 0.69487602
-0.040003158 0.026365697 0.69471288
-0.039973322 0.025437564 0.69454914
-0.039943527 0.024510801 0.69438571
-0.039913777 0.023585379 0.69422245
-0.039884225 0.022661507 0.69406027
-0.039854564 0.021738857 0.69389755
-0.039824944 0.020817608 0.693735
-0.039795369 0.019897699 0.6935727
-0.039765991 0.018979222 0.69341159
-0.039736506 0.018062055 0.69324982
-0.039707061 0.01714626 0.69308823
-0.039677665 0.016231775 0.69292694
-0.039648458 0.015318692 0.69276667
-0.039619148 0.014406979 0.69260585
-0.039589874 0.013496548 0.69244522
-0.03956065 0.012587458 0.69228494
-0.039531618 0.011679769 0.69212562
-0.039502479 0.01077342 0.6919657
-0.039473381 0.0098683536 0.69180602
-0.039444327 0.008964628 0.6916467
-0.039415464 0.0080622435 0.69148827
-0.039386496 0.0071612 0.69132936
-0.039357569 0.0062614083 0.69117063
-0.039328836 0.0053630173 0.69101292
-0.039299991 0.0044659376 0.69085467
-0.039271191 0.0035701394 0.69069666
-0.039242435 0.0026756525 0.69053888
-0.039213721 0.0017824173 0.69038135
-0.039185192 0.0008905828 0.69022477
-0.039156564 -0 0.69006777
-0.039127972 -0.0008892417 0.68991083
-0.03909957 -0.0017772615 0.68975502
-0.039071064 -0.0026639104 0.68959856
-0.039042599 -0.0035493374 0.6894424
-0.039014176 -0.0044334233 0.68928647
-0.038985938 -0.0053162575 0.6891315
-0.038957596 -0.0061977804 0.68897605
-0.038929295 -0.0070780516 0.68882072
-0.038901035 -0.0079570115 0.68866575
-0.038872965 -0.0088347495 0.68851161
-0.038844787 -0.0097111464 0.68835706
-0.038816649 -0.010586351 0.68820274
-0.038788553 -0.011460245 0.68804848
-0.038760643 -0.012332916 0.68789536
-0.038732629 -0.013204277 0.68774164
-0.038704656 -0.014074415 0.68758816
-0.03867672 -0.014943272 0.68743491
-0.03864897 -0.015810907 0.68728262
-0.038621116 -0.01667729 0.6871298
-0.038593303 -0.017542392 0.68697721
-0.038565528 -0.018406272 0.6868248
-0.038537938 -0.01926896 0.68667346
-0.038510244 -0.020130366 0.68652147
-0.038482592 -0.020990491 0.68636972
-0.038454976 -0.021849424 0.68621826
-0.038427543 -0.022707164 0.6860677
-0.038400009 -0.023563623 0.6859166
-0.038372509 -0.024418861 0.68576574
-0.038345195 -0.025272965 0.6856159
-0.038317777 -0.026125789 0.68546546
-0.0382904 -0.02697733 0.68531519
-0.038263056 -0.02782771 0.68516523
-0.038235899 -0.028676957 0.68501621
-0.038208637 -0.029524863 0.68486667
-0.038181417 -0.030371577 0.68471718
-0.03815423 -0.031217128 0.68456811
-0.038127225 -0.032061547 0.68441987
-0.038100116 -0.032904655 0.68427122
-0.038073048 -0.033746541 0.68412262
-0.038046017 -0.034587294 0.68397433
-0.038019165 -0.035426944 0.68382698
-0.037992213 -0.036265314 0.6836791
-0.037965298 -0.037102461 0.6835314
-0.037938558 -0.037938535 0.68338466
-0.037911721 -0.038773358 0.68323743
-0.037884917 -0.039606959 0.68309039
-0.037858151 -0.040439367 0.68294352
-0.037831564 -0.041270822 0.68279767
-0.037804876 -0.042100906 0.68265128
-0.037778225 -0.042929798 0.68250501
-0.037751611 -0.043757558 0.68235898
-0.037725173 -0.044584274 0.6822139
-0.037698634 -0.045409739 0.68206829
-0.037672132 -0.046233982 0.68192285
-0.037645672 -0.047057092 0.68177766
-0.037619378 -0.047879189 0.68163341
-0.037592988 -0.048699975 0.68148857
-0.037566636 -0.049519628 0.68134403
-0.03754032 -0.050338149 0.68119961
-0.037514172 -0.051155716 0.6810562
-0.037487932 -0.051971883 0.6809122
-0.037461728 -0.052786976 0.68076843
-0.037435692 -0.053601116 0.68062556
-0.037409559 -0.054413915 0.68048215
-0.03738346 -0.055225551 0.68033898
-0.037357401 -0.056036085 0.68019599
-0.037331514 -0.056845725 0.68005395
-0.037305526 -0.057653993 0.67991132
-0.037279572 -0.05846113 0.67976892
-0.037253659 -0.059267193 0.67962676
-0.03722791 -0.060072303 0.6794855
-0.040492691 0.072510183 0.70256579
-0.040461406 0.071513176 0.70239007
-0.04043017 0.070517749 0.70221472
-0.040399145 0.069524169 0.70204055
-0.040368002 0.068531752 0.70186573
-0.040336911 0.067540854 0.70169115
-0.040305868 0.066551566 0.70151687
-0.04027503 0.065564036 0.70134372
-0.04024408 0.064577729 0.70116997
-0.040213183 0.063592941 0.70099652
-0.040182326 0.062609673 0.70082325
-0.040151678 0.061628163 0.70065117
-0.040120922 0.060647905 0.70047843
-0.040090207 0.059669137 0.700306
-0.04005954 0.058691889 0.70013392
-0.040029082 0.05771637 0.69996285
-0.039998509 0.056742102 0.69979119
-0.039967984 0.055769295 0.69961983
-0.039937504 0.054797977 0.6994487
-0.039907228 0.053828388 0.69927871
-0.039876841 0.052859992 0.69910812
-0.039846502 0.051893115 0.69893777
-0.039816208 0.050927728 0.69876772
-0.039786115 0.049963951 0.69859874
-0.039755914 0.049001515 0.69842911
-0.039725758 0.048040479 0.69825989
-0.039695647 0.047080874 0.69809079
-0.039665736 0.046122998 0.69792289
-0.039635718 0.045166284 0.69775432
-0.03960574 0.04421106 0.697586
-0.039575968 0.043257445 0.69741887
-0.039546084 0.042305082 0.69725114
-0.039516244 0.041354209 0.69708359
-0.039486449 0.040404767 0.69691628
-0.039456856 0.039456844 0.69675004
-0.03942715 0.038510233 0.69658333
-0.039397489 0.037565023 0.6964168
-0.039367873 0.036621302 0.69625056
-0.039338455 0.035679102 0.69608533
-0.039308928 0.034738123 0.69591957
-0.039279446 0.033798575 0.69575405
-0.039250009 0.032860488 0.69558877
-0.039220765 0.03192389 0.69542462
-0.039191417 0.030988604 0.69525981
-0.039162111 0.030054659 0.6950953
-0.039132848 0.029122114 0.69493097
-0.03910378 0.02819109 0.69476777
-0.039074603 0.027261347 0.69460404
-0.039045472 0.026332974 0.69444042
-0.039016385 0.025406033 0.69427705
-0.038987488 0.024480522 0.69411486
-0.038958482 0.023556292 0.69395202
-0.038929526 0.022633463 0.69378942
-0.038900606 0.021711975 0.69362712
-0.038871884 0.020791948 0.69346577
-0.038843054 0.019873202 0.69330394
-0.038814265 0.018955797 0.69314229
-0.038785521 0.018039763 0.69298095
-0.038756967 0.017125189 0.69282055
-0.038728304 0.016211838 0.69265974
-0.038699687 0.015299916 0.69249898
-0.03867111 0.014389247 0.69233859
-0.038642723 0.013480037 0.6921792
-0.038614232 0.01257208 0.69201922
-0.038585782 0.011665493 0.69185948
-0.038557377 0.010760188 0.69170004
-0.038529154 0.0098563135 0.69154155
-0.038500831 0.0089536905 0.69138253
-0.038472544 0.0080523789 0.6912238
-0.038444303 0.0071524084 0.69106519
-0.038416252 0.0062538087 0.69090772
-0.038388092 0.0053564906 0.69074959
-0.038359974 0.004460454 0.69059175
-0.038331896 0.0035657585 0.6904341
-0.038304005 0.0026723742 0.69027746
-0.038276009 0.0017802715 0.69012034
-0.038248055 0.00088950992 0.68996334
-0.038220145 -0 0.68980664
-0.038192414 -0.00088819861 0.68965095
-0.038164582 -0.0017751157 0.68949473
-0.038136791 -0.0026606917 0.68933868
-0.038109038 -0.0035450459 0.68918288
-0.038081475 -0.0044280887 0.68902814
-0.038053799 -0.00530985 0.68887269
-0.038026173 -0.0061903298 0.6887176
-0.037998725 -0.0070695579 0.68856347
-0.037971172 -0.0079474747 0.68840885
-0.037943661 -0.00882411 0.68825436
-0.037916191 -0.0096995234 0.68810016
-0.037888762 -0.010573596 0.68794614
-0.037861511 -0.011446476 0.68779314
-0.03783416 -0.012318105 0.68763959
-0.037806846 -0.013188422 0.68748623
-0.037779715 -0.014057606 0.68733388
-0.037752479 -0.01492539 0.687181
-0.037725285 -0.015791982 0.68702829
-0.037698131 -0.016657323 0.68687588
-0.037671153 -0.017521501 0.68672442
-0.037644077 -0.018384308 0.68657231
-0.037617035 -0.019245923 0.68642056
-0.037590034 -0.020106286 0.68626893
-0.037563216 -0.020965517 0.68611836
-0.03753629 -0.021823406 0.68596721
-0.037509408 -0.022680074 0.68581623
-0.037482563 -0.023535579 0.68566549
-0.037455894 -0.024389893 0.68551576
-0.03742912 -0.025242895 0.6853655
-0.037402391 -0.026094705 0.68521547
-0.037375838 -0.026945323 0.68506634
-0.037349183 -0.027794719 0.68491662
-0.037322566 -0.028642893 0.68476725
-0.037295986 -0.029489815 0.684618
-0.037269581 -0.030335695 0.68446976
-0.037243076 -0.031180263 0.68432099
-0.037216611 -0.032023579 0.68417239
-0.037190184 -0.032865733 0.68402398
-0.037163928 -0.033706844 0.68387657
-0.037137575 -0.034546554 0.68372858
-0.03711126 -0.035385132 0.68358088
-0.037084978 -0.036222517 0.68343329
-0.037058871 -0.03705886 0.68328679
-0.037032668 -0.037893891 0.68313968
-0.037006497 -0.038727701 0.6829927
-0.036980502 -0.039560586 0.68284678
-0.036954407 -0.040392011 0.68270022
-0.036928352 -0.041222364 0.68255395
-0.036902331 -0.042051524 0.68240786
-0.036876481 -0.042879641 0.68226272
-0.036850531 -0.043706417 0.68211704
-0.036824621 -0.04453212 0.68197155
-0.036798745 -0.045356572 0.68182623
-0.036773041 -0.046180099 0.68168205
-0.03674724 -0.047002256 0.68153709
-0.036721472 -0.04782331 0.68139243
-0.036695745 -0.048643202 0.68124795
-0.036670182 -0.04946211 0.68110448
-0.036644522 -0.050279677 0.68096042
-0.036618903 -0.051096171 0.68081653
-0.036593314 -0.051911443 0.68067288
-0.036567897 -0.052725792 0.68053019
-0.036542378 -0.053538829 0.6803869
-0.036516901 -0.054350734 0.68024385
-0.036491584 -0.055161715 0.68010175
-0.036466178 -0.055971324 0.67995912
-0.036440801 -0.056779832 0.6798166
-0.036415465 -0.057587266 0.67967439
-0.036390293 -0.058393717 0.67953306
-0.036365025 -0.059198886 0.67939121
-0.03633979 -0.060002953 0.67924947
-0.039500151 0.072416961 0.70227349
-0.039469831 0.071421593 0.7020992
-0.039439399 0.070427507 0.70192426
-0.039409012 0.069434941 0.70174962
-0.039378677 0.068443865 0.70157522
-0.039348539 0.067454636 0.70140201
-0.039318297 0.06646663 0.70122814
-0.0392881 0.065480173 0.70105457
-0.039257947 0.064495206 0.70088124
-0.039227996 0.063511968 0.7007091
-0.039197937 0.0625301 0.70053625
-0.039167922 0.061549604 0.70036376
-0.039137952 0.060570687 0.7001915
-0.039108187 0.059593439 0.70002043
-0.03907831 0.058617473 0.69984865
-0.039048478 0.057642996 0.69967723
-0.039018694 0.05667001 0.69950598
-0.038989108 0.055698693 0.69933593
-0.038959414 0.054728687 0.69916523
-0.038929764 0.053760171 0.69899482
-0.038900159 0.052793086 0.69882464
-0.038870752 0.051827699 0.69865561
-0.038841236 0.050863534 0.69848597
-0.038811766 0.04990086 0.69831657
-0.03878234 0.048939615 0.69814742
-0.038753111 0.04798004 0.69797939
-0.038723774 0.047021747 0.69781077
-0.038694482 0.046064854 0.69764239
-0.038665235 0.045109451 0.6974743
-0.038636182 0.044155657 0.69730729
-0.03860702 0.043203115 0.69713968
-0.038577907 0.042252004 0.69697225
-0.038548984 0.041302472 0.69680607
-0.038519956 0.040354252 0.69663918
-0.03849097 0.039407432 0.69647264
-0.038462028 0.038462043 0.69630623
-0.03843328 0.037518233 0.696141
-0.038404427 0.036575645 0.69597512
-0.038375616 0.035634547 0.69580948
-0.038346846 0.034694791 0.69564414
-0.038318269 0.033756584 0.69547987
-0.038289588 0.032819688 0.695315
-0.038260948 0.031884104 0.69515038
-0.038232353 0.03094998 0.69498599
-0.038203947 0.030017406 0.69482267
-0.038175434 0.029086053 0.69465882
-0.038146965 0.028156132 0.6944952
-0.038118538 0.027227491 0.69433182
-0.0380903 0.02630046 0.69416946
-0.038061962 0.025374621 0.69400656
-0.038033661 0.024450213 0.6938439
-0.0380054 0.023527116 0.69368148
-0.03797733 0.022605509 0.69352013
-0.037949156 0.021685243 0.69335818
-0.037921023 0.020766288 0.69319642
-0.037892934 0.019848675 0.69303501
-0.037865028 0.018932521 0.69287455
-0.037837021 0.01801762 0.69271362
-0.037809052 0.017104089 0.6925528
-0.037781131 0.0161919 0.69239235
-0.037753388 0.015281141 0.69223285
-0.037725545 0.014371634 0.69207287
-0.037697744 0.013463467 0.69191301
-0.037669983 0.012556672 0.69175345
-0.037642404 0.011651188 0.6915949
-0.037614726 0.010747075 0.69143581
-0.037587088 0.0098442137 0.69127691
-0.037559487 0.0089427531 0.69111824
-0.037532073 0.0080426037 0.69096071
-0.037504554 0.0071437061 0.69080257
-0.037477076 0.0062462091 0.69064456
-0.037449639 0.0053499341 0.69048691
-0.037422385 0.0044550598 0.69033021
-0.037395027 0.0035614073 0.69017297
-0.037367709 0.0026691258 0.69001591
-0.037340432 0.001778096 0.68985915
-0.037313338 0.00088840723 0.68970335
-0.037286136 2.9802322e-08 0.68954706
-0.037258979 -0.00088709593 0.68939096
-0.037231863 -0.0017729402 0.68923509
-0.037204921 -0.0026575029 0.68908018
-0.037177883 -0.0035407245 0.68892473
-0.037150882 -0.0044227242 0.68876958
-0.037123919 -0.0053034127 0.68861461
-0.037097134 -0.0061828196 0.68846059
-0.037070252 -0.0070610344 0.68830609
-0.037043404 -0.0079378784 0.68815178
-0.037016738 -0.0088135004 0.68799847
-0.036989968 -0.0096878409 0.68784463
-0.036963243 -0.01056087 0.68769097
-0.036936551 -0.011432767 0.68753761
-0.036909901 -0.012303293 0.68738437
-0.036883421 -0.013172656 0.68723214
-0.036856849 -0.014040679 0.68707943
-0.036830314 -0.014907509 0.6869269
-0.03680395 -0.015773118 0.68677533
-0.036777489 -0.016637415 0.68662328
-0.036751065 -0.01750049 0.68647134
-0.036724679 -0.018362373 0.68631977
-0.036698468 -0.019222975 0.68616903
-0.036672164 -0.020082355 0.68601787
-0.036645889 -0.020940512 0.68586683
-0.036619656 -0.021797419 0.68571603
-0.036593594 -0.022653162 0.68556619
-0.036567435 -0.023507655 0.68541586
-0.036541313 -0.024360895 0.68526572
-0.036515228 -0.025212884 0.68511581
-0.036489315 -0.02606377 0.6849668
-0.036463305 -0.026913375 0.68481731
-0.036437333 -0.027761757 0.684668
-0.036411528 -0.028609037 0.68451971
-0.036385629 -0.029455036 0.68437082
-0.036359765 -0.030299813 0.68422222
-0.036333941 -0.031143397 0.68407375
-0.036308285 -0.031985879 0.68392622
-0.036282532 -0.032827079 0.68377823
-0.036256813 -0.033667028 0.68363035
-0.036231134 -0.034505844 0.68348277
-0.036205623 -0.035343587 0.68333608
-0.036180016 -0.036180019 0.68318892
-0.036154442 -0.037015229 0.68304193
-0.036128908 -0.037849307 0.68289512
-0.036103539 -0.038682342 0.68274927
-0.036078077 -0.039514065 0.68260294
-0.036052648 -0.040344626 0.68245679
-0.036027387 -0.041174173 0.68231153
-0.036002032 -0.04200235 0.68216586
-0.035976712 -0.042829394 0.68202031
-0.035951428 -0.043655306 0.68187493
-0.035926308 -0.044480205 0.68173051
-0.035901092 -0.045303762 0.68158561
-0.035875913 -0.046126157 0.68144089
-0.035850771 -0.046947449 0.68129641
-0.035825789 -0.047767729 0.68115282
-0.035800718 -0.048586696 0.6810087
-0.03577568 -0.049404532 0.68086475
-0.035750676 -0.050221175 0.68072098
-0.035725836 -0.051036894 0.68057823
-0.035700902 -0.051851302 0.68043494
-0.035676003 -0.052664578 0.68029183
-0.03565114 -0.053476721 0.68014884
-0.035626438 -0.05428791 0.68000686
-0.035601642 -0.055097818 0.67986435
-0.03557688 -0.055906534 0.67972195
-0.035552282 -0.056714356 0.67958063
-0.035527591 -0.057520866 0.67943871
-0.035502933 -0.058326215 0.67929697
-0.035478309 -0.05913049 0.67915541
-0.035453845 -0.059933901 0.6790148
-0.038510315 0.072324246 0.70198286
-0.038480636 0.071329981 0.70180809
-0.038451005 0.070337176 0.70163363
-0.038421571 0.069346279 0.7014603
-0.038392033 0.068356544 0.70128638
-0.03836254 0.067368388 0.70111269
-0.038333092 0.066381693 0.7009393
-0.038303837 0.065396786 0.70076704
-0.038274478 0.06441316 0.70059419
-0.038245164 0.063431025 0.70042157
-0.038215894 0.062450379 0.7002492
-0.038186822 0.061471492 0.70007801
-0.038157642 0.060493827 0.69990623
-0.038128506 0.059517652 0.69973469
-0.038099416 0.058542997 0.69956338
-0.038070519 0.05757004 0.69939315
-0.038041513 0.056598336 0.69922239
-0.038012557 0.055628151 0.69905186
-0.037983641 0.054659396 0.69888163
-0.037954919 0.053692341 0.69871253
-0.037926096 0.052726537 0.69854277
-0.037897311 0.051762193 0.69837332
-0.037868571 0.05079934 0.69820404
-0.037840024 0.049838066 0.69803596
-0.037811372 0.048878103 0.69786727
-0.037782762 0.047919601 0.69769871
-0.037754193 0.046962559 0.69753057
-0.037725821 0.046007067 0.6973635
-0.037697338 0.045052916 0.69719583
-0.037668902 0.044100165 0.6970284
-0.037640508 0.043148875 0.69686115
-0.037612304 0.042199194 0.69669503
-0.037583996 0.041250706 0.69652838
-0.037555728 0.040303707 0.6963619
-0.037527505 0.039358109 0.69619572
-0.037499469 0.038414091 0.69603062
-0.037471328 0.037471294 0.69586492
-0.037443232 0.036529988 0.69569945
-0.037415322 0.035590172 0.69553512
-0.037387308 0.034651667 0.6953702
-0.037359335 0.033714503 0.69520551
-0.037331406 0.0327788 0.69504106
-0.037303519 0.031844497 0.69487679
-0.037275814 0.030911654 0.69471371
-0.037248012 0.029980093 0.69455004
-0.037220247 0.029049963 0.69438648
-0.037192669 0.028121263 0.69422412
-0.037164986 0.027193904 0.6940611
-0.037137348 0.026267886 0.69389832
-0.037109748 0.02534321 0.69373584
-0.037082333 0.024420053 0.69357449
-0.037054818 0.023498207 0.69341242
-0.03702734 0.022577643 0.69325066
-0.036999904 0.02165848 0.69308901
-0.036972649 0.020740718 0.69292855
-0.036945295 0.019824296 0.6927675
-0.036917981 0.018909216 0.69260669
-0.036890708 0.017995477 0.69244611
-0.036863614 0.017083168 0.69228655
-0.036836423 0.016172081 0.69212639
-0.036809269 0.015262365 0.69196653
-0.036782153 0.014353991 0.69180691
-0.036755219 0.013447016 0.6916483
-0.036728185 0.012541324 0.6914891
-0.036701191 0.011636943 0.69133013
-0.036674235 0.010733932 0.69117141
-0.036647461 0.0098322332 0.69101375
-0.036620587 0.0089318752 0.6908555
-0.03659375 0.0080327988 0.69069749
-0.036566954 0.0071350336 0.69053966
-0.036540333 0.0062385798 0.69038296
-0.036513615 0.005343467 0.6902256
-0.036486935 0.0044496059 0.69006854
-0.036460292 0.003557086 0.68991166
-0.036433827 0.0026658773 0.6897558
-0.036407266 0.00177598 0.68959939
-0.036380742 0.00088736415 0.68944317
-0.036354255 -0 0.68928725
-0.036327943 -0.00088605285 0.68913227
-0.036301531 -0.0017707944 0.68897682
-0.036275163 -0.0026542544 0.68882155
-0.036248829 -0.0035364926 0.68866646
-0.03622267 -0.0044173896 0.68851244
-0.036196414 -0.0052970052 0.68835783
-0.036170196 -0.0061754286 0.68820351
-0.036144014 -0.0070524812 0.68804932
-0.036118008 -0.0079283118 0.68789613
-0.036091901 -0.0088028908 0.68774241
-0.036065836 -0.0096761882 0.68758893
-0.036039803 -0.010548234 0.68743569
-0.036013946 -0.011419058 0.6872834
-0.035987992 -0.0122886 0.68713057
-0.035962075 -0.013156891 0.68697798
-0.035936195 -0.01402384 0.68682557
-0.035910483 -0.014889717 0.68667424
-0.035884678 -0.015754253 0.68652225
-0.035858911 -0.016617537 0.68637049
-0.03583331 -0.017479688 0.68621981
-0.035807613 -0.018340498 0.68606848
-0.035781957 -0.019200057 0.68591738
-0.035756335 -0.020058423 0.68576652
-0.03573088 -0.020915627 0.68561661
-0.035705335 -0.02177155 0.68546617
-0.035679821 -0.022626221 0.68531597
-0.035654347 -0.0234797 0.685166
-0.035629038 -0.024332017 0.68501699
-0.035603635 -0.025183052 0.68486738
-0.035578266 -0.026032865 0.68471801
-0.035552938 -0.026881486 0.68456888
-0.035527773 -0.027729005 0.6844207
-0.035502512 -0.028575212 0.68427193
-0.035477288 -0.029420167 0.6841234
-0.035452232 -0.030264109 0.68397588
-0.035427079 -0.03110671 0.68382776
-0.035401963 -0.03194809 0.68367988
-0.035376884 -0.032788336 0.68353212
-0.035351966 -0.03362748 0.68338543
-0.035326958 -0.034465283 0.68323821
-0.035301983 -0.035301983 0.68309116
-0.035277043 -0.036137462 0.6829443
-0.035252266 -0.036971867 0.68279839
-0.035227399 -0.037805021 0.682652
-0.035202567 -0.038636953 0.68250573
-0.035177764 -0.039467752 0.6823597
-0.035153128 -0.040297508 0.68221462
-0.0351284 -0.041125923 0.68206906
-0.035103705 -0.041953236 0.68192363
-0.035079174 -0.042779446 0.68177915
-0.03505455 -0.043604434 0.68163413
-0.035029955 -0.044428259 0.68148935
-0.035005398 -0.045250863 0.68134475
-0.034981005 -0.046072543 0.6812011
-0.034956515 -0.046892881 0.68105692
-0.034932062 -0.047712088 0.68091297
-0.034907643 -0.048530132 0.68076915
-0.034883384 -0.049347222 0.68062627
-0.034859035 -0.050163001 0.68048292
-0.034834716 -0.050977647 0.68033969
-0.034810431 -0.051791131 0.68019676
-0.034786306 -0.052603662 0.68005466
-0.034762092 -0.053414911 0.67991209
-0.034737907 -0.054225028 0.67976969
-0.03471376 -0.055034012 0.67962748
-0.034689769 -0.055842072 0.67948622
-0.034665689 -0.056648821 0.67934442
-0.034641638 -0.057454407 0.6792028
-0.034617748 -0.05825913 0.67906213
-0.034593765 -0.059062511 0.67892098
-0.034569815 -0.059864789 0.67877984
-0.037551779 0.073225975 0.70186663
-0.037522856 0.072231472 0.70169204
-0.037493978 0.071238548 0.70151776
-0.037465293 0.070247442 0.70134461
-0.037436504 0.069257528 0.7011708
-0.037407756 0.068269163 0.70099735
-0.037379205 0.067282587 0.70082498
-0.037350547 0.066297233 0.70065206
-0.037321933 0.065313399 0.70047939
-0.037293363 0.064331055 0.70030695
-0.037264984 0.063350499 0.70013565
-0.037236501 0.062371135 0.69996375
-0.037208062 0.061393261 0.69979209
-0.037179664 0.060416967 0.69962072
-0.03715146 0.059442371 0.69945043
-0.037123151 0.058468938 0.69927961
-0.03709488 0.057497054 0.69910902
-0.037066661 0.056526661 0.69893861
-0.037038624 0.055557966 0.69876945
-0.037010487 0.054590493 0.69859958
-0.036982391 0.053624451 0.69843006
-0.036954336 0.052659929 0.69826072
-0.036926471 0.051697075 0.69809252
-0.036898505 0.050735474 0.69792372
-0.036870576 0.049775273 0.69775522
-0.036842693 0.048816562 0.69758689
-0.036814995 0.04785949 0.69741976
-0.036787197 0.04690367 0.69725192
-0.03675944 0.04594931 0.69708443
-0.036731724 0.044996381 0.69691718
-0.03670419 0.044045001 0.696751
-0.03667656 0.043094963 0.69658422
-0.03664897 0.042146325 0.69641769
-0.036621418 0.041199088 0.69625139
-0.036594052 0.040253431 0.69608617
-0.036566585 0.039309084 0.69592047
-0.03653916 0.038366139 0.69575495
-0.036511779 0.037424564 0.69558966
-0.036484573 0.036484569 0.69542545
-0.03645727 0.035545856 0.69526064
-0.036430009 0.034608513 0.69509614
-0.03640293 0.03367272 0.6949327
-0.036375746 0.032738209 0.69476861
-0.036348607 0.031805068 0.69460481
-0.036321506 0.030873299 0.69444126
-0.036294445 0.0299429 0.69427794
-0.036267567 0.029014051 0.6941157
-0.036240589 0.028086424 0.69395286
-0.036213651 0.027160227 0.69379032
-0.036186889 0.026235521 0.69362879
-0.036160029 0.025312036 0.69346666
-0.036133211 0.024389952 0.69330478
-0.03610643 0.02346918 0.69314319
-0.036079828 0.022549927 0.69298255
-0.036053129 0.021631896 0.69282144
-0.036026467 0.020715266 0.69266051
-0.035999846 0.019799888 0.69249988
-0.0359734 0.01888603 0.69234025
-0.035946857 0.017973453 0.69218004
-0.035920352 0.017062187 0.69202006
-0.035893887 0.016152263 0.69186032
-0.035867594 0.015243739 0.69170165
-0.035841212 0.014336497 0.69154245
-0.035814859 0.013430595 0.69138336
-0.035788551 0.012526006 0.69122458
-0.035762414 0.011622787 0.69106686
-0.035736181 0.010720849 0.69090849
-0.035709988 0.0098202527 0.69075042
-0.035683829 0.0089209676 0.69059253
-0.035657845 0.0080230236 0.69043571
-0.035631768 0.0071263611 0.69027829
-0.035605725 0.00623101 0.69012111
-0.035579722 0.0053369701 0.68996418
-0.035553891 0.0044442415 0.68980825
-0.035527963 0.0035527945 0.68965179
-0.035502069 0.0026626587 0.68949556
-0.035476219 0.0017738044 0.68933946
-0.035450537 0.00088626146 0.68918455
-0.035424758 -0 0.68902892
-0.035399016 -0.00088497996 0.68887353
-0.035373315 -0.0017686784 0.68871838
-0.035347782 -0.0026510954 0.6885643
-0.035322152 -0.0035322011 0.68840963
-0.035296563 -0.004412055 0.68825513
-0.035271008 -0.0052906573 0.68810093
-0.035245623 -0.006167978 0.68794769
-0.035220142 -0.0070440471 0.68779391
-0.035194699 -0.0079188347 0.68764037
-0.035169289 -0.008792311 0.68748701
-0.03514405 -0.0096645951 0.68733466
-0.035118718 -0.010535628 0.68718177
-0.035093419 -0.011405349 0.68702912
-0.035068158 -0.012273848 0.6868766
-0.035043061 -0.013141155 0.6867252
-0.035017874 -0.014007121 0.68657315
-0.034992721 -0.014871866 0.68642128
-0.034967605 -0.015735447 0.68626976
-0.034942653 -0.016597748 0.68611908
-0.034917608 -0.017458797 0.68596798
-0.0348926 -0.018318623 0.68581706
-0.034867756 -0.019177288 0.6856671
-0.034842819 -0.020034581 0.6855166
-0.034817915 -0.020890743 0.68536627
-0.034793053 -0.021745622 0.68521619
-0.034768347 -0.022599429 0.68506706
-0.034743551 -0.023451865 0.68491745
-0.034718793 -0.024303168 0.68476796
-0.034694068 -0.02515319 0.68461883
-0.034669504 -0.026002169 0.68447053
-0.03464485 -0.026849717 0.6843217
-0.034620233 -0.027696192 0.68417317
-0.034595646 -0.028541416 0.68402481
-0.034571223 -0.029385567 0.68387735
-0.034546707 -0.030228376 0.68372941
-0.034522228 -0.031069994 0.68358159
-0.034497906 -0.031910539 0.68343484
-0.034473497 -0.032749832 0.6832875
-0.034449119 -0.033587873 0.6831404
-0.034424774 -0.034424752 0.68299353
-0.034400593 -0.035260588 0.6828475
-0.034376319 -0.036095113 0.68270099
-0.034352079 -0.036928475 0.68255472
-0.034327876 -0.037760675 0.68240863
-0.034303829 -0.038591802 0.68226349
-0.034279689 -0.039421648 0.68211782
-0.034255587 -0.040250301 0.68197232
-0.034231517 -0.041077793 0.68182707
-0.034207605 -0.04190433 0.68168271
-0.034183603 -0.042729497 0.68153781
-0.034159634 -0.043553501 0.68139321
-0.034135822 -0.044376522 0.68124944
-0.034111921 -0.045198292 0.68110526
-0.034088049 -0.046018898 0.68096119
-0.034064215 -0.046838284 0.68081737
-0.034040537 -0.047656745 0.68067437
-0.034016769 -0.048473865 0.68053091
-0.033993032 -0.049289912 0.68038768
-0.033969332 -0.050104737 0.68024462
-0.033945784 -0.050918669 0.68010247
-0.033922147 -0.051731288 0.67995983
-0.033898544 -0.052542746 0.67981732
-0.033874974 -0.053353071 0.6796751
-0.033851556 -0.054162502 0.67953378
-0.03382805 -0.054970562 0.67939186
-0.033804577 -0.05577755 0.67925024
-0.033781137 -0.056583405 0.67910874
-0.033757851 -0.057388335 0.67896819
-0.033734474 -0.058191955 0.67882717
-0.033711132 -0.058994502 0.67868626
-0.033687938 -0.059796095 0.67854625
-0.036566202 0.073132396 0.70157701
-0.036538076 0.072139263 0.7014029
-0.036509991 0.07114768 0.70122904
-0.03648195 0.070157617 0.70105547
-0.036453951 0.069169044 0.70088214
-0.036426142 0.06818226 0.70071
-0.036398228 0.067196727 0.7005372
-0.036370356 0.066212684 0.70036465
-0.036342673 0.065230429 0.70019329
-0.036314886 0.064249426 0.70002127
-0.036287148 0.063269913 0.69984961
-0.036259446 0.06229189 0.69967806
-0.036231931 0.061315596 0.69950777
-0.036204312 0.060340524 0.69933677
-0.036176741 0.059366912 0.69916612
-0.036149208 0.058394879 0.69899571
-0.03612186 0.057424515 0.69882643
-0.036094412 0.056455374 0.69865644
-0.036067005 0.055487692 0.6984868
-0.036039639 0.054521471 0.69831741
-0.036012456 0.053557009 0.69814914
-0.035985172 0.052593708 0.69798028
-0.035957932 0.051631927 0.6978116
-0.03593073 0.050671548 0.69764328
-0.035903711 0.049712837 0.69747597
-0.035876594 0.048755378 0.69730812
-0.035849515 0.047799319 0.69714051
-0.035822481 0.04684478 0.6969732
-0.035795625 0.045891821 0.69680691
-0.035768669 0.044940114 0.69664007
-0.035741754 0.043989867 0.69647348
-0.03571488 0.04304105 0.69630706
-0.035688184 0.042093754 0.69614184
-0.035661392 0.041147768 0.69597596
-0.035634637 0.040203184 0.69581038
-0.035607923 0.03926003 0.69564503
-0.035581388 0.038318425 0.69548076
-0.035554752 0.037378073 0.6953159
-0.035528161 0.036439151 0.69515121
-0.035501607 0.035501599 0.69498682
-0.035475228 0.034565628 0.69482356
-0.035448756 0.033630848 0.69465971
-0.035422318 0.032697529 0.69449598
-0.03539592 0.03176561 0.6943326
-0.035369702 0.030835092 0.69417036
-0.035343383 0.029905915 0.6940074
-0.035317104 0.028978109 0.69384474
-0.035290863 0.028051734 0.69368225
-0.035264798 0.027126789 0.6935209
-0.035238639 0.026203096 0.69335902
-0.035212513 0.025280774 0.69319731
-0.035186429 0.024359822 0.69303584
-0.035160515 0.023440361 0.69287539
-0.035134509 0.022522122 0.69271439
-0.03510854 0.021605253 0.69255364
-0.035082746 0.020689845 0.69239396
-0.035056852 0.019775689 0.69223368
-0.035030998 0.018862873 0.69207364
-0.035005182 0.017951369 0.69191384
-0.034979403 0.017041266 0.69175422
-0.034953795 0.016132534 0.69159573
-0.034928091 0.015225112 0.69143665
-0.034902427 0.014318913 0.6912778
-0.034876931 0.013414174 0.69111991
-0.034851342 0.012510717 0.69096148
-0.034825791 0.011608601 0.69080335
-0.034800276 0.010707796 0.6906454
-0.034774929 0.0098083019 0.69048852
-0.034749489 0.0089101195 0.69033098
-0.034724087 0.0080132782 0.6901738
-0.034698721 0.0071176589 0.69001675
-0.034673519 0.00622347 0.68986076
-0.034648228 0.005330503 0.68970418
-0.034622971 0.0044388473 0.68954784
-0.034597754 0.0035484731 0.68939179
-0.034572702 0.00265944 0.68923664
-0.034547556 0.0017716587 0.68908101
-0.034522448 0.00088518858 0.68892556
-0.034497373 2.9802322e-08 0.68877035
-0.034472469 -0.00088390708 0.68861616
-0.034447469 -0.0017665327 0.68846142
-0.034422502 -0.0026478767 0.68830687
-0.034397576 -0.0035279691 0.68815261
-0.034372814 -0.0044067502 0.68799931
-0.034347959 -0.0052843094 0.68784541
-0.034323137 -0.0061605871 0.68769181
-0.034298353 -0.0070355833 0.68753839
-0.034273732 -0.0079092979 0.68738592
-0.034249019 -0.0087818205 0.68723297
-0.034224343 -0.009653002 0.68708026
-0.034199703 -0.010522962 0.68692768
-0.034175221 -0.011391729 0.68677616
-0.034150653 -0.012259185 0.68662405
-0.034126118 -0.01312542 0.68647218
-0.034101617 -0.013990372 0.68632048
-0.034077276 -0.014854223 0.68616986
-0.034052845 -0.015716702 0.68601859
-0.034028452 -0.016577959 0.68586755
-0.034004092 -0.017438024 0.68571687
-0.033979889 -0.018296838 0.68556702
-0.0339556 -0.019154429 0.68541658
-0.033931345 -0.020010829 0.68526649
-0.03390725 -0.020865977 0.6851173
-0.033883061 -0.021719933 0.68496758
-0.033858906 -0.022572607 0.68481803
-0.033834789 -0.023424089 0.68466878
-0.033810828 -0.024274439 0.68452048
-0.033786777 -0.025123507 0.68437159
-0.033762764 -0.025971353 0.68422288
-0.033738781 -0.026818007 0.68407452
-0.033714958 -0.027663559 0.683927
-0.033691045 -0.028507799 0.68377888
-0.033667166 -0.029350847 0.68363112
-0.03364332 -0.030192733 0.68348354
-0.033619627 -0.031033516 0.68333685
-0.033595849 -0.031872958 0.68318963
