# .PCD v0.7 - Point Cloud Data file format
VERSION 0.7
FIELDS x y z
SIZE 4 4 4
TYPE F F F
COUNT 1 1 1
WIDTH 1333
HEIGHT 1
VIEWPOINT 0 0 0 1 0 0 0
POINTS 1333
DATA ascii
0.014561243 0.021495193 0.67399734
-0.010356394 0.025545806 0.67328119
0.013823349 0.028337866 0.67346013
0.01382339 0.032484978 0.6734606
0.01382339 0.032484978 0.6734606
0.0013867932 0.041603804 0.6739983
0.0062347143 0.047799468 0.67384124
0.01382339 0.050455362 0.67346066
0.012413635 0.055171698 0.67309296
0.015303858 -0.0066084862 0.67453754
-0.025663281 0.0062424541 0.67404795
-0.025663281 0.0062424541 0.67404795
-0.022990035 0.010450065 0.674788
-0.017369218 0.017369241 0.67432958
-0.014570308 0.020814747 0.67410153
0.015303903 0.02365154 0.6745379
0.015303903 0.037564158 0.67453802
0.015303903 0.040346682 0.67453802
0.015303903 0.056346178 0.67453802
0.016427495 -0.015378401 0.67535543
0.016427495 0.018523991 0.67535543
0.016427495 0.019572511 0.67535543
-0.01047655 0.027239084 0.67521513
-0.0077169975 0.031569541 0.67596555
0.00034933191 0.041607514 0.67542136
0.0076812822 0.050975829 0.67518169
0.018323032 -0.01268518 0.67673492
0.018323032 -0.01268518 0.67673492
0.017560843 -0.0035121739 0.67618006
0.017560843 0.00035122037 0.67618006
-0.028189281 0.0035236776 0.67673492
0.018323032 0.0035236776 0.67673492
-0.021153759 0.014807642 0.67682987
0.017560896 0.022477984 0.6761806
0.018323032 0.026427448 0.67673492
0.018323032 0.030303478 0.67673492
0.018323032 0.034531891 0.67673492
0.017560896 0.046360761 0.67618054
0.017560896 0.057599783 0.6761806
-0.01632173 -0.0028385222 0.67791986
-0.014826613 0.023298979 0.67704809
-0.014826613 0.023298979 0.67704809
0.01947635 0.023370937 0.67757452
-0.0063651614 0.034654796 0.67734045
0.0085124373 0.054621488 0.6778546
0.020639762 -0.019572183 0.67842096
0.020639762 -0.00462614 0.67842102
0.021422265 -0.0014281273 0.6789906
0.021422265 -0.0014281273 0.6789906
-0.02914892 0.0056875944 0.67823589
0.021422265 0.006426692 0.6789906
0.021422265 0.014638543 0.6789906
-0.0156528 0.023479193 0.67836666
0.021422265 0.025706768 0.6789906
0.020639794 0.037365153 0.67842126
0.002491666 0.047347516 0.67848897
0.0056828582 0.051145762 0.67809296
0.020639826 0.051599592 0.6784215
0.020639826 0.057649165 0.6784215
0.021422265 0.061410517 0.6789906
0.014915977 0.063215375 0.67807543
0.022209905 -0.021493465 0.67956358
0.022209905 -0.008597374 0.67956352
0.022209905 -0.0053733736 0.67956352
-0.015721539 -0.00357306 0.67912096
0.022209974 0.01647836 0.67956406
0.022209974 0.018627733 0.67956406
0.022209974 0.033673227 0.67956406
0.022209974 0.033673227 0.67956406
0.022209974 0.039404809 0.67956406
-0.002148805 0.042259872 0.67952001
0.022209974 0.044419944 0.67956406
0.010012671 0.05793044 0.6792599
0.023402005 -0.013680786 0.68043137
0.023402005 -0.013680786 0.68043137
0.0021589887 -0.012953907 0.68033957
0.023402005 -0.00360021 0.68043137
-0.019503608 0.020948321 0.68098974
-0.0093722595 0.033884317 0.68064862
-0.0086353496 0.034541458 0.68032736
0.023269009 0.040539682 0.68033493
-0.00072220573 0.045498997 0.68095344
0.023402041 0.0453628 0.6804316
0.023535077 0.049470317 0.6805284
0.023402041 0.055443436 0.6804316
0.0086655943 0.057770669 0.68093586
0.024604706 -0.021710038 0.68130648
0.025413761 -0.015611276 0.68189538
0.025413761 -0.01161769 0.68189543
0.024604706 -0.0094076693 0.68130642
-0.014495644 -0.0050734878 0.68157548
-0.026092159 0.00072479248 0.68157542
0.024604782 0.012302428 0.68130696
-0.025354233 0.013763726 0.68148482
0.024604782 0.046314895 0.68130696
0.024604782 0.05246608 0.68130696
0.025413839 0.05336909 0.68189597
0.0057852496 0.05423674 0.68118292
0.025413839 0.061719358 0.68189591
0.0065697734 -0.016059428 0.68282908
0.00072997482 -0.013139546 0.68282908
-0.0051098238 -0.010219604 0.68282908
-0.012409572 -0.006569773 0.68282902
0.026228288 -0.004371345 0.68248832
-0.02262922 -0.0014599264 0.68282908
-0.02262922 -0.0014599264 0.68282908
0.026228288 0.0083785355 0.68248832
-0.028463477 0.010947496 0.68279475
0.026228288 0.019671232 0.68248832
0.026228288 0.021492645 0.68248838
-0.01309815 0.030562371 0.68227386
0.026228288 0.038613915 0.68248838
0.0014537695 0.049428165 0.68208313
0.0072920886 0.057607532 0.68264413
0.02746108 -0.0065904707 0.68338537
0.027461123 0.012448788 0.68338561
-0.026446015 0.014692247 0.68394846
-0.011740862 0.033755004 0.68375343
-0.011740862 0.033755004 0.68375343
0.027461123 0.037346289 0.68338561
-0.0073445854 0.039660782 0.6839115
0.027598774 0.060569279 0.68348598
0.029542072 -0.028064966 0.68489969
0.028705183 -0.023552954 0.68429095
0.019116303 -0.022792518 0.68410081
0.029542072 -0.021417975 0.68489975
0.029542072 0.0014771223 0.68489975
0.028705183 0.0025761276 0.68429101
0.029542072 0.0036928058 0.68489975
0.028705183 0.04452984 0.68429101
0.028705183 0.055570304 0.68429101
0.012589933 -0.019995779 0.68539041
0.012589933 -0.019995779 0.68539041
0.030384811 -0.017415658 0.68551326
0.030384811 -0.010375261 0.6855132
0.030384811 0.0044465959 0.68551326
0.030384811 0.0074109435 0.68551326
0.030384811 0.017415702 0.6855132
-0.024401957 0.018486351 0.68511736
0.030384811 0.019268423 0.6855132
-0.022193531 0.021453768 0.68519729
-0.012574995 0.034026474 0.68517828
0.030384811 0.036313564 0.68551326
-0.0085227154 0.039647192 0.68550885
0.030384907 0.042613015 0.68551379
-0.0022283462 0.048280835 0.68592101
0.030384907 0.055582166 0.68551379
0.0081541715 0.061526954 0.68556035
0.031233372 -0.026399612 0.686131
0.032087706 -0.02238676 0.68675238
0.032087706 -0.02238676 0.68675238
0.0074600661 -0.017904162 0.68669951
0.032087706 -0.012685806 0.68675238
0.032087706 -0.012685806 0.68675238
0.032087706 -0.0085816085 0.68675238
0.031233372 -0.0044619143 0.68613094
0.031233372 -0.0044619143 0.68613094
-0.029840361 0.00074601173 0.68670011
-0.032010771 0.0096777081 0.68632042
-0.032010771 0.0096777081 0.68632042
0.03208781 0.010447234 0.68675303
0.03208781 0.011566535 0.68675303
0.031233372 0.016360343 0.686131
0.03208781 0.026491135 0.68675292
-0.016429473 0.030618548 0.68688959
0.03208781 0.042535037 0.68675297
-0.0037281145 0.046974272 0.68660682
0.00074629881 0.052987218 0.68677002
0.03208781 0.054474652 0.68675297
0.032948084 0.019469351 0.6873787
0.032948188 0.038564369 0.68737924
0.032948188 0.048673451 0.6873793
-0.00074916915 0.051692665 0.68746299
0.032948188 0.054664046 0.6873793
0.0346868 -0.023375869 0.68864399
-0.005260563 -0.012024105 0.68802786
0.0346868 -0.0022622049 0.68864399
-0.032314889 0.0015030503 0.68802792
0.0346868 0.0015081167 0.68864393
0.0346868 0.00452438 0.68864399
0.0346868 0.00452438 0.68864399
-0.036077596 0.0060129464 0.68805385
0.033814464 0.015404403 0.68800938
-0.023409206 0.023409218 0.68890345
0.033814464 0.036444515 0.68800938
0.034686912 0.04071942 0.68864453
0.034686912 0.04071942 0.68864453
0.034686912 0.04071942 0.68864453
0.034686912 0.044489741 0.68864459
-0.005272184 0.046696514 0.68842864
0.033814464 0.05335173 0.68800944
0.0037727365 0.058854699 0.68876141
0.028769542 -0.029526621 0.68937606
0.010599305 -0.020441473 0.689376
0.0090851178 -0.019684374 0.689376
0.035565373 -0.0015134215 0.68928355
0.035565373 0.016647667 0.68928355
-0.026469 0.019662708 0.68917423
0.035565373 0.020431191 0.68928355
0.035565373 0.020431191 0.68928355
-0.0143739 0.035556495 0.68923789
0.036450144 0.048600197 0.68992764
0.036450144 0.050498635 0.68992764
0 0.054513693 0.68938601
0.037341051 -0.026672184 0.69057572
0.011441414 -0.021357298 0.69074434
0.037341051 -0.021337718 0.69057566
0.037341051 -0.016384333 0.6905756
0.037341051 -0.01447916 0.69057572
-0.0053393268 -0.012966901 0.69074434
0.037341051 -0.006477505 0.69057566
0.037341051 0.0064775348 0.69057572
0.039142154 -0.028397232 0.69188678
0.039142154 -0.0076749027 0.69188684
-0.032200199 0.014566779 0.69168842
0.039142154 0.016501129 0.69188678
0.039142154 0.029548496 0.69188678
-0.019940572 0.030677825 0.69175452
0.039142154 0.031467229 0.69188678
-0.016050104 0.035157382 0.69111365
0.038238529 0.045503855 0.69122952
0.0084131574 0.067305326 0.69124442
0.0084131574 0.067305326 0.69124442
0.021518398 -0.026897967 0.69213331
-0.036159094 0.010001481 0.69233322
-0.031572443 0.016171277 0.69250643
0.03949197 -0.036394566 0.69354278
0.040968977 -0.035557956 0.6932162
0.019358808 -0.026327938 0.69354272
0.040968977 -0.026281983 0.6932162
0.040968977 -0.026281983 0.6932162
0.040968977 -0.015459985 0.69321615
0.041892324 -0.0046547353 0.69388837
0.040968977 -0.0023189783 0.6932162
0.041892324 -0.0023273528 0.69388837
0.040968977 0.004638046 0.69321615
0.041892324 0.020558283 0.69388831
0.041892324 0.026376635 0.69388831
0.041892324 0.038401306 0.69388831
0.042822205 -0.029586196 0.6945647
0.042822205 -0.015571713 0.6945647
-0.040404696 0.0062161386 0.6941852
-0.019508028 0.034334123 0.69498372
0.042822346 0.042433038 0.69456536
0.042822346 0.043600947 0.69456536
0.042822346 0.045547411 0.69456536
0.0015571761 0.061508477 0.6945653
0.04375897 -0.036726266 0.6952467
0.044702556 -0.033722967 0.69593358
0.044702556 -0.023527652 0.69593352
0.04375897 -0.014456078 0.69524664
0.04375897 -0.007423386 0.6952467
0.044702556 -0.0023527443 0.69593352
0.044702556 -0.0023527443 0.69593352
0.04375897 0.0054698884 0.69524664
0.04375897 0.011721164 0.6952467
0.044702556 0.014508739 0.69593358
0.04375897 0.034382045 0.69524664
0.04375897 0.040633321 0.6952467
-0.012502852 0.043759972 0.69525099
0.045652889 -0.036601007 0.69662488
0.024375429 -0.02987954 0.69642818
0.01336717 -0.024375439 0.69642818
0.045652889 -0.018497258 0.69662488
0.045652889 -0.010232508 0.69662488
-0.030665861 -0.0023588836 0.69642818
0.045652889 0.0015742779 0.69662482
-0.043273803 0.0047207773 0.69654703
0.045652889 0.0086583197 0.69662488
0.045653041 0.029517055 0.69662547
-0.015754972 0.040962934 0.69677687
-0.015754972 0.040962934 0.69677687
-0.019018067 -0.0087165833 0.69790453
0.04661034 -0.0047400296 0.69732183
-0.033281617 -0.0015848279 0.69790459
-0.040328048 0.00948897 0.69750053
-0.025325233 0.029282302 0.6976617
0.04661034 0.040290326 0.69732183
-0.010297102 0.04910928 0.6978237
0.04757484 -0.041231513 0.69802392
0.04757484 -0.023787439 0.69802403
0.04757484 -0.016651183 0.69802392
0.048546311 -0.011539683 0.69873059
0.048546311 -0.0063667297 0.69873059
0.04757484 0.0055504143 0.69802392
0.04757484 0.0063433349 0.69802392
-0.029387623 0.024622083 0.69834894
0.04757484 0.02537325 0.69802397
0.048546474 0.030242085 0.69873124
-0.019060064 0.038120151 0.698327
0.048546474 0.045363098 0.6987313
0.040730163 -0.039132923 0.69940406
0.049525145 -0.036744416 0.69944316
0.027951976 -0.032743722 0.69940341
0.049525145 -0.030354112 0.6994431
0.018368443 -0.027951956 0.69940341
0.0023958837 -0.019965708 0.69940341
-0.02635481 -0.0055903792 0.699404
0.049525145 0.0075885504 0.6994431
-0.036725216 0.015967488 0.69934213
0.049525145 0.035546303 0.69944322
-0.0040006307 0.059209347 0.69976509
0.051504575 -0.032592714 0.70088363
0.051504575 -0.030580848 0.70088357
0.020928368 -0.029782683 0.7009266
0.014488869 -0.026562899 0.70092666
-0.0048296233 -0.016903669 0.7009266
0.050511263 -0.0056123137 0.70016104
0.050511263 -0.001603514 0.70016104
0.051504575 0.001609534 0.70088357
0.051504575 0.0032190681 0.70088357
-0.031310312 0.024084866 0.70041752
0.050511263 0.024453893 0.70016098
0.051504754 0.040238112 0.70088422
0 0.065006852 0.700351
0.052505512 -0.043619901 0.70161217
0.052505512 -0.043619901 0.70161217
0.052505512 -0.0096933544 0.70161223
0.052505512 0.012520567 0.70161223
0.052505512 0.019386649 0.70161223
-0.029110132 0.028301537 0.70181441
0.052505512 0.041196674 0.70161223
-0.018595975 0.04204309 0.70179164
0.020283675 -0.03001982 0.702474
0.053513989 -0.030405656 0.70234632
0.053513989 -0.014594704 0.70234632
-0.041378837 0.00081136823 0.70247471
0.053513989 0.0016216636 0.70234632
0.053513989 0.0044595152 0.70234632
0.053513989 0.0056757033 0.70234638
-0.033274937 0.023535967 0.70253122
0.053513989 0.024324566 0.70234632
-0.023582345 0.036593288 0.70291764
0.053513989 0.036486834 0.70234632
0.05452989 -0.033369005 0.70308536
0.05555369 -0.026551396 0.7038306
0.05555369 -0.024508953 0.7038306
0.05555369 -0.019607186 0.70383066
0.05452989 -0.0085457116 0.7030853
0.05555369 -0.0044932812 0.7038306
0.05555369 -0.0044932812 0.7038306
0.05555369 0.00040850043 0.7038306
0.05555369 0.012254506 0.7038306
0.05453008 0.018719286 0.70308602
0.05555369 0.019607216 0.7038306
0.05555369 0.027776867 0.7038306
0.05555369 0.032678634 0.7038306
0.052343018 -0.046617985 0.70404631
0.029442945 -0.035167933 0.70404637
0.0098143155 -0.02535364 0.70404637
0.056585282 -0.022552073 0.70458156
0.0016357193 -0.021264344 0.70404637
0.056585282 -0.020501912 0.70458156
-0.0098143155 -0.015539318 0.70404637
-0.024535788 -0.0081785917 0.70404637
0.056585282 0.0057405531 0.70458156
-0.047472995 0.0065479875 0.70420092
-0.040166188 0.016394377 0.70449501
0.057624564 -0.049392492 0.70533758
0.057624564 -0.048569262 0.70533758
0.057624564 -0.0082320571 0.70533752
0.057624564 -0.0082320571 0.70533752
-0.030505676 -0.0057713389 0.70564413
-0.035452541 -0.0032978952 0.70564413
-0.045346275 0.0016489923 0.70564407
-0.045346275 0.0016489923 0.70564407
0.057624564 0.0082321167 0.70533758
-0.041982293 0.014817327 0.70533133
-0.012337247 0.053461432 0.70516253
-0.0033034899 0.066069841 0.70598078
0.058672015 -0.042557865 0.70610011
0.059727535 -0.034426257 0.70686841
0.058672015 -0.027270079 0.70610005
0.058672015 -0.012395501 0.70610005
0.058672015 -0.0045450032 0.70610011
0.059727535 0.0058068633 0.70686847
0.058672015 0.012395501 0.70610011
0.059727535 0.018250108 0.70686841
-0.02902087 0.033166736 0.70677638
-0.020716324 0.04391861 0.7066521
-0.014899034 0.051318914 0.70642787
-0.0099426508 0.057998836 0.70662826
0.0066496064 -0.02493602 0.70726717
0.0033248032 -0.023273587 0.70726717
0.060791004 -0.00083273649 0.70764202
0.060791217 0.021651685 0.70764273
0.060791217 0.031644762 0.70764273
-0.019109283 0.046526968 0.70717967
0.061862934 -0.046815187 0.7084223
0.061862934 -0.043471217 0.7084223
0.037711684 -0.041063845 0.70891774
0.037711684 -0.041063845 0.70891774
0.02933131 -0.036873639 0.70891774
0.061862934 -0.036783338 0.7084223
0.061862934 -0.029259503 0.70842236
-0.014246636 -0.015084654 0.70891774
-0.030121593 0.033468455 0.70859742
0.061862934 0.035111427 0.7084223
-0.011730403 0.057814121 0.70888114
0.062942997 -0.05245249 0.70920807
0.062942997 -0.047836691 0.70920801
0.06294322 -0.027695 0.70920873
0.06294322 0.0054550916 0.70920873
-0.050348323 0.0075522959 0.70918351
-0.040360648 0.021021217 0.70959592
0.065129019 -0.052441508 0.71079934
0.064031735 -0.047181249 0.71000051
0.023659648 -0.034644485 0.71059561
0.064031735 -0.025275648 0.71000057
0.065129019 -0.014379114 0.71079934
0.064031735 -0.0054763705 0.71000051
-0.0405594 -0.0025349557 0.71059561
0.065129019 0.001691699 0.71079934
0.065129019 0.011841655 0.71079934
0.065129019 0.015224993 0.71079934
0.064031959 0.017693073 0.71000123
-0.033758331 0.030382514 0.71034712
-0.021153055 0.047382861 0.71086949
0.066234954 -0.047553271 0.71160442
0.066234954 -0.040759981 0.71160448
0.066234954 -0.038212448 0.71160436
0.066234954 -0.033542067 0.71160442
0.066234954 -0.032268316 0.71160442
0.066234954 -0.024625778 0.71160436
-0.039055884 0.024622202 0.7115742
-0.013558834 0.057625085 0.71118456
0.067349404 -0.049446374 0.7124151
0.048567064 -0.047715008 0.71230161
0.067349404 -0.044331223 0.7124151
0.067349404 -0.032395929 0.7124151
-0.019597238 -0.013632864 0.71230155
0.067349404 -0.009377718 0.7124151
0.067349404 -0.0055413842 0.7124151
0.067349404 0.0017050803 0.7124151
-0.052024622 0.00852862 0.71249682
0.06734965 0.012787938 0.71241581
0.06734965 0.017476827 0.71241581
-0.013654921 0.058886886 0.71263438
0.068472952 -0.053494468 0.71323293
0.068472952 0.0017118454 0.71323299
0.068472952 0.023537606 0.71323299
0.068472952 0.026533276 0.71323293
0.070746787 -0.05780524 0.71488762
0.070746787 -0.05780524 0.71488762
0.069605216 -0.054567024 0.71405661
0.051554352 -0.049835861 0.71403629
0.042961959 -0.045539647 0.71403629
0.06960547 -0.041247636 0.71405739
0.025777176 -0.03694725 0.71403629
0.017184785 -0.032651067 0.71403623
0.015466306 -0.031791836 0.71403629
0.0034369568 -0.025777161 0.71403623
0 -0.02405858 0.71403551
0.06960547 -0.012460217 0.71405745
0.070746787 0.00043140352 0.71488762
0.06960547 0.012460247 0.71405733
0.070747048 0.026745826 0.71488845
-0.028415656 0.041331887 0.71448076
0.071897551 -0.054572791 0.7157253
0.052859358 -0.051126242 0.71580046
0.071897551 -0.049375415 0.71572536
0.042460643 -0.045926809 0.71579975
0.071897551 -0.044178009 0.7157253
0.071897551 -0.028585732 0.7157253
0.071897551 -0.019490272 0.7157253
0.071897551 -0.017324686 0.7157253
0.071897551 -0.0077961385 0.7157253
-0.056328233 0.0060661435 0.71581042
-0.053756662 0.0095374882 0.71592027
0.073057607 -0.04783529 0.71656978
0.073057607 -0.042616963 0.71656984
0.073057607 0.0043486953 0.71656978
0.073057607 0.013480902 0.71656978
-0.019163197 0.055747479 0.71688867
0.074226797 -0.056761652 0.71742028
0.03495907 -0.042824835 0.71759421
0.017479535 -0.034085065 0.71759427
0.017479535 -0.034085065 0.71759427
0.074226797 -0.031437218 0.71742028
0.074226797 -0.023577929 0.71742028
-0.0069918134 -0.021849394 0.71759427
0.074226797 -0.020521507 0.71742034
-0.029715208 -0.010487705 0.71759415
0.074227065 0.019211709 0.71742117
0.074227065 0.019211709 0.71742117
-0.043759208 0.024505198 0.71788567
0.075405777 -0.047347784 0.71827859
0.075405777 -0.029811561 0.71827853
0.075405777 -0.013152152 0.71827853
0.075405777 0.0052609146 0.71827853
-0.050935388 0.015807599 0.71861291
0.075405777 0.022797137 0.71827853
-0.013145388 0.064850599 0.71816939
0.071404606 -0.061707646 0.71941972
0.046721533 -0.049366146 0.71941978
0.076594383 -0.004401952 0.71914375
-0.052010957 2.9802322e-08 0.71942055
0.076594383 0.0035216212 0.71914375
-0.01759702 0.059829891 0.71901238
0.079000719 -0.05858475 0.72089487
0.077792466 -0.042432249 0.72001535
0.079000719 -0.042607099 0.72089481
0.077792466 -0.036244184 0.72001541
0.077792466 -0.036244184 0.72001541
0.077792466 -0.036244184 0.72001541
0.077792466 -0.031824201 0.72001535
0.077792466 -0.025636137 0.72001529
0.079000719 -0.01553382 0.72089481
0.079000719 -0.0017752945 0.72089481
0.079000719 0.0088764727 0.72089493
0.077792764 0.0123761 0.72001612
0.074695483 -0.064024687 0.72127718
0.062246233 -0.057800055 0.72127712
0.062246233 -0.057800055 0.72127712
0.080218658 -0.057490021 0.7217809
0.055132378 -0.054243118 0.72127718
0.080218658 -0.052587807 0.7217809
0.080218658 -0.039217979 0.72178084
0.023120029 -0.038236946 0.72127712
0.023120029 -0.038236946 0.72127712
0.023120029 -0.038236946 0.72127712
0.080218956 -0.025848329 0.72178161
0.080218956 -0.017826438 0.72178173
0.080218956 -0.013369828 0.72178167
-0.039126206 -0.0071137846 0.72127712
0.080218956 0.019609094 0.72178173
-0.049042307 0.021400303 0.72186774
0.08144702 -0.060861498 0.72267497
0.08144702 -0.025508106 0.72267497
0.08144702 -0.025508106 0.72267497
0.08144702 -0.011635274 0.72267503
0.08144702 -0.0035800636 0.72267503
0.08144702 0.01342535 0.72267509
-0.041083869 0.032152623 0.72221762
0.082685634 -0.047634095 0.72357666
0.015250037 -0.034985393 0.72316724
0.082685634 -0.028760225 0.72357666
0.082685634 -0.023367643 0.72357666
0.082685634 -0.016177624 0.72357666
0.082685634 0.0071900487 0.72357666
0.082685634 0.016177654 0.72357666
-0.041390836 0.033292621 0.72382867
0.083934627 -0.043321103 0.72448587
0.083934627 -0.03745468 0.72448587
0.083934627 -0.0027075708 0.72448587
-0.037017718 0.039726347 0.72456998
0.085193798 -0.026283175 0.72540182
0.085193798 -0.026283175 0.72540182
0.085193798 -0.016313672 0.72540182
0.085193798 -0.010875762 0.72540188
-0.058870412 0.011774093 0.72525263
-0.039004248 0.038097203 0.72558498
-0.027208716 0.053510487 0.72555649
0.086463943 -0.046417445 0.72632647
0.086463943 -0.030489907 0.72632647
0.086463943 -0.028214544 0.72632647
0.086463943 -0.021843493 0.72632641
-0.049129762 0.025474697 0.72624522
-0.034587443 0.044599622 0.72633833
0.087744869 -0.033818334 0.72725886
-0.0045656832 -0.026480943 0.72704828
0.087744869 -0.016452163 0.72725892
-0.03195978 -0.012783915 0.72704828
-0.03195978 -0.012783915 0.72704828
0.087744869 -0.0073120594 0.72725892
0.087744869 -0.0027419627 0.7272588
0.089036368 -0.038551807 0.72819841
0.089036368 -0.025701195 0.72819841
0.089036368 -0.012850612 0.72819841
0.089036368 -0.010096908 0.72819841
0.089036368 0.0036716461 0.72819841
-0.063562319 0.0092119575 0.72899318
-0.054312907 0.021172851 0.72883987
-0.046779681 0.030269206 0.72804093
-0.046779681 0.030269206 0.72804093
-0.033112988 0.048749715 0.72865814
0.011056731 -0.035012931 0.72904176
-0.014742307 -0.022113472 0.72904181
-0.014742307 -0.022113472 0.72904181
-0.044226922 -0.0073711276 0.72904181
-0.06634064 0.0036856234 0.72904265
0.090339258 0.010140121 0.72914684
0.091652989 -0.041660398 0.73010254
-0.039906129 0.041762233 0.73064852
-0.037142847 0.04550001 0.7307744
-0.037142847 0.04550001 0.7307744
-0.030604359 0.053789526 0.73049289
-0.022295345 0.065028101 0.73087144
0.013947038 -0.037192076 0.73107171
0.008368223 -0.034402698 0.73107171
0.0027894075 -0.03161329 0.73107177
-0.049603369 0.03088516 0.73254681
0.016890517 -0.039411187 0.7331382
-0.02627424 -0.017828941 0.73313916
-0.042289607 0.041349828 0.73347789
-0.027265232 0.061111748 0.73357719
-0.02626162 0.061902404 0.73303026
-0.068954185 0.0075566471 0.73463887
0.016100435 -0.039777517 0.73524392
0.0066295904 -0.035042048 0.73524392
-0.035042122 -0.014206231 0.73524398
-0.064461417 0.014219433 0.73545587
-0.05775154 0.022721946 0.73516238
-0.027479766 0.062540203 0.73536313
-0.072313771 0.0047574937 0.73630929
-0.063860886 0.016203523 0.73670775
0.02676717 -0.045886546 0.73738921
0.021031348 -0.043018639 0.73738921
-0.007647763 -0.028679073 0.73738921
-0.047798708 -0.0086037517 0.73739016
-0.049020253 0.037486136 0.73864722
-0.035471365 0.054645091 0.73804474
0.035705913 -0.051146299 0.73957515
-0.020265518 -0.023160547 0.73957509
-0.026055666 -0.02026549 0.73957515
-0.045356162 -0.010615259 0.73957509
-0.047286209 -0.0096502304 0.73957515
-0.060796805 -0.0028950572 0.73957604
-0.060796805 -0.0028950572 0.73957604
-0.048325647 0.039627075 0.73993444
-0.041505724 0.048262507 0.73962945
0.056506626 -0.062352121 0.74180287
0.050661113 -0.059429348 0.74180281
-0.064300641 -0.0019484758 0.74180281
-0.070146449 0.00097426772 0.74180377
-0.075991981 0.0038970411 0.74180382
-0.075784802 0.004858017 0.74116254
-0.055610336 0.032195449 0.74213302
-0.041097537 0.051861227 0.74283141
-0.041097537 0.051861227 0.74283141
-0.031289473 0.064534545 0.74265844
-0.070608191 0.013729393 0.74335206
0.054101177 -0.061970413 0.74407357
0.042297285 -0.05606848 0.74407351
0.0088528832 -0.039346129 0.74407262
-0.072936423 0.011827528 0.74454904
-0.068860918 0.016723394 0.74409038
-0.042528514 0.052418858 0.74537176
-0.032613996 0.065227985 0.74519503
0.043702677 -0.057608068 0.7463876
0.011918912 -0.041716158 0.74638754
-0.0039729704 -0.033770233 0.7463876
-0.035756886 -0.017878443 0.74638855
0.049147997 -0.061184227 0.74874812
0.045135919 -0.059178174 0.74874806
-0.013039265 -0.0300906 0.74874812
-0.059178457 -0.0070211291 0.74874914
-0.073220797 2.9802322e-08 0.74874914
-0.077109821 0.010014266 0.7483632
-0.077109821 0.010014266 0.7483632
-0.052193396 0.043159932 0.7489168
-0.038037911 0.061060905 0.74825978
-0.073571533 0.016125292 0.74990904
-0.073571533 0.016125292 0.74990904
0.034441747 -0.054701567 0.75115561
0.034441747 -0.054701567 0.75115561
-0.018233865 -0.028363764 0.75115561
-0.032415763 -0.021272838 0.75115561
-0.058753822 -0.0081039369 0.75115669
0.043996092 -0.06036669 0.75361145
0.029671784 -0.053204566 0.75361151
-0.013301088 -0.031717956 0.75361037
-0.023532793 -0.026602268 0.75361145
-0.056274075 -0.010231674 0.75361145
-0.060306929 0.036797464 0.75336671
-0.041281622 0.06398651 0.75575423
-0.072348066 -0.0031006038 0.75611711
-0.055886414 0.045537114 0.75645262
-0.07794778 0.017668158 0.75750768
-0.07794778 0.017668158 0.75750768
0.038632836 -0.059515417 0.75867307
-0.003132392 -0.03863284 0.75867307
-0.065780528 -0.0073089004 0.75867409
-0.045896117 0.06049946 0.75842267
-0.072428457 0.027291894 0.76001465
-0.066214457 0.035734773 0.76033705
0.031648245 -0.056966782 0.76128292
0.031648245 -0.056966782 0.76128292
-0.035868011 -0.023208708 0.76128304
-0.059076987 -0.011604369 0.76128411
-0.059076987 -0.011604369 0.76128411
-0.091270201 0.0053063929 0.76281363
-0.013857719 -0.03517729 0.76394755
-0.018121634 -0.033045322 0.76394755
-0.030913375 -0.026649475 0.76394755
-0.030913375 -0.026649475 0.76394755
-0.03517729 -0.024517477 0.76394749
-0.073552847 -0.0053299069 0.76394868
-0.082080714 -0.0010659695 0.76394868
0.019390479 -0.052785188 0.76666844
0.019390479 -0.052785188 0.76666844
-0.087080486 0.013975918 0.76614189
-0.087080486 0.013975918 0.76614189
-0.083348684 0.020566583 0.76792419
-0.082038477 0.0215891 0.76720071
-0.048759189 0.066095829 0.76818663
-0.053349245 -0.017420143 0.76944751
-0.053349245 -0.017420143 0.76944751
-0.05121113 0.064286351 0.76964992
-0.080881678 0.026231915 0.77047002
0.011005148 -0.050623655 0.77228534
-0.011005148 -0.039618522 0.77228534
-0.011005148 -0.039618522 0.77228534
-0.068232238 -0.011005223 0.77228659
-0.095976792 0.0088254511 0.77292913
-0.065295629 0.049801767 0.77377987
0.027813284 -0.060076654 0.77518642
-0.010012783 -0.041163683 0.77518642
-0.02336316 -0.034488469 0.77518642
-0.032263409 -0.030038357 0.77518642
-0.10013679 0.0055631697 0.77521044
-0.091683008 0.01788941 0.77652729
-0.08838857 0.022376835 0.77671009
-0.075166404 0.040387958 0.77744496
-0.075166404 0.040387958 0.77744496
-0.067211069 0.050408334 0.77703398
0 -0.047242135 0.77815151
-0.051741414 -0.021371454 0.77815151
-0.051741414 -0.021371454 0.77815151
-0.056240667 -0.019121796 0.77815151
-0.085486226 -0.0044992566 0.77815288
-0.094461381 0.015743613 0.77808559
-0.084513478 0.029298007 0.77864242
-0.061872095 0.05849728 0.77818382
-0.077858597 0.038365096 0.77901393
-0.05800584 -0.01933524 0.78118277
-0.087577865 -0.0045494735 0.7811842
-0.090062447 0.02508074 0.78182536
-0.096259557 0.018335164 0.78325367
-0.07118544 0.051666856 0.78378606
0.027604884 -0.063261211 0.78428125
0.02300407 -0.06096077 0.78428125
-0.041407526 -0.028755218 0.78428257
-0.082815051 -0.0080514252 0.78428257
-0.089716308 -0.0046008229 0.78428262
-0.094310254 0.021852374 0.7842623
-0.084135234 0.035728663 0.78484464
-0.085540622 0.034678668 0.78566962
-0.0081433523 -0.046533436 0.78745174
-0.0081433523 -0.046533436 0.78745174
-0.082597271 -0.0093067288 0.78745317
-0.094230689 -0.003490001 0.78745317
-0.066365384 0.061708182 0.78768563
-0.066365384 0.061708182 0.78768563
-0.10841071 0.0069942772 0.78802395
-0.07602673 0.050294608 0.78897417
-0.07602673 0.050294608 0.78897417
-0.091247432 0.030415833 0.78902161
-0.091247432 0.030415833 0.78902161
-0.080890693 0.044548512 0.78962278
-0.080890693 0.044548512 0.78962278
-0.016474809 -0.043540567 0.79069543
-0.065899566 -0.018828422 0.79069692
-0.0921425 0.031895489 0.79179204
-0.072592221 0.059501827 0.79389775
-0.06547872 -0.020238847 0.79401499
-0.067859761 -0.019048333 0.79401505
-0.09453807 0.032310516 0.79550278
-0.10460211 0.020439565 0.79686403
-0.083950743 0.046772569 0.79613334
-0.019273458 -0.04456985 0.79741162
-0.043365505 -0.032524109 0.79741305
-0.07227584 -0.018068939 0.79741305
-0.089853898 0.042498499 0.79974151
0.013409032 -0.062169135 0.80089092
-0.047541358 -0.031694204 0.80089241
-0.084111631 -0.013409078 0.80089241
-0.02961033 -0.041947931 0.80445451
-0.018733297 -0.048706591 0.80810547
-0.021231068 -0.047457695 0.80810541
-0.021231068 -0.047457695 0.80810541
-0.02372884 -0.046208799 0.80810535
-0.026226614 -0.044959903 0.80810541
-0.028724387 -0.043711007 0.80810541
-0.081178047 -0.017484486 0.80810702
0.0025287687 -0.060690403 0.81184697
-0.025287686 -0.046782225 0.81184697
-0.025287686 -0.046782225 0.81184697
-0.030345226 -0.044253439 0.81184697
-0.0404603 -0.039195925 0.81184697
-0.055632912 -0.031609565 0.81184691
-0.014082913 -0.053771108 0.81568092
-0.049930602 -0.035847574 0.81568253
-0.052491143 -0.034567326 0.81568247
-0.055051688 -0.033287019 0.81568253
-0.057612237 -0.0320068 0.81568253
-0.017072486 -0.055157214 0.82364857
-0.043337852 -0.042024523 0.82364851
-0.048590921 -0.039398044 0.82364857
-0.051217459 -0.038084745 0.82364857
-0.0053216647 -0.062529534 0.82778847
-0.0053216647 -0.062529534 0.82778847
-0.045234151 -0.042573303 0.82778847
-0.053216647 -0.038582057 0.82778847
-0.055877481 -0.037251621 0.82778847
-0.028308377 -0.052572697 0.83203781
-0.021350013 -0.062626719 0.85022086
-0.012690354 0.0019035339 0.65978372
-0.012690354 0.0019035339 0.65978372
-0.013659304 0.007354965 0.65879011
-0.0044525168 0.0009541288 0.66015935
-0.013704786 0.0089256018 0.66049379
-0.0031980141 0.0091179786 0.66107249
-0.012223476 0.012223512 0.66191375
-0.0019310266 0.024942458 0.66199458
0.00032573062 0.010895543 0.66363704
-0.010935409 0.014986407 0.66303891
-0.011181458 -0.00087743998 0.66538835
-0.011181458 -0.00087743998 0.66538835
-0.015653023 0.0097831488 0.66405481
0.0029634386 0.0090534315 0.66555667
0.0029634386 0.0090534315 0.66555667
0.0029634389 0.016954597 0.66555667
-0.0092737442 0.019119669 0.66508508
-0.0067933165 0.022569459 0.66529721
-0.0016398963 0.028967153 0.66493332
0.003968765 0.013063848 0.66628838
0.003968765 0.030923299 0.66628838
-0.0026947074 -0.0065126917 0.66923755
-0.0067367693 -0.0044916472 0.66923755
-0.018547691 0.0013488531 0.66941714
-0.022594217 0.0033721328 0.66941714
0.0070431721 0.008887168 0.66852576
0.0084371716 0.021091625 0.66954041
0.0020128659 0.037238985 0.66858053
0.0020128659 0.037238985 0.66858053
0.009174455 -0.012743726 0.67067862
0.0034058832 -0.010217637 0.67104816
0.0034058832 -0.010217637 0.67104816
0.010920088 -0.004947491 0.67134726
0.010920088 0.00085302442 0.67134732
0.010920098 0.027011953 0.67134738
-0.0050818305 0.029472634 0.67016977
0.0094936406 0.037126929 0.67030954
0.0040613017 0.041289896 0.6700117
0.010920109 0.047029547 0.67134756
-0.02301397 0.0089764297 0.67328072
-0.0095939478 0.025355428 0.67203927
0.01309176 0.0270418 0.67292786
0.013091773 0.036974207 0.67292804
0.014561243 0.036923163 0.67399734
0.013091773 0.052992411 0.67292804
-0.023633951 0.0020853579 0.6744135
0.0031350709 0.044723496 0.6748668
-0.0045979377 -0.0084861964 0.67732739
0.017560843 -0.0089560077 0.67618006
-0.0098662488 -0.0056378245 0.67673492
-0.016992103 -0.0023605328 0.67752492
-0.024837414 0.001419276 0.67791992
0.018899683 0.0030025169 0.67715466
0.018899683 0.0030025169 0.67715466
0.017560896 0.017034099 0.6761806
0.017560896 0.031082802 0.6761806
0.017560896 0.040916882 0.6761806
0.018899718 0.040974945 0.67715502
0.0014153314 0.044937819 0.67744315
0.018931895 0.047015779 0.67717838
0.008462565 0.053596258 0.67685121
0.018899718 0.052984975 0.67715502
0.0091856085 0.054886952 0.67721105
0.014318487 0.061033122 0.67661232
0.0071461545 -0.0150069 0.67912102
-0.015721539 -0.00357306 0.67912096
0.021031015 0.025129609 0.67870581
-0.011093435 0.030416265 0.67937905
0.022209974 0.058928102 0.67956412
0.025009234 -0.01902828 0.68160093
-0.0054179491 -0.0093888789 0.6809575
-0.017312866 -0.0033669472 0.68075156
-0.03065527 0.0067588291 0.68141603
0.0032478278 0.050665196 0.68092155
0.023402041 0.050943147 0.6804316
0.011607303 0.062389255 0.68173826
0.016569356 0.067718238 0.6805191
-0.027681829 0.011655509 0.68246555
-0.01385172 0.029890567 0.68260288
-0.0094858631 0.035754442 0.68275833
-0.0036490622 0.043424949 0.68278986
0.00074058422 -0.014071107 0.68539047
0.029123627 -0.012994587 0.68459535
-0.014071101 -0.0066652596 0.68539041
-0.014071101 -0.0066652596 0.68539041
0.029123627 -0.0031334758 0.68459535
0.029123671 0.012994643 0.6845957
0.029123671 0.012994643 0.6845957
0.030384811 0.023159184 0.68551326
0.029123673 0.029030744 0.68459564
0.0034505818 0.054976195 0.68514937
0.031258099 -0.02884005 0.6862731
0.031258099 -0.02884005 0.6862731
0.025364228 -0.026856214 0.68669945
0.032517895 -0.02504199 0.68706548
0.017158153 -0.022753194 0.68669951
0.032517895 -0.019061811 0.68706554
-0.0074600661 -0.010444075 0.68669951
0.031233372 -0.0091097206 0.686131
-0.031332381 0.0014920533 0.68670011
0.032517895 0.00093441457 0.6870656
0.032517895 0.0071014985 0.68706554
-0.0071009686 0.04297705 0.68704379
0.032517999 0.055036396 0.68706614
0.0064791124 0.060812168 0.68710494
0.036450144 -0.030944645 0.68992758
0.015461776 -0.022629023 0.68870199
-0.0097696176 -0.0097695887 0.68802786
0.033814464 -0.006950736 0.68800938
-0.036504816 0.0062941713 0.68893212
0.033814464 0.014840811 0.68800938
-0.01545695 0.033551738 0.68862438
-0.01545695 0.033551738 0.68862438
0.036450144 0.03512127 0.68992758
-0.0071902368 0.045030937 0.6893121
0.036450144 0.044993177 0.68992758
0.037341051 -0.032959186 0.69057566
0.003051044 -0.017162099 0.69074434
0.003051044 -0.017162099 0.69074434
-0.020594545 -0.0053392947 0.69074428
0.03869028 -0.00287297 0.69155788
0.037341051 0.0049534142 0.69057566
-0.029514989 0.017301789 0.69087356
0.03869028 0.017046425 0.69155788
0.03869028 0.038881145 0.69155788
-0.0025519035 0.053061776 0.6913594
0.0083866101 0.066712916 0.69066179
0.035351653 -0.033814609 0.69213331
0.014712694 -0.024004877 0.69354278
0.040971179 -0.011015314 0.69321775
0.040971182 -0.0050245179 0.69321775
-0.037416033 0.0023143291 0.69283831
-0.0027027181 0.054432407 0.69299805
0.0015471735 0.060339838 0.69335788
0.043290585 -0.037049875 0.6949057
0.026529605 -0.030430973 0.69497442
0.043290589 -0.029054891 0.6949057
0.043290585 -0.012869969 0.69490576
-0.0312113 -0.001560539 0.69497442
0.044702556 0.0050976872 0.69593358
0.044702556 0.01509694 0.69593358
-0.03198155 0.017940849 0.69491535
0.044702556 0.020978868 0.69593358
-0.023117047 0.029350122 0.6947121
-0.023117047 0.029350122 0.6947121
0.04329066 0.029054988 0.694906
0.04329066 0.029054988 0.694906
0.04329066 0.033052303 0.694906
-0.019099135 0.034689158 0.69479531
0.030388899 -0.033153176 0.69716632
0.045652889 -0.020858616 0.69662488
-0.036703795 0.00039316714 0.69716632
0.04661034 0.010862581 0.69732189
-0.037540715 0.013039932 0.6973983
-0.032723088 0.01892487 0.69695795
-0.015345983 0.041314676 0.69658482
0.04661034 0.040882826 0.69732177
0.00078830105 0.062931135 0.69710386
0.049035728 -0.039068129 0.69908684
0.035938378 -0.036736995 0.699404
-0.024757465 -0.0063889623 0.69940335
0.049035728 0.0010965131 0.69908684
0.049035728 0.0010965131 0.69908684
-0.043126054 0.0027952194 0.699404
0.04903581 0.014949735 0.69908726
0.04757484 0.021012217 0.69802392
0.04757484 0.040835068 0.69802392
0.049035896 0.043054912 0.6990875
-0.0051827631 0.05700551 0.69907928
0.0010614989 0.065075323 0.69897068
0.051177274 -0.044478446 0.70065707
0.033807363 -0.03622216 0.70092654
0.052505512 -0.027060524 0.70161223
0.051007919 -0.017069317 0.7005223
-0.036334194 0.01857084 0.7015276
0.052505512 0.018982783 0.70161223
0.052505512 0.035138324 0.70161217
-0.010504407 0.052522063 0.70167351
0.0089248167 -0.024340421 0.70247406
0.053513989 0.0028378665 0.70234632
-0.042316314 0.012206644 0.70306033
-0.042316314 0.012206644 0.70306033
-0.037025072 0.019122213 0.70304906
-0.029306911 0.029306889 0.70313406
0.053513989 0.04094632 0.70234632
0.039003856 -0.040237278 0.70484519
0.025047299 -0.03325896 0.70484519
0.057104923 -0.011092156 0.70495957
0.05710502 0.023005642 0.70495993
-0.016511101 0.048707783 0.70590419
-0.011068903 0.054522052 0.70453572
0.043222595 -0.043222576 0.70726794
0.03158563 -0.037404031 0.70726722
0.013299213 -0.028260797 0.70726717
-0.0049872049 -0.019117624 0.70726722
0.060791004 -0.0012491047 0.70764202
-0.048127193 0.008297801 0.70692402
-0.035525057 0.023958743 0.70605123
-0.031492572 0.029835105 0.70667595
0.054472435 -0.049444169 0.70891768
0.025141124 -0.034778535 0.70891774
0.06294322 -0.034828573 0.70920873
0.061862934 -0.02487056 0.70842236
0.061862934 -0.017137691 0.7084223
0.061862934 -0.017137691 0.7084223
-0.012570562 -0.015922695 0.70891768
0.06294322 -0.0088120252 0.70920873
0.06294322 -0.0071335286 0.70920873
0.06294322 -0.0071335286 0.70920873
0.06294322 0.0029373765 0.70920873
0.06294322 0.0048256591 0.70920873
-0.047384836 0.01132147 0.70906842
0.06294322 0.028953895 0.70920873
0.064580373 -0.04094258 0.71039987
0.066234954 -0.030994564 0.71160436
-0.001689975 -0.021969676 0.71059555
-0.0202797 -0.012674809 0.71059561
-0.043094441 -0.0012674928 0.71059597
0.066234954 0.0089162588 0.71160436
0.066234954 0.013162091 0.71160442
0.029821882 -0.038342386 0.71230149
0.0059643765 -0.026413649 0.71230149
0.0042602685 -0.025561601 0.71230155
0.067349404 -0.019181773 0.7124151
0.067349404 -0.019181773 0.7124151
0.068472952 0.0049214959 0.71323299
0.068472952 0.013266668 0.71323299
-0.032499574 0.034639239 0.71307367
-0.018823003 0.052620381 0.71315551
-0.018823003 0.052620381 0.71315551
0.063583702 -0.055850506 0.71403623
0.071322165 -0.054895759 0.71530646
0.040985517 -0.044870332 0.71491802
0.014731243 -0.032062113 0.71579969
-0.021142667 -0.013806254 0.71491802
0.071322165 -0.010806225 0.71530646
-0.041243482 -0.0034369826 0.71403629
0.06960547 -0.0030076355 0.71405739
-0.049115479 0.00028644007 0.71462435
0.071322165 0.0090772659 0.71530646
-0.03366784 0.034964308 0.71501124
0.059430417 -0.055060506 0.71759421
0.073057607 -0.044791266 0.71656978
0.073057607 -0.038703129 0.71656978
0.073057607 -0.036963671 0.71656978
0.074226797 -0.024887785 0.71742034
-0.020975441 -0.01485759 0.71759421
-0.03495907 -0.0078657866 0.71759421
-0.057237566 0.0065533668 0.71756327
0.073057607 0.024787441 0.71656978
-0.024363834 0.048727661 0.71666723
0.076594099 -0.062948003 0.71914303
0.075405777 -0.053047076 0.71827853
0.076594099 -0.047100976 0.71914303
0.075405777 -0.024989098 0.71827853
0.076594383 -0.018928483 0.71914375
-0.025564611 -0.013223052 0.71941972
0.075405777 -0.012713745 0.71827853
-0.044958454 -0.0035261512 0.71941972
0.076594383 0.0048422068 0.71914375
-0.056350879 0.009246707 0.71916485
0.076594383 0.015186839 0.71914381
-0.040970072 0.029515207 0.71930575
-0.018981608 0.058708519 0.71973455
-0.01142445 0.067667902 0.7187596
-0.01142445 0.067667902 0.7187596
0.080218658 -0.05682154 0.7217809
0.055132378 -0.054243118 0.72127718
0.044461597 -0.048907757 0.72127718
0.023120029 -0.038236946 0.72127712
0.079000719 -0.03506209 0.72089481
0.079000719 -0.03506209 0.72089481
0.0088923192 -0.031123132 0.72127712
0.079000719 -0.027073249 0.72089481
-0.049796987 -0.0017784536 0.72127712
0.077792764 0.014807165 0.72001612
0.077792764 0.019006193 0.72001612
-0.036958277 0.036957279 0.72159505
-0.015998889 0.0639956 0.72117949
-0.014616138 0.065105528 0.72044766
0.07804431 -0.066382468 0.72316724
0.082685634 -0.016851678 0.72357666
0.082685634 -0.011234462 0.72357666
-0.043955993 -0.005382359 0.72316718
0.08144702 0.0049226284 0.72267503
0.082685634 0.01887393 0.72357661
0.082685634 0.01887393 0.72357661
-0.047393087 0.024143696 0.72247875
-0.043739609 0.028564632 0.72210121
-0.036742255 0.038534582 0.72294796
-0.036742255 0.038534582 0.72294796
-0.027283482 0.050540075 0.72255468
-0.027283482 0.050540075 0.72255468
0.066972159 -0.061541945 0.72509098
0.083934627 -0.039259717 0.72448587
0.010860309 -0.033485949 0.72509009
-0.021720618 -0.017195433 0.72509003
-0.03258105 -0.011765361 0.72509092
-0.041631341 -0.007240206 0.72509098
-0.047061514 -0.004525125 0.72509092
-0.052491691 -0.0018100441 0.72509092
-0.063182637 0.005415678 0.72450674
-0.049779654 0.023532212 0.72510433
-0.033472963 0.044783115 0.72500533
0.052961923 -0.055244759 0.72704828
0.037438601 -0.047483057 0.72704828
0.08710441 -0.026906274 0.72679263
0.08710441 -0.026906274 0.72679263
-0.0082182297 -0.024654657 0.72704822
-0.0082182297 -0.024654657 0.72704822
0.087104402 -0.0031922311 0.72679269
0.087104402 -0.0031922311 0.72679269
-0.063006669 0.0027394295 0.72704911
-0.048988394 0.027011484 0.72765768
-0.035580702 0.043791652 0.72685242
-0.023717355 0.059293419 0.72682351
0.029484615 -0.044226885 0.72904181
0.089036368 -0.045206591 0.72819841
0.090339258 -0.044708684 0.72914684
0.027641827 -0.043305516 0.72904176
-0.031327404 -0.013820916 0.72904181
-0.061366674 0.012457252 0.72938097
-0.054838546 0.020736545 0.72910285
-0.054838546 0.020736545 0.72910285
-0.0478094 0.02942118 0.72856313
-0.04336302 0.035982132 0.72933716
-0.027132986 0.05656372 0.72864342
0.013017235 -0.036727175 0.73107171
-0.021385457 -0.019525826 0.73107177
-0.026964273 -0.016736418 0.73107171
-0.068983741 0.0046610832 0.73165363
0.091653354 0.008795023 0.73010337
0.058178674 -0.060055375 0.73313916
0.037534628 -0.049733371 0.73313904
-0.0018767241 -0.030027568 0.73313814
-0.0037534481 -0.029089212 0.7331382
-0.01876724 -0.021582305 0.7331382
-0.066741385 0.0094002485 0.73353839
-0.05451398 0.025377214 0.73350859
-0.036692731 0.048923641 0.73373622
-0.036692731 0.048923641 0.73373622
0.025571277 -0.044512928 0.73524392
-0.0047354219 -0.029359579 0.73524392
-0.061104998 0.01847288 0.73530936
-0.044910461 0.039236501 0.73485452
-0.034156647 0.054081351 0.73565716
-0.026973814 0.062937006 0.73508584
0.040150754 -0.05257836 0.73738921
-0.015295526 -0.024855196 0.73738921
-0.032502994 -0.016251504 0.73738921
-0.047798708 -0.0086037517 0.73739016
-0.066918194 0.0009559691 0.73739016
-0.066918194 0.0009559691 0.73739016
-0.025356408 0.067455471 0.7375952
0.066586703 -0.066586673 0.73957515
0.056936454 -0.061761558 0.73957515
0.035705913 -0.051146299 0.73957515
-0.058866747 -0.0038600862 0.7395761
-0.07062082 0.0091272295 0.73855984
-0.049020253 0.037486136 0.73864722
0.056506626 -0.062352121 0.74180287
0.050661113 -0.059429348 0.74180281
0.050661113 -0.059429348 0.74180281
0.011691025 -0.039944321 0.74180287
-0.007794017 -0.030201763 0.74180287
-0.029227564 -0.019485027 0.74180281
-0.029227564 -0.019485027 0.74180281
-0.046764102 -0.010716766 0.74180281
-0.072094955 0.0019485056 0.74180377
-0.046194799 0.046194792 0.74388295
-0.041097537 0.051861227 0.74283141
-0.002950961 -0.033444226 0.74407262
-0.002950961 -0.033444226 0.74407262
-0.068860918 0.016723394 0.74409038
-0.063033871 0.024622619 0.74437445
-0.042528514 0.052418858 0.74537176
-0.034482572 0.062068671 0.74444979
0.045689158 -0.05860129 0.74638754
0.045689158 -0.05860129 0.74638754
0.011918912 -0.041716158 0.74638754
-0.069527276 -0.000993222 0.74638855
-0.077664897 0.0079656839 0.74698168
-0.051761985 0.041807801 0.74691385
-0.051761985 0.041807801 0.74691385
-0.047687273 0.046693802 0.74644601
0.05115404 -0.062187254 0.74874812
0.05115404 -0.062187254 0.74874812
-0.011033224 -0.031093597 0.74874806
-0.037111755 -0.018054336 0.74874812
-0.059178457 -0.0070211291 0.74874914
-0.070596218 0.018524468 0.74834621
-0.068221308 0.02207166 0.74880469
-0.03725091 0.063427269 0.74965608
-0.03725091 0.063427269 0.74965608
0.036467731 -0.055714577 0.75115561
-0.046597656 -0.014181882 0.75115561
-0.060971417 0.034550488 0.75192761
-0.0010231651 -0.037857085 0.75361145
-0.0071621547 -0.034787565 0.75361139
-0.054227743 -0.011254787 0.75361145
-0.08083038 0.0020463765 0.75361252
-0.041281622 0.06398651 0.75575423
-0.024804942 -0.026871979 0.75611597
-0.024804942 -0.026871979 0.75611597
-0.043408841 -0.017570257 0.75611711
-0.079141185 0.014999822 0.75635195
-0.076704025 0.018657744 0.75684065
0.04280936 -0.061603695 0.75867301
0.019838484 -0.050118268 0.75867301
0.011485437 -0.04594174 0.75867301
-0.034456313 -0.022970855 0.75867301
-0.062555239 0.038575768 0.75830042
-0.052088685 0.052088737 0.75810397
-0.031648245 -0.025318593 0.76128298
-0.054857202 -0.013714254 0.76128405
-0.069626451 -0.0063296854 0.76128411
0.033045333 -0.058628827 0.76394749
0.03517729 -0.059694797 0.76394755
0.03517729 -0.059694797 0.76394755
-0.086844474 0.010590822 0.76228184
-0.074987583 0.02892381 0.76522052
-0.049095698 0.061903268 0.76426601
-0.064634927 -0.010772496 0.76666844
-0.062480435 -0.011849731 0.76666844
0.025041366 -0.056615204 0.76944625
0.0076212855 -0.047905236 0.76944625
0.0076212855 -0.047905236 0.76944625
-0.009798795 -0.03919515 0.76944625
-0.031573895 -0.028307617 0.76944625
-0.038106602 -0.025041491 0.76944751
-0.051171724 -0.018508881 0.76944751
-0.072946921 -0.0076212585 0.76944745
-0.073751919 0.033622235 0.76844007
-0.064117186 0.046729505 0.76895785
-0.074835353 -0.0077036321 0.77228659
-0.085840553 -0.0022010207 0.77228659
-0.094099946 0.012177676 0.77386504
-0.089477181 0.017674536 0.77328521
-0.062726133 0.051721573 0.77227169
0.021138096 -0.056739092 0.77518642
0.018913034 -0.055626541 0.77518636
-0.063414589 -0.014462948 0.77518767
-0.061189517 -0.015575498 0.77518767
-0.078990102 -0.0066752136 0.77518767
-0.092340536 2.9802322e-08 0.77518767
-0.10083821 0.0050132275 0.77559543
-0.096864119 0.010020435 0.7753914
-0.087574944 0.021062315 0.77422369
-0.08702001 0.02342844 0.7759372
-0.079091027 0.033418745 0.77553082
-0.085090064 0.026870579 0.77689439
-0.031494774 -0.031494766 0.77815151
-0.047242161 -0.023621053 0.77815151
-0.056240667 -0.019121796 0.77815151
-0.099178091 0.01014325 0.77868521
-0.085303113 -0.0056868494 0.78118408
-0.077230334 0.04088667 0.78078955
-0.077230334 0.04088667 0.78078955
-0.083337262 0.034248233 0.7822057
0.027604884 -0.063261211 0.78428125
-0.018403254 -0.040257096 0.78428113
-0.055210035 -0.021853924 0.78428257
-0.070501834 0.05432111 0.78562456
0.01512337 -0.058166802 0.78745174
-0.010470025 -0.045370072 0.78745174
-0.040716764 -0.030246705 0.78745174
-0.050023697 -0.025593489 0.78745311
-0.066310488 -0.017450124 0.78745311
-0.073290534 -0.013960093 0.78745317
-0.094230689 -0.003490001 0.78745317
-0.10353743 0.0011633635 0.78745317
-0.098633952 0.0185664 0.78674281
-0.10841071 0.0069942772 0.78802395
-0.07602673 0.050294608 0.78897417
0.018828355 -0.061192125 0.79069549
-0.023535443 -0.040010244 0.79069543
-0.084728017 -0.009414196 0.79069686
-0.095618077 0.02715084 0.79158831
-0.078839414 0.048245072 0.79067993
-0.097092509 0.026049256 0.79245377
-0.083122529 0.045123726 0.79327691
-0.074690163 0.055721223 0.79281664
-0.066284828 0.066284865 0.7923578
0.0059526106 -0.055954516 0.79401505
-0.02261992 -0.041668266 0.79401505
-0.051192455 -0.027381986 0.79401505
-0.079765387 -0.013095826 0.79401648
-0.096432775 -0.0047620833 0.79401648
0.012045973 -0.060229838 0.79741305
-0.0048183892 -0.051797688 0.79741311
-0.065048255 -0.021682709 0.79741305
-0.071184471 0.06515193 0.79787636
-0.081220649 0.053338945 0.7992602
-0.076915763 0.058745041 0.79902089
0.013409032 -0.062169135 0.80089092
-0.049979378 -0.030475229 0.80089241
-0.09228652 0.043067038 0.80366343
-0.074810363 0.064999163 0.80267656
-0.012337638 -0.050584257 0.80445445
-0.056753427 -0.028376698 0.80445606
-0.088831455 -0.012337685 0.804456
-0.086536527 0.051921904 0.80505139
-0.07618247 -0.019982249 0.80810696
-0.065747991 -0.026552051 0.81184697
-0.065747991 -0.026552051 0.81184697
-0.083096303 0.061692744 0.81055546
-0.018151792 -0.05315879 0.81961399
-0.025931131 -0.04926911 0.81961399
-0.017072486 -0.055157214 0.82364857
-0.017072486 -0.055157214 0.82364857
-0.017072486 -0.055157214 0.82364857
-0.043337852 -0.042024523 0.82364851
-0.040711313 -0.043337822 0.82364851
-0.051217459 -0.038084745 0.82364857
-0.027321678 -0.054643333 0.83639932
-0.01403725 -0.064571291 0.84548676
-0.030881949 -0.056148976 0.84548676
-0.016497459 0.0038071275 0.65978366
-0.0065047443 0.0059839552 0.6586659
-0.010440107 0.01418979 0.66152894
0.00032573062 0.01805081 0.66363704
0.0054964563 -0.0020395219 0.66740006
0.0054964595 0.017983422 0.66740012
0.0054964591 0.021979824 0.66740012
-0.0040096464 0.028735816 0.66793329
-0.0019231219 0.029914863 0.66631109
-0.0019231219 0.029914863 0.66631109
0.0074929432 -0.012261182 0.67104816
-0.0017351105 -0.008729348 0.67404091
-0.011354543 -0.003440395 0.67271566
-0.022152137 0.0015929084 0.6737265
0.014318968 0.017999172 0.67382115
0.018230259 -0.0059878207 0.67666733
0.02162046 -0.0059851389 0.67913467
-0.011623206 0.0271198 0.67665899
0.018230308 0.050015632 0.67666781
