# .PCD v0.7 - Point Cloud Data file format
VERSION 0.7
FIELDS x y z
SIZE 4 4 4
TYPE F F F
COUNT 1 1 1
WIDTH 1322
HEIGHT 1
VIEWPOINT 0 0 0 1 0 0 0
POINTS 1322
DATA ascii
0.002236523 -0.0067095459 0.68657905
0.002236523 -0.0074550807 0.68657899
0.002236523 -0.0082005858 0.68657899
0.002236523 -0.0089460909 0.68657899
0.002236523 -0.009691596 0.68657899
0.002236523 -0.010437101 0.68657899
0.002236523 -0.011182576 0.68657899
0.002236523 -0.011928111 0.68657899
0.002236523 -0.012673616 0.68657905
0.002236523 -0.013419122 0.68657899
0.002236523 -0.014164627 0.68657905
0.002236523 -0.014910102 0.68657899
0.002236523 -0.015655637 0.68657899
0.002236523 -0.016401142 0.68657905
0.002236523 -0.017146647 0.68657899
0.002236523 -0.017892152 0.68657905
0.002236523 -0.018637627 0.68657899
0.002236523 -0.019383162 0.68657905
0.002236523 -0.020128667 0.68657899
0.002236523 -0.020874202 0.68657899
0.002236523 -0.021619678 0.68657899
0.002236523 -0.022365183 0.68657899
0.002236523 -0.023110688 0.68657899
0.002236523 -0.023856223 0.68657905
0.002236523 -0.024601728 0.68657899
0.002236523 -0.025347233 0.68657905
0.002236523 -0.026092738 0.68657905
0.002236523 -0.026838243 0.68657899
0.002236523 -0.027583748 0.68657905
0.002236523 -0.028329283 0.68657911
0.002236523 -0.029074788 0.68657905
0.002236523 -0.029820263 0.68657911
0.002236523 -0.030565798 0.68657905
0.002236523 -0.031311303 0.68657905
0.002236523 -0.032056838 0.68657905
0.002236523 -0.032802314 0.68657899
0.002236523 -0.033547789 0.68657899
0.002236523 -0.034293324 0.68657899
0.002236523 -0.035038829 0.68657905
0.002236523 -0.035784364 0.68657899
0.002236523 -0.036529839 0.68657905
0.0029744853 0.037924677 0.68612361
0.0029744853 0.037181079 0.68612361
0.0029744853 0.036437452 0.68612361
0.0029744853 0.035693854 0.68612361
0.0029744853 0.034950197 0.68612367
0.0029744853 0.034206629 0.68612361
0.0029744853 0.033462942 0.68612361
0.0029744853 0.032719374 0.68612361
0.0029744853 0.031975716 0.68612361
0.0029744853 0.031232148 0.68612361
0.0029744853 0.030488521 0.68612361
0.0029744853 0.029744864 0.68612361
0.0029744853 0.029001236 0.68612361
0.0029744853 0.028257638 0.68612361
0.0029744853 0.027514011 0.68612361
0.0029744853 0.026770383 0.68612361
0.0029744853 0.026026785 0.68612361
0.0029744853 0.025283128 0.68612361
0.0029744853 0.02453956 0.68612361
0.0029744853 0.023795903 0.68612361
0.0029744853 0.023052305 0.68612361
0.0029744853 0.022308677 0.68612361
0.0029744853 0.02156502 0.68612361
0.0029744853 0.020821422 0.68612361
0.0029744853 0.020077795 0.68612361
0.0029744853 0.019334167 0.68612361
0.0029744853 0.01859054 0.68612361
0.0029744853 0.017846942 0.68612361
0.0029744853 0.017103285 0.68612361
0.0029744853 0.016359687 0.68612361
0.0029744853 0.015616059 0.68612361
0.0029744853 0.014872432 0.68612361
0.0029744853 0.014128804 0.68612361
0.0029744853 0.013385177 0.68612361
0.0029744853 0.012641579 0.68612361
0.0029744853 0.011897922 0.68612361
0.0029744853 0.011154354 0.68612361
0.0029744853 0.010410666 0.68612367
0.0029744853 0.0096670985 0.68612361
0.0029744853 0.0089234412 0.68612361
0.0029744853 0.0081798732 0.68612361
0.0029744853 0.0074362159 0.68612361
0.0029744853 0.0066926181 0.68612361
0.0029744853 0.0059489906 0.68612361
0.0029744853 0.0052053928 0.68612361
0.0029744853 0.0044617355 0.68612361
0.0029744853 0.0037181377 0.68612361
0.0029744853 0.0029745102 0.68612361
0.0029744853 0.0022308826 0.68612361
0.0029744853 0.0014872551 0.68612361
0.0029744853 0.00074362755 0.68612361
0.0029744853 2.9802322e-08 0.68612361
0.0029744853 -0.00074362755 0.68612361
0.0029744853 -0.0014872253 0.68612361
0.0029744853 -0.0022308528 0.68612361
0.0029744853 -0.0029744506 0.68612361
0.0029744853 -0.0037180781 0.68612361
0.0029744853 -0.0044617057 0.68612361
0.0029744853 -0.0052053332 0.68612361
0.0029744853 -0.005948931 0.68612361
0.0029744853 -0.0066925883 0.68612361
0.0029744853 -0.0074362159 0.68612361
0.0029744853 -0.0081798136 0.68612361
0.0029744853 -0.0089234412 0.68612361
0.0029744853 -0.0096670687 0.68612361
0.0029744853 -0.010410666 0.68612361
0.0029744853 -0.011154294 0.68612361
0.0029744853 -0.011897922 0.68612361
0.0029744853 -0.012641549 0.68612361
0.0029744853 -0.013385147 0.68612355
0.0029744853 -0.014128774 0.68612361
0.0029744853 -0.014872402 0.68612361
0.0029744853 -0.01561603 0.68612361
0.0029744853 -0.016359657 0.68612361
0.0029744853 -0.017103285 0.68612361
0.0029744853 -0.017846882 0.68612361
0.0029744853 -0.01859054 0.68612361
0.0029744853 -0.019334137 0.68612361
0.0029744853 -0.020077765 0.68612361
0.0029744853 -0.020821393 0.68612361
0.0029744853 -0.02156502 0.68612361
0.0029744853 -0.022308618 0.68612361
0.0029744853 -0.023052245 0.68612361
0.0029744853 -0.023795843 0.68612361
0.0029744853 -0.0245395 0.68612361
0.0029744853 -0.025283098 0.68612361
0.0029744853 -0.026026726 0.68612367
0.0029744853 -0.026770383 0.68612361
0.0029744853 -0.027513981 0.68612361
0.0029744853 -0.028257608 0.68612361
0.0029744853 -0.029001176 0.68612355
0.0029744853 -0.029744864 0.68612367
0.0029744853 -0.030488461 0.68612361
0.0029744853 -0.031232089 0.68612367
0.0029744853 -0.031975657 0.68612361
0.0029744853 -0.032719344 0.68612361
0.0029744853 -0.033462912 0.68612361
0.0029744853 -0.034206539 0.68612361
0.0029744853 -0.034950167 0.68612361
0.0029744853 -0.035693794 0.68612361
0.0029744853 -0.036437422 0.68612361
0.0037087221 0.037828982 0.6856705
0.0037087221 0.037087232 0.6856705
0.0037087221 0.036345482 0.6856705
0.0037087221 0.035603791 0.6856705
0.0037087221 0.034862012 0.6856705
0.0037087221 0.034120232 0.6856705
0.0037087221 0.033378512 0.6856705
0.0037087221 0.032636791 0.6856705
0.0037087221 0.031895012 0.6856705
0.0037087221 0.031153321 0.6856705
0.0037087221 0.030411541 0.6856705
0.0037087221 0.029669791 0.6856705
0.0037087221 0.028928041 0.6856705
0.0037087221 0.028186321 0.6856705
0.0037087221 0.027444571 0.6856705
0.0037087221 0.026702821 0.6856705
0.0037087221 0.025961101 0.6856705
0.0037087221 0.025219351 0.6856705
0.0037087221 0.024477571 0.6856705
0.0037087221 0.023735851 0.6856705
0.0037087221 0.022994101 0.6856705
0.0037087221 0.022252351 0.6856705
0.0037087221 0.021510631 0.6856705
0.0037087221 0.020768851 0.6856705
0.0037087221 0.020027101 0.6856705
0.0037087221 0.019285351 0.6856705
0.0037087221 0.018543631 0.6856705
0.0037087221 0.017801881 0.6856705
0.0037087221 0.017060101 0.6856705
0.0037087221 0.016318411 0.6856705
0.0037087221 0.015576631 0.6856705
0.0037087221 0.014834881 0.6856705
0.0037087221 0.014093161 0.68567044
0.0037087221 0.013351411 0.6856705
0.0037087221 0.012609661 0.6856705
0.0037087221 0.01186794 0.6856705
0.0037087221 0.01112619 0.6856705
0.0037087221 0.01038444 0.6856705
0.0037087221 0.0096426904 0.6856705
0.0037087221 0.0089009106 0.6856705
0.0037087221 0.0081591904 0.6856705
0.0037087221 0.0074174702 0.6856705
0.0037087221 0.00667575 0.6856705
0.0037087221 0.0059339702 0.6856705
0.0037087221 0.0051921904 0.6856705
0.0037087221 0.0044504702 0.6856705
0.0037087221 0.00370875 0.6856705
0.0037087221 0.0029669702 0.6856705
0.0037087221 0.0022252798 0.6856705
0.0037087221 0.0014835 0.6856705
0.0037087221 0.00074175 0.6856705
0.0037087221 2.9802322e-08 0.6856705
0.0037087221 -0.0007417202 0.6856705
0.0037087221 -0.0014834702 0.6856705
0.0037087221 -0.0022252202 0.6856705
0.0037087221 -0.0029669404 0.6856705
0.0037087221 -0.0037086904 0.6856705
0.0037087221 -0.0044504404 0.6856705
0.0037087221 -0.0051921606 0.6856705
0.0037087221 -0.0059339404 0.6856705
0.0037087221 -0.0066756904 0.6856705
0.0037087221 -0.0074174106 0.6856705
0.0037087221 -0.0081591904 0.6856705
0.0037087221 -0.0089009404 0.6856705
0.0037087221 -0.0096426606 0.6856705
0.0037087221 -0.010384411 0.6856705
0.0037087221 -0.011126161 0.6856705
0.0037087221 -0.011867881 0.6856705
0.0037087221 -0.012609631 0.6856705
0.0037087221 -0.013351411 0.6856705
0.0037087221 -0.014093131 0.6856705
0.0037087221 -0.014834851 0.6856705
0.0037087221 -0.015576631 0.6856705
0.0037087221 -0.016318351 0.68567044
0.0037087221 -0.017060101 0.6856705
0.0037087221 -0.017801851 0.6856705
0.0037087221 -0.018543571 0.6856705
0.0037087221 -0.019285351 0.6856705
0.0037087221 -0.020027101 0.68567055
0.0037087221 -0.020768851 0.6856705
0.0037087221 -0.021510541 0.6856705
0.0037087221 -0.022252291 0.6856705
0.0037087221 -0.022994071 0.6856705
0.0037087221 -0.023735821 0.6856705
0.0037087221 -0.024477541 0.6856705
0.0037087221 -0.025219291 0.6856705
0.0037087221 -0.025961012 0.6856705
0.0037087221 -0.026702762 0.6856705
0.0037087221 -0.027444541 0.68567055
0.0037087221 -0.028186262 0.6856705
0.0037087221 -0.028927982 0.6856705
0.0037087221 -0.029669762 0.6856705
0.0037087221 -0.030411482 0.6856705
0.0037087221 -0.031153232 0.6856705
0.0037087221 -0.031894982 0.6856705
0.0037087221 -0.032636732 0.6856705
0.0037087221 -0.033378482 0.6856705
0.0037087221 -0.034120202 0.6856705
0.0037087221 -0.034861982 0.68567055
0.0037087221 -0.035603702 0.6856705
0.0037087221 -0.036345452 0.6856705
0.0044392617 0.037733763 0.68521965
0.0044392617 0.036993861 0.68521965
0.0044392617 0.036253989 0.68521965
0.0044392617 0.035514116 0.68521965
0.0044392617 0.034774244 0.68521965
0.0044392617 0.034034342 0.68521965
0.0044392617 0.033294499 0.68521965
0.0044392617 0.032554597 0.68521965
0.0044392617 0.031814724 0.68521965
0.0044392617 0.031074852 0.68521965
0.0044392617 0.030334979 0.68521965
0.0044392617 0.029595107 0.68521965
0.0044392617 0.028855234 0.68521965
0.0044392617 0.028115362 0.68521965
0.0044392617 0.027375489 0.68521965
0.0044392617 0.026635617 0.68521965
0.0044392617 0.025895715 0.68521965
0.0044392617 0.025155842 0.68521965
0.0044392617 0.02441594 0.68521965
0.0044392617 0.023676097 0.68521965
0.0044392617 0.022936225 0.68521965
0.0044392617 0.022196323 0.68521965
0.0044392617 0.02145642 0.68521965
0.0044392617 0.020716548 0.68521965
0.0044392617 0.019976676 0.68521965
0.0044392617 0.019236833 0.68521965
0.0044392617 0.018496931 0.68521965
0.0044392617 0.017757058 0.68521971
0.0044392617 0.017017156 0.68521965
0.0044392617 0.016277283 0.68521965
0.0044392617 0.015537411 0.68521971
0.0044392617 0.014797539 0.68521971
0.0044392617 0.014057666 0.68521971
0.0044392617 0.013317794 0.68521965
0.0044392617 0.012577921 0.68521965
0.0044392617 0.011838049 0.68521965
0.0044392617 0.011098146 0.68521965
0.0044392617 0.010358304 0.68521965
0.0044392617 0.0096184015 0.68521965
0.0044392617 0.0088785291 0.68521965
0.0044392617 0.0081386566 0.68521965
0.0044392617 0.0073987544 0.68521965
0.0044392617 0.0066588819 0.68521971
0.0044392617 0.0059190392 0.68521959
0.0044392617 0.0051791668 0.68521965
0.0044392617 0.0044392943 0.68521965
0.0044392617 0.0036994219 0.68521965
0.0044392617 0.0029595196 0.68521965
0.0044392617 0.0022196472 0.68521965
0.0044392617 0.0014797747 0.68521965
0.0044392617 0.00073990226 0.68521965
0.0044392617 2.9802322e-08 0.68521965
0.0044392617 -0.00073984265 0.68521965
0.0044392617 -0.0014797449 0.68521965
0.0044392617 -0.0022196174 0.68521965
0.0044392617 -0.0029594898 0.68521965
0.0044392617 -0.0036993325 0.68521971
0.0044392617 -0.0044392347 0.68521965
0.0044392617 -0.0051791072 0.68521965
0.0044392617 -0.0059190094 0.68521965
0.0044392617 -0.0066588819 0.68521965
0.0044392617 -0.0073987544 0.68521971
0.0044392617 -0.0081386268 0.68521971
0.0044392617 -0.0088784993 0.68521965
0.0044392617 -0.0096184015 0.68521965
0.0044392617 -0.010358274 0.68521965
0.0044392617 -0.011098117 0.68521965
0.0044392617 -0.011838019 0.68521965
0.0044392617 -0.012577862 0.68521965
0.0044392617 -0.013317764 0.68521965
0.0044392617 -0.014057636 0.68521965
0.0044392617 -0.014797509 0.68521971
0.0044392617 -0.015537381 0.68521965
0.0044392617 -0.016277283 0.68521965
0.0044392617 -0.017017186 0.68521965
0.0044392617 -0.017757028 0.68521965
0.0044392617 -0.018496871 0.68521965
0.0044392617 -0.019236743 0.68521965
0.0044392617 -0.019976646 0.68521965
0.0044392617 -0.020716518 0.68521965
0.0044392617 -0.02145642 0.68521965
0.0044392617 -0.022196263 0.68521965
0.0044392617 -0.022936136 0.68521965
0.0044392617 -0.023676038 0.68521965
0.0044392617 -0.02441591 0.68521965
0.0044392617 -0.025155813 0.68521965
0.0044392617 -0.025895685 0.68521965
0.0044392617 -0.026635528 0.68521965
0.0044392617 -0.02737543 0.68521965
0.0044392617 -0.028115302 0.68521965
0.0044392617 -0.028855205 0.68521965
0.0044392617 -0.029595077 0.68521971
0.0044392617 -0.030334949 0.68521965
0.0044392617 -0.031074822 0.68521965
0.0044392617 -0.031814694 0.68521971
0.0044392617 -0.032554597 0.68521965
0.0044392617 -0.033294469 0.68521965
0.0044392617 -0.034034342 0.68521971
0.0044392617 -0.034774214 0.68521965
0.0044392617 -0.035514057 0.68521965
0.0044392617 -0.036253959 0.68521965
0.0051661325 0.037639022 0.68477106
0.0051661325 0.036900967 0.68477112
0.0051661325 0.036162943 0.68477106
0.0051661325 0.035424918 0.68477106
0.0051661325 0.034686893 0.68477112
0.0051661325 0.033948898 0.68477106
0.0051661325 0.033210874 0.68477106
0.0051661325 0.032472849 0.68477106
0.0051661325 0.031734794 0.68477112
0.0051661325 0.030996799 0.68477106
0.0051661325 0.030258805 0.68477106
0.0051661325 0.02952078 0.68477106
0.0051661325 0.028782755 0.68477106
0.0051661325 0.02804476 0.68477106
0.0051661325 0.027306706 0.68477106
0.0051661325 0.026568711 0.68477106
0.0051661325 0.025830686 0.68477106
0.0051661325 0.025092632 0.68477106
0.0051661325 0.024354637 0.68477106
0.0051661325 0.023616612 0.68477112
0.0051661325 0.022878617 0.68477106
0.0051661325 0.022140592 0.68477112
0.0051661325 0.021402568 0.68477112
0.0051661325 0.020664543 0.68477106
0.0051661325 0.019926548 0.68477106
0.0051661325 0.019188523 0.68477106
0.0051661325 0.018450469 0.68477112
0.0051661325 0.017712474 0.68477106
0.0051661325 0.016974449 0.68477112
0.0051661325 0.016236424 0.68477106
0.0051661325 0.0154984 0.68477106
0.0051661325 0.014760405 0.68477106
0.0051661325 0.01402238 0.68477112
0.0051661325 0.013284385 0.68477106
0.0051661325 0.012546331 0.68477106
0.0051661325 0.011808306 0.68477112
0.0051661325 0.011070281 0.68477106
0.0051661325 0.010332257 0.68477112
0.0051661325 0.0095942616 0.68477106
0.0051661325 0.0088562369 0.68477112
0.0051661325 0.008118242 0.68477106
0.0051661325 0.0073801875 0.68477106
0.0051661325 0.0066421926 0.68477106
0.0051661325 0.0059041679 0.68477106
0.0051661325 0.0051661432 0.68477112
0.0051661325 0.0044281185 0.68477106
0.0051661325 0.0036901236 0.68477106
0.0051661325 0.0029520988 0.68477106
0.0051661325 0.0022140443 0.68477106
0.0051661325 0.0014760494 0.68477106
0.0051661325 0.00073802471 0.68477112
0.0051661325 -0 0.68477106
0.0051661325 -0.00073802471 0.68477112
0.0051661325 -0.0014760494 0.68477112
0.0051661325 -0.0022140443 0.68477106
0.0051661325 -0.002952069 0.68477112
0.0051661325 -0.003690064 0.68477106
0.0051661325 -0.0044281185 0.68477112
0.0051661325 -0.0051661134 0.68477106
0.0051661325 -0.0059041381 0.68477112
0.0051661325 -0.0066421628 0.68477106
0.0051661325 -0.0073801875 0.68477106
0.0051661325 -0.0081182122 0.68477112
0.0051661325 -0.0088562369 0.68477112
0.0051661325 -0.009594202 0.68477106
0.0051661325 -0.010332227 0.68477112
0.0051661325 -0.011070281 0.68477112
0.0051661325 -0.011808276 0.68477106
0.0051661325 -0.012546301 0.68477112
0.0051661325 -0.013284326 0.68477106
0.0051661325 -0.01402235 0.68477112
0.0051661325 -0.014760375 0.68477106
0.0051661325 -0.0154984 0.68477106
0.0051661325 -0.016236395 0.68477106
0.0051661325 -0.016974449 0.68477106
0.0051661325 -0.017712444 0.68477112
0.0051661325 -0.018450469 0.68477106
0.0051661325 -0.019188493 0.68477106
0.0051661325 -0.019926488 0.68477106
0.0051661325 -0.020664543 0.68477106
0.0051661325 -0.021402538 0.68477106
0.0051661325 -0.022140563 0.68477112
0.0051661325 -0.022878587 0.68477106
0.0051661325 -0.023616612 0.68477106
0.0051661325 -0.024354637 0.68477112
0.0051661325 -0.025092632 0.68477106
0.0051661325 -0.025830626 0.68477106
0.0051661325 -0.026568651 0.68477112
0.0051661325 -0.027306706 0.68477106
0.0051661325 -0.028044701 0.68477106
0.0051661325 -0.028782725 0.68477112
0.0051661325 -0.02952075 0.68477106
0.0051661325 -0.030258775 0.68477112
0.0051661325 -0.030996799 0.68477112
0.0051661325 -0.031734824 0.68477106
0.0051661325 -0.032472849 0.68477112
0.0051661325 -0.033210844 0.68477112
0.0051661325 -0.033948869 0.68477112
0.0051661325 -0.034686863 0.68477106
0.0051661325 -0.035424888 0.68477106
0.0051661325 -0.036162913 0.68477106
0.0051661325 -0.036900938 0.68477112
0.0058893617 0.037544698 0.68432474
0.0058893617 0.03680855 0.68432474
0.0058893617 0.036072373 0.6843248
0.0058893617 0.035336196 0.68432474
0.0058893617 0.03459999 0.68432474
0.0058893617 0.033863813 0.6843248
0.0058893617 0.033127695 0.6843248
0.0058893617 0.032391518 0.6843248
0.0058893617 0.031655341 0.68432474
0.0058893617 0.030919164 0.68432474
0.0058893617 0.030182987 0.6843248
0.0058893617 0.02944681 0.6843248
0.0058893617 0.028710663 0.68432474
0.0058893617 0.027974486 0.68432474
0.0058893617 0.027238309 0.68432474
0.0058893617 0.026502162 0.6843248
0.0058893617 0.025765985 0.68432474
0.0058893617 0.025029808 0.68432474
0.0058893617 0.024293602 0.6843248
0.0058893617 0.023557454 0.68432474
0.0058893617 0.022821307 0.68432474
0.0058893617 0.02208513 0.68432474
0.0058893617 0.021348983 0.68432474
0.0058893617 0.020612746 0.68432474
0.0058893617 0.019876599 0.68432474
0.0058893617 0.019140452 0.68432474
0.0058893617 0.018404275 0.6843248
0.0058893617 0.017668098 0.68432474
0.0058893617 0.016931921 0.68432474
0.0058893617 0.016195774 0.68432474
0.0058893617 0.015459597 0.68432474
0.0058893617 0.01472342 0.6843248
0.0058893617 0.013987243 0.68432474
0.0058893617 0.013251096 0.68432474
0.0058893617 0.012514919 0.6843248
0.0058893617 0.011778742 0.68432474
0.0058893617 0.011042565 0.6843248
0.0058893617 0.010306388 0.68432474
0.0058893617 0.009570241 0.68432474
0.0058893617 0.008834064 0.6843248
0.0058893617 0.008097887 0.68432474
0.0058893617 0.0073617399 0.68432474
0.0058893617 0.0066255033 0.6843248
0.0058893617 0.0058893561 0.6843248
0.0058893617 0.005153209 0.68432474
0.0058893617 0.004417032 0.68432474
0.0058893617 0.0036808848 0.68432474
0.0058893617 0.0029446781 0.6843248
0.0058893617 0.0022085309 0.68432474
0.0058893617 0.0014723539 0.68432474
0.0058893617 0.00073617697 0.6843248
0.0058893617 -0 0.6843248
0.0058893617 -0.00073617697 0.68432474
0.0058893617 -0.0014722943 0.68432474
0.0058893617 -0.0022084713 0.68432474
0.0058893617 -0.0029446781 0.6843248
0.0058893617 -0.003680855 0.68432474
0.0058893617 -0.0044170022 0.68432474
0.0058893617 -0.0051531792 0.6843248
0.0058893617 -0.0058893263 0.68432474
0.0058893617 -0.0066255033 0.68432474
0.0058893617 -0.0073617101 0.68432474
0.0058893617 -0.0080978572 0.68432474
0.0058893617 -0.0088340342 0.68432474
0.0058893617 -0.0095702112 0.68432474
0.0058893617 -0.010306358 0.6843248
0.0058893617 -0.011042535 0.68432474
0.0058893617 -0.011778682 0.6843248
0.0058893617 -0.012514889 0.68432474
0.0058893617 -0.013251066 0.68432474
0.0058893617 -0.013987213 0.6843248
0.0058893617 -0.01472342 0.6843248
0.0058893617 -0.015459538 0.6843248
0.0058893617 -0.016195714 0.68432474
0.0058893617 -0.016931891 0.68432474
0.0058893617 -0.017668068 0.68432474
0.0058893617 -0.018404245 0.6843248
0.0058893617 -0.019140393 0.68432474
0.0058893617 -0.01987657 0.68432474
0.0058893617 -0.020612746 0.68432486
0.0058893617 -0.021348953 0.6843248
0.0058893617 -0.0220851 0.68432474
0.0058893617 -0.022821248 0.68432474
0.0058893617 -0.023557425 0.68432474
0.0058893617 -0.024293602 0.6843248
0.0058893617 -0.025029778 0.68432474
0.0058893617 -0.025765926 0.68432474
0.0058893617 -0.026502132 0.68432474
0.0058893617 -0.02723828 0.6843248
0.0058893617 -0.027974457 0.68432474
0.0058893617 -0.028710634 0.68432474
0.0058893617 -0.029446751 0.68432474
0.0058893617 -0.030182958 0.6843248
0.0058893617 -0.030919164 0.68432474
0.0058893617 -0.031655312 0.68432474
0.0058893617 -0.032391489 0.68432474
0.0058893617 -0.033127636 0.6843248
0.0058893617 -0.033863813 0.68432474
0.0058893617 -0.03459996 0.68432474
0.0058893617 -0.035336137 0.68432474
0.0058893617 -0.036072344 0.6843248
0.0058893617 -0.036808491 0.6843248
0.0066089761 0.03745088 0.68388069
0.0066089761 0.036716551 0.68388069
0.0066089761 0.035982221 0.68388069
0.0066089761 0.035247892 0.68388069
0.0066089761 0.034513563 0.68388069
0.0066089761 0.033779204 0.68388069
0.0066089761 0.033044904 0.68388069
0.0066089761 0.032310545 0.68388069
0.0066089761 0.031576216 0.68388069
0.0066089761 0.030841917 0.68388069
0.0066089761 0.030107558 0.68388069
0.0066089761 0.029373229 0.68388069
0.0066089761 0.028638929 0.68388069
0.0066089761 0.02790457 0.68388069
0.0066089761 0.027170271 0.68388069
0.0066089761 0.026435941 0.68388069
0.0066089761 0.025701582 0.68388069
0.0066089761 0.024967283 0.68388069
0.0066089761 0.024232954 0.68388069
0.0066089761 0.023498565 0.68388069
0.0066089761 0.022764266 0.68388069
0.0066089761 0.022029966 0.68388069
0.0066089761 0.021295637 0.68388069
0.0066089761 0.020561278 0.68388069
0.0066089761 0.019826949 0.68388069
0.0066089761 0.019092649 0.68388069
0.0066089761 0.01835829 0.68388069
0.0066089761 0.017623961 0.68388069
0.0066089761 0.016889662 0.68388069
0.0066089761 0.016155273 0.68388069
0.0066089761 0.015420973 0.68388063
0.0066089761 0.014686644 0.68388069
0.0066089761 0.013952255 0.68388069
0.0066089761 0.013217986 0.68388063
0.0066089761 0.012483627 0.68388069
0.0066089761 0.011749297 0.68388069
0.0066089761 0.011014968 0.68388069
0.0066089761 0.010280669 0.68388069
0.0066089761 0.0095462799 0.68388069
0.0066089761 0.0088120103 0.68388063
0.0066089761 0.0080776513 0.68388069
0.0066089761 0.007343322 0.68388069
0.0066089761 0.0066089928 0.68388069
0.0066089761 0.0058746934 0.68388069
0.0066089761 0.0051403344 0.68388069
0.0066089761 0.0044060349 0.68388063
0.0066089761 0.0036716461 0.68388069
0.0066089761 0.0029373765 0.68388063
0.0066089761 0.0022029877 0.68388069
0.0066089761 0.0014686584 0.68388069
0.0066089761 0.00073435903 0.68388069
0.0066089761 -0 0.68388069
0.0066089761 -0.00073429942 0.68388069
0.0066089761 -0.0014686584 0.68388069
0.0066089761 -0.0022029877 0.68388069
0.0066089761 -0.0029372871 0.68388069
0.0066089761 -0.0036716163 0.68388069
0.0066089761 -0.0044059753 0.68388069
0.0066089761 -0.0051403046 0.68388069
0.0066089761 -0.0058746338 0.68388069
0.0066089761 -0.006608963 0.68388069
0.0066089761 -0.0073432922 0.68388069
0.0066089761 -0.0080776215 0.68388069
0.0066089761 -0.0088119507 0.68388069
0.0066089761 -0.0095462799 0.68388069
0.0066089761 -0.010280609 0.68388069
0.0066089761 -0.011014938 0.68388069
0.0066089761 -0.011749268 0.68388069
0.0066089761 -0.012483597 0.68388069
0.0066089761 -0.013217926 0.68388069
0.0066089761 -0.013952255 0.68388069
0.0066089761 -0.014686584 0.68388069
0.0066089761 -0.015420943 0.68388063
0.0066089761 -0.016155273 0.68388069
0.0066089761 -0.016889572 0.68388069
0.0066089761 -0.017623931 0.68388063
0.0066089761 -0.01835826 0.68388069
0.0066089761 -0.01909256 0.68388069
0.0066089761 -0.019826889 0.68388063
0.0066089761 -0.020561218 0.68388069
0.0066089761 -0.021295577 0.68388069
0.0066089761 -0.022029907 0.68388063
0.0066089761 -0.022764236 0.68388063
0.0066089761 -0.023498595 0.68388069
0.0066089761 -0.024232894 0.68388063
0.0066089761 -0.024967253 0.68388069
0.0066089761 -0.025701553 0.68388069
0.0066089761 -0.026435882 0.68388069
0.0066089761 -0.027170211 0.68388063
0.0066089761 -0.02790457 0.68388075
0.0066089761 -0.02863884 0.68388063
0.0066089761 -0.029373229 0.68388069
0.0066089761 -0.030107528 0.68388069
0.0066089761 -0.030841857 0.68388069
0.0066089761 -0.031576186 0.68388063
0.0066089761 -0.032310545 0.68388075
0.0066089761 -0.033044815 0.68388063
0.0066089761 -0.033779204 0.68388069
0.0066089761 -0.034513503 0.68388069
0.0066089761 -0.035247862 0.68388069
0.0066089761 -0.035982221 0.68388069
0.0066089761 -0.036716521 0.68388069
0.0073250039 0.037357539 0.68343878
0.0073250039 0.036625057 0.68343878
0.0073250039 0.035892546 0.68343878
0.0073250039 0.035160035 0.68343878
0.0073250039 0.034427553 0.68343878
0.0073250039 0.033695012 0.68343878
0.0073250039 0.032962531 0.68343878
0.0073250039 0.03223002 0.68343878
0.0073250039 0.031497538 0.68343878
0.0073250039 0.030765027 0.68343878
0.0073250039 0.030032545 0.68343878
0.0073250039 0.029300034 0.68343884
0.0073250039 0.028567553 0.68343878
0.0073250039 0.027835041 0.68343878
0.0073250039 0.02710253 0.68343878
0.0073250039 0.026370019 0.68343878
0.0073250039 0.025637537 0.68343878
0.0073250039 0.024904996 0.68343884
0.0073250039 0.024172515 0.68343884
0.0073250039 0.023440033 0.68343878
0.0073250039 0.022707552 0.68343878
0.0073250039 0.021975011 0.68343878
0.0073250039 0.021242529 0.68343878
0.0073250039 0.020510018 0.68343878
0.0073250039 0.019777536 0.68343884
0.0073250039 0.019045025 0.68343884
0.0073250039 0.018312544 0.68343878
0.0073250039 0.017580062 0.68343878
0.0073250039 0.016847521 0.68343878
0.0073250039 0.01611504 0.68343878
0.0073250039 0.015382528 0.68343878
0.0073250039 0.014650017 0.68343878
0.0073250039 0.013917506 0.68343878
0.0073250039 0.013185024 0.68343878
0.0073250039 0.012452513 0.68343884
0.0073250039 0.011720061 0.68343878
0.0073250039 0.01098755 0.68343878
0.0073250039 0.010255039 0.68343878
0.0073250039 0.0095225275 0.68343878
0.0073250039 0.008790046 0.68343878
0.0073250039 0.0080575049 0.68343878
0.0073250039 0.0073250234 0.68343878
0.0073250039 0.0065924823 0.68343878
0.0073250039 0.0058600307 0.68343884
0.0073250039 0.0051275194 0.68343878
0.0073250039 0.0043950379 0.68343878
0.0073250039 0.0036625266 0.68343878
0.0073250039 0.0029300153 0.68343878
0.0073250039 0.002197504 0.68343878
0.0073250039 0.0014650226 0.68343878
0.0073250039 0.00073251128 0.68343878
0.0073250039 2.9802322e-08 0.68343878
0.0073250039 -0.00073248148 0.68343878
0.0073250039 -0.001464963 0.68343878
0.0073250039 -0.002197504 0.68343878
0.0073250039 -0.0029299855 0.68343878
0.0073250039 -0.0036625266 0.68343878
0.0073250039 -0.0043949783 0.68343878
0.0073250039 -0.0051274896 0.68343878
0.0073250039 -0.0058600008 0.68343884
0.0073250039 -0.0065924823 0.68343878
0.0073250039 -0.0073249638 0.68343878
0.0073250039 -0.0080574751 0.68343878
0.0073250039 -0.0087899864 0.68343878
0.0073250039 -0.0095224977 0.68343884
0.0073250039 -0.010255009 0.68343884
0.0073250039 -0.01098752 0.68343884
0.0073250039 -0.011719972 0.68343878
0.0073250039 -0.012452543 0.68343878
0.0073250039 -0.013184965 0.68343878
0.0073250039 -0.013917506 0.68343878
0.0073250039 -0.014649987 0.68343878
0.0073250039 -0.015382528 0.68343878
0.0073250039 -0.01611498 0.68343884
0.0073250039 -0.016847491 0.68343878
0.0073250039 -0.017580003 0.68343884
0.0073250039 -0.018312484 0.68343878
0.0073250039 -0.019044995 0.68343878
0.0073250039 -0.019777507 0.68343878
0.0073250039 -0.020510018 0.68343878
0.0073250039 -0.021242499 0.68343878
0.0073250039 -0.021975011 0.68343878
0.0073250039 -0.022707522 0.68343884
0.0073250039 -0.023439974 0.68343878
0.0073250039 -0.024172485 0.68343878
0.0073250039 -0.024904966 0.68343878
0.0073250039 -0.025637478 0.68343878
0.0073250039 -0.026369989 0.68343878
0.0073250039 -0.0271025 0.68343878
0.0073250039 -0.027835011 0.68343878
0.0073250039 -0.028567463 0.68343878
0.0073250039 -0.029300034 0.68343878
0.0073250039 -0.030032456 0.68343878
0.0073250039 -0.030764997 0.68343878
0.0073250039 -0.031497478 0.68343884
0.0073250039 -0.03223002 0.68343884
0.0073250039 -0.032962501 0.68343884
0.0073250039 -0.033695012 0.68343884
0.0073250039 -0.034427494 0.68343884
0.0073250039 -0.035159975 0.68343878
0.0073250039 -0.035892487 0.68343878
0.0073250039 -0.036624998 0.68343878
0.0080374703 0.037995338 0.68299913
0.0080374703 0.037264675 0.68299913
0.0080374703 0.036533982 0.68299913
0.0080374703 0.035803258 0.68299913
0.0080374703 0.035072625 0.68299907
0.0080374703 0.034341961 0.68299913
0.0080374703 0.033611268 0.68299913
0.0080374703 0.032880604 0.68299913
0.0080374703 0.032149881 0.68299913
0.0080374703 0.031419218 0.68299907
0.0080374703 0.030688554 0.68299913
0.0080374703 0.029957891 0.68299913
0.0080374703 0.029227197 0.68299913
0.0080374703 0.028496504 0.68299913
0.0080374703 0.02776584 0.68299907
0.0080374703 0.027035117 0.68299913
0.0080374703 0.026304483 0.68299907
0.0080374703 0.02557379 0.68299913
0.0080374703 0.024843097 0.68299913
0.0080374703 0.024112403 0.68299913
0.0080374703 0.02338174 0.68299913
0.0080374703 0.022651076 0.68299913
0.0080374703 0.021920413 0.68299913
0.0080374703 0.021189719 0.68299913
0.0080374703 0.020459026 0.68299913
0.0080374703 0.019728363 0.68299913
0.0080374703 0.018997699 0.68299907
0.0080374703 0.018267006 0.68299907
0.0080374703 0.017536342 0.68299913
0.0080374703 0.016805619 0.68299913
0.0080374703 0.016074926 0.68299913
0.0080374703 0.015344292 0.68299907
0.0080374703 0.014613628 0.68299913
0.0080374703 0.013882905 0.68299913
0.0080374703 0.013152242 0.68299913
0.0080374703 0.012421548 0.68299913
0.0080374703 0.011690885 0.68299907
0.0080374703 0.010960221 0.68299913
0.0080374703 0.010229528 0.68299913
0.0080374703 0.0094988346 0.68299913
0.0080374703 0.0087681711 0.68299913
0.0080374703 0.0080375075 0.68299907
0.0080374703 0.0073067844 0.68299913
0.0080374703 0.0065761507 0.68299913
0.0080374703 0.0058454275 0.68299907
0.0080374703 0.0051147342 0.68299913
0.0080374703 0.0043840706 0.68299913
0.0080374703 0.0036534071 0.68299913
0.0080374703 0.0029227436 0.68299907
0.0080374703 0.0021920502 0.68299913
0.0080374703 0.0014613569 0.68299913
0.0080374703 0.00073069334 0.68299913
0.0080374703 2.9802322e-08 0.68299913
0.0080374703 -0.00073063374 0.68299913
0.0080374703 -0.0014613569 0.68299913
0.0080374703 -0.0021920204 0.68299913
0.0080374703 -0.0029227138 0.68299913
0.0080374703 -0.0036534071 0.68299913
0.0080374703 -0.004384011 0.68299913
0.0080374703 -0.0051147342 0.68299913
0.0080374703 -0.0058454275 0.68299913
0.0080374703 -0.0065760911 0.68299913
0.0080374703 -0.0073067844 0.68299913
0.0080374703 -0.0080374479 0.68299907
0.0080374703 -0.0087681115 0.68299913
0.0080374703 -0.0094988048 0.68299913
0.0080374703 -0.010229498 0.68299913
0.0080374703 -0.010960162 0.68299913
0.0080374703 -0.011690825 0.68299907
0.0080374703 -0.012421548 0.68299907
0.0080374703 -0.013152212 0.68299913
0.0080374703 -0.013882905 0.68299907
0.0080374703 -0.014613599 0.68299913
0.0080374703 -0.015344203 0.68299907
0.0080374703 -0.016074926 0.68299913
0.0080374703 -0.016805619 0.68299907
0.0080374703 -0.017536283 0.68299913
0.0080374703 -0.018266976 0.68299913
0.0080374703 -0.018997639 0.68299913
0.0080374703 -0.019728303 0.68299907
0.0080374703 -0.020458996 0.68299913
0.0080374703 -0.02118969 0.68299913
0.0080374703 -0.021920353 0.68299913
0.0080374703 -0.022651047 0.68299913
0.0080374703 -0.02338174 0.68299913
0.0080374703 -0.024112403 0.68299907
0.0080374703 -0.024843067 0.68299913
0.0080374703 -0.02557376 0.68299913
0.0080374703 -0.026304424 0.68299913
0.0080374703 -0.027035117 0.68299913
0.0080374703 -0.02776581 0.68299907
0.0080374703 -0.028496444 0.68299913
0.0080374703 -0.029227138 0.68299913
0.0080374703 -0.029957831 0.68299913
0.0080374703 -0.030688494 0.68299913
0.0080374703 -0.031419188 0.68299913
0.0080374703 -0.032149881 0.68299907
0.0080374703 -0.032880545 0.68299913
0.0080374703 -0.033611238 0.68299913
0.0080374703 -0.034341931 0.68299913
0.0080374703 -0.035072565 0.68299907
0.0080374703 -0.035803258 0.68299913
0.0080374703 -0.036533952 0.68299913
0.0087464033 0.037901103 0.68256158
0.0087464033 0.037172198 0.68256164
0.0087464033 0.036443383 0.68256158
0.0087464033 0.035714507 0.68256164
0.0087464033 0.034985632 0.68256164
0.0087464033 0.034256786 0.68256164
0.0087464033 0.033527911 0.68256164
0.0087464033 0.032799065 0.68256164
0.0087464033 0.03207016 0.68256158
0.0087464033 0.031341314 0.68256164
0.0087464033 0.030612409 0.68256164
0.0087464033 0.029883534 0.68256164
0.0087464033 0.029154718 0.68256158
0.0087464033 0.028425843 0.68256158
0.0087464033 0.027696967 0.68256164
0.0087464033 0.026968092 0.68256158
0.0087464033 0.026239216 0.68256164
0.0087464033 0.025510341 0.68256164
0.0087464033 0.024781495 0.68256164
0.0087464033 0.02405265 0.68256158
0.0087464033 0.023323774 0.68256164
0.0087464033 0.022594899 0.68256164
0.0087464033 0.021866024 0.68256164
0.0087464033 0.021137148 0.68256164
0.0087464033 0.020408332 0.68256158
0.0087464033 0.019679427 0.68256164
0.0087464033 0.018950552 0.68256158
0.0087464033 0.018221676 0.68256164
0.0087464033 0.017492831 0.68256164
0.0087464033 0.016763926 0.68256164
0.0087464033 0.01603508 0.68256164
0.0087464033 0.015306234 0.68256158
0.0087464033 0.014577359 0.68256164
0.0087464033 0.013848484 0.68256164
0.0087464033 0.013119608 0.68256164
0.0087464033 0.012390733 0.68256164
0.0087464033 0.011661887 0.68256164
0.0087464033 0.010933042 0.68256158
0.0087464033 0.010204166 0.68256164
0.0087464033 0.009475261 0.68256164
0.0087464033 0.0087464154 0.68256164
0.0087464033 0.0080175698 0.68256158
0.0087464033 0.0072886646 0.68256164
0.0087464033 0.0065598488 0.68256164
0.0087464033 0.0058309734 0.68256164
0.0087464033 0.005102098 0.68256164
0.0087464033 0.0043731928 0.68256164
0.0087464033 0.0036443174 0.68256164
0.0087464033 0.0029154718 0.68256158
0.0087464033 0.0021866262 0.68256164
0.0087464033 0.0014577508 0.68256164
0.0087464033 0.0007288754 0.68256164
0.0087464033 -0 0.68256164
0.0087464033 -0.0007288456 0.68256158
0.0087464033 -0.0014576912 0.68256164
0.0087464033 -0.0021865666 0.68256164
0.0087464033 -0.002915442 0.68256164
0.0087464033 -0.0036443174 0.68256164
0.0087464033 -0.0043731928 0.68256164
0.0087464033 -0.0051020682 0.68256164
0.0087464033 -0.0058309138 0.68256164
0.0087464033 -0.0065597892 0.68256158
0.0087464033 -0.0072886348 0.68256164
0.0087464033 -0.00801754 0.68256164
0.0087464033 -0.0087464154 0.68256164
0.0087464033 -0.009475261 0.68256158
0.0087464033 -0.010204107 0.68256158
0.0087464033 -0.010932982 0.68256164
0.0087464033 -0.011661828 0.68256164
0.0087464033 -0.012390703 0.68256164
0.0087464033 -0.013119578 0.68256164
0.0087464033 -0.013848424 0.68256158
0.0087464033 -0.014577329 0.68256158
0.0087464033 -0.015306205 0.68256164
0.0087464033 -0.01603508 0.68256164
0.0087464033 -0.016763926 0.68256164
0.0087464033 -0.017492801 0.68256164
0.0087464033 -0.018221647 0.68256164
0.0087464033 -0.018950522 0.68256158
0.0087464033 -0.019679397 0.68256158
0.0087464033 -0.020408273 0.68256164
0.0087464033 -0.021137118 0.68256164
0.0087464033 -0.021865964 0.68256158
0.0087464033 -0.022594839 0.68256164
0.0087464033 -0.023323715 0.68256164
0.0087464033 -0.02405259 0.68256158
0.0087464033 -0.024781466 0.68256164
0.0087464033 -0.025510281 0.68256158
0.0087464033 -0.026239187 0.68256164
0.0087464033 -0.026968062 0.68256164
0.0087464033 -0.027696937 0.68256164
0.0087464033 -0.028425813 0.68256164
0.0087464033 -0.029154658 0.68256164
0.0087464033 -0.029883564 0.68256164
0.0087464033 -0.030612379 0.68256158
0.0087464033 -0.031341255 0.68256158
0.0087464033 -0.03207013 0.68256164
0.0087464033 -0.032799006 0.68256164
0.0087464033 -0.033527881 0.68256164
0.0087464033 -0.034256727 0.68256152
0.0087464033 -0.034985602 0.68256164
0.0087464033 -0.035714447 0.68256158
0.0087464033 -0.036443323 0.68256164
0.009451828 0.037807316 0.68212628
0.009451828 0.037080258 0.68212628
0.009451828 0.036353201 0.68212628
0.009451828 0.035626113 0.68212628
0.009451828 0.034899116 0.68212628
0.009451828 0.034172028 0.68212628
0.009451828 0.033444941 0.68212628
0.009451828 0.032717913 0.68212628
0.009451828 0.031990826 0.68212628
0.009451828 0.031263769 0.68212628
0.009451828 0.030536711 0.68212628
0.009451828 0.029809624 0.68212628
0.009451828 0.029082566 0.68212628
0.009451828 0.028355509 0.68212628
0.009451828 0.027628452 0.68212628
0.009451828 0.026901364 0.68212628
0.009451828 0.026174307 0.68212628
0.009451828 0.025447279 0.68212622
0.009451828 0.024720192 0.68212628
0.009451828 0.023993105 0.68212628
0.009451828 0.023266047 0.68212628
0.009451828 0.02253896 0.68212628
0.009451828 0.021811932 0.68212628
0.009451828 0.021084845 0.68212628
0.009451828 0.020357788 0.68212628
0.009451828 0.01963073 0.68212628
0.009451828 0.018903643 0.68212628
0.009451828 0.018176585 0.68212628
0.009451828 0.017449528 0.68212628
0.009451828 0.016722471 0.68212628
0.009451828 0.015995413 0.68212628
0.009451828 0.015268356 0.68212628
0.009451828 0.014541298 0.68212628
0.009451828 0.013814241 0.68212628
0.009451828 0.013087153 0.68212628
0.009451828 0.012360096 0.68212628
0.009451828 0.011633039 0.68212628
0.009451828 0.010905981 0.68212628
0.009451828 0.010178924 0.68212628
0.009451828 0.0094518363 0.68212628
0.009451828 0.0087247789 0.68212628
0.009451828 0.0079977214 0.68212628
0.009451828 0.0072706342 0.68212628
0.009451828 0.0065436065 0.68212628
0.009451828 0.0058165193 0.68212628
0.009451828 0.0050894916 0.68212628
0.009451828 0.0043624043 0.68212628
0.009451828 0.0036353469 0.68212628
0.009451828 0.0029082894 0.68212628
0.009451828 0.0021812022 0.68212628
0.009451828 0.0014541745 0.68212628
0.009451828 0.00072708726 0.68212628
0.009451828 -0 0.68212628
0.009451828 -0.00072702765 0.68212628
0.009451828 -0.0014541149 0.68212628
0.009451828 -0.0021811724 0.68212628
0.009451828 -0.0029082 0.68212628
0.009451828 -0.0036353171 0.68212628
0.009451828 -0.0043623447 0.68212628
0.009451828 -0.0050894022 0.68212628
0.009451828 -0.0058164597 0.68212628
0.009451828 -0.0065435767 0.68212628
0.009451828 -0.0072706342 0.68212628
0.009451828 -0.0079976916 0.68212628
0.009451828 -0.0087247789 0.68212628
0.009451828 -0.0094518363 0.68212628
0.009451828 -0.010178894 0.68212628
0.009451828 -0.010905981 0.68212628
0.009451828 -0.011633009 0.68212628
0.009451828 -0.012360066 0.68212628
0.009451828 -0.013087183 0.68212628
0.009451828 -0.013814181 0.68212628
0.009451828 -0.014541268 0.68212628
0.009451828 -0.015268326 0.68212628
0.009451828 -0.015995383 0.68212628
0.009451828 -0.016722471 0.68212628
0.009451828 -0.017449528 0.68212628
0.009451828 -0.018176585 0.68212628
0.009451828 -0.018903643 0.68212628
0.009451828 -0.01963073 0.68212628
0.009451828 -0.020357788 0.68212628
0.009451828 -0.021084845 0.68212628
0.009451828 -0.021811873 0.68212628
0.009451828 -0.02253896 0.68212628
0.009451828 -0.023266017 0.68212622
0.009451828 -0.023993105 0.68212628
0.009451828 -0.024720132 0.68212628
0.009451828 -0.02544722 0.68212628
0.009451828 -0.026174277 0.68212628
0.009451828 -0.026901335 0.68212628
0.009451828 -0.027628422 0.68212628
0.009451828 -0.028355449 0.68212628
0.009451828 -0.029082537 0.68212628
0.009451828 -0.029809594 0.68212628
0.009451828 -0.030536652 0.68212634
0.009451828 -0.031263709 0.68212628
0.009451828 -0.031990796 0.68212628
0.009451828 -0.032717824 0.68212628
0.009451828 -0.033444911 0.68212628
0.009451828 -0.034171939 0.68212628
0.009451828 -0.034899026 0.68212628
0.009451828 -0.035626084 0.68212628
0.009451828 -0.036353141 0.68212628
0.010153771 0.037714034 0.68169314
0.010153771 0.036988795 0.68169308
0.010153771 0.036263466 0.68169308
0.010153771 0.035538197 0.68169308
0.010153771 0.034812957 0.68169308
0.010153771 0.034087688 0.68169308
0.010153771 0.033362389 0.68169308
0.010153771 0.032637149 0.68169308
0.010153771 0.03191188 0.68169308
0.010153771 0.03118661 0.68169308
0.010153771 0.030461341 0.68169308
0.010153771 0.029736042 0.68169308
0.010153771 0.029010803 0.68169308
0.010153771 0.028285533 0.68169314
0.010153771 0.027560234 0.68169308
0.010153771 0.026834995 0.68169308
0.010153771 0.026109695 0.68169308
0.010153771 0.025384456 0.68169308
0.010153771 0.024659187 0.68169308
0.010153771 0.023933917 0.68169308
0.010153771 0.023208618 0.68169314
0.010153771 0.022483379 0.68169308
0.010153771 0.02175808 0.68169308
0.010153771 0.02103281 0.68169308
0.010153771 0.020307571 0.68169308
0.010153771 0.019582301 0.68169308
0.010153771 0.018857002 0.68169308
0.010153771 0.018131763 0.68169308
0.010153771 0.017406493 0.68169308
0.010153771 0.016681254 0.68169308
0.010153771 0.015955925 0.68169308
0.010153771 0.015230656 0.68169314
0.010153771 0.014505446 0.68169308
0.010153771 0.013780147 0.68169314
0.010153771 0.013054878 0.68169314
0.010153771 0.012329578 0.68169308
0.010153771 0.011604339 0.68169308
0.010153771 0.01087907 0.68169308
0.010153771 0.0101538 0.68169308
0.010153771 0.0094285607 0.68169308
0.010153771 0.0087032318 0.68169314
0.010153771 0.0079779923 0.68169308
0.010153771 0.0072526932 0.68169308
0.010153771 0.0065274835 0.68169308
0.010153771 0.0058021843 0.68169308
0.010153771 0.0050768852 0.68169308
0.010153771 0.0043516159 0.68169308
0.010153771 0.0036263764 0.68169308
0.010153771 0.0029011071 0.68169308
0.010153771 0.002175808 0.68169308
0.010153771 0.0014505684 0.68169308
0.010153771 0.00072529912 0.68169308
0.010153771 2.9802322e-08 0.68169308
0.010153771 -0.00072526932 0.68169308
0.010153771 -0.0014505386 0.68169314
0.010153771 -0.002175808 0.68169308
0.010153771 -0.0029010475 0.68169308
0.010153771 -0.0036263466 0.68169308
0.010153771 -0.0043515861 0.68169308
0.010153771 -0.0050768852 0.68169308
0.010153771 -0.0058021247 0.68169308
0.010153771 -0.0065273941 0.68169308
0.010153771 -0.0072526932 0.68169308
0.010153771 -0.0079779327 0.68169308
0.010153771 -0.0087032318 0.68169308
0.010153771 -0.0094285011 0.68169308
0.010153771 -0.01015377 0.68169308
0.010153771 -0.01087901 0.68169308
0.010153771 -0.011604279 0.68169308
0.010153771 -0.012329578 0.68169308
0.010153771 -0.013054818 0.68169308
0.010153771 -0.013780087 0.68169308
0.010153771 -0.014505357 0.68169308
0.010153771 -0.015230685 0.68169314
0.010153771 -0.015955925 0.68169308
0.010153771 -0.016681165 0.68169314
0.010153771 -0.017406464 0.68169314
0.010153771 -0.018131733 0.68169308
0.010153771 -0.018857002 0.68169308
0.010153771 -0.019582242 0.68169308
0.010153771 -0.020307541 0.68169308
0.010153771 -0.02103278 0.68169308
0.010153771 -0.02175808 0.68169308
0.010153771 -0.022483319 0.68169308
0.010153771 -0.023208648 0.68169308
0.010153771 -0.023933887 0.68169308
0.010153771 -0.024659127 0.68169314
0.010153771 -0.025384396 0.68169308
0.010153771 -0.026109695 0.68169308
0.010153771 -0.026834965 0.68169308
0.010153771 -0.027560204 0.68169308
0.010153771 -0.028285474 0.68169308
0.010153771 -0.029010743 0.68169308
0.010153771 -0.029736012 0.68169308
0.010153771 -0.030461282 0.68169302
0.010153771 -0.031186581 0.68169308
0.010153771 -0.03191185 0.68169314
0.010153771 -0.032637119 0.68169308
0.010153771 -0.033362389 0.68169308
0.010153771 -0.034087628 0.68169308
0.010153771 -0.034812927 0.68169308
0.010153771 -0.035538167 0.68169308
0.010153771 -0.036263466 0.68169308
0.010153771 -0.036988705 0.68169308
0.010852259 0.0376212 0.68126202
0.010852259 0.036897719 0.68126202
0.010852259 0.036174208 0.68126202
0.010852259 0.035450757 0.68126202
0.010852259 0.034727275 0.68126208
0.010852259 0.034003764 0.68126202
0.010852259 0.033280283 0.68126202
0.010852259 0.032556772 0.68126202
0.010852259 0.031833321 0.68126202
0.010852259 0.031109869 0.68126202
0.010852259 0.030386329 0.68126202
0.010852259 0.029662877 0.68126202
0.010852259 0.028939366 0.68126208
0.010852259 0.028215885 0.68126202
0.010852259 0.027492404 0.68126202
0.010852259 0.026768893 0.68126202
0.010852259 0.026045471 0.68126202
0.010852259 0.025321931 0.68126202
0.010852259 0.024598479 0.68126202
0.010852259 0.023874998 0.68126202
0.010852259 0.023151487 0.68126208
0.010852259 0.022428036 0.68126202
0.010852259 0.021704525 0.68126202
0.010852259 0.020981044 0.68126208
0.010852259 0.020257592 0.68126202
0.010852259 0.019534111 0.68126202
0.010852259 0.0188106 0.68126202
0.010852259 0.018087089 0.68126202
0.010852259 0.017363638 0.68126202
0.010852259 0.016640157 0.68126208
0.010852259 0.015916646 0.68126202
0.010852259 0.015193194 0.68126202
0.010852259 0.014469683 0.68126202
0.010852259 0.013746232 0.68126202
0.010852259 0.013022751 0.68126202
0.010852259 0.01229924 0.68126208
0.010852259 0.011575758 0.68126202
0.010852259 0.010852277 0.68126202
0.010852259 0.010128796 0.68126202
0.010852259 0.0094053447 0.68126202
0.010852259 0.0086818337 0.68126202
0.010852259 0.0079583526 0.68126202
0.010852259 0.0072348416 0.68126202
0.010852259 0.0065113902 0.68126202
0.010852259 0.0057878792 0.68126202
0.010852259 0.0050643981 0.68126202
0.010852259 0.0043409467 0.68126202
0.010852259 0.0036174357 0.68126202
0.010852259 0.0028939545 0.68126202
0.010852259 0.0021705031 0.68126202
0.010852259 0.0014469624 0.68126202
0.010852259 0.00072351098 0.68126202
0.010852259 -2.9802322e-08 0.68126202
0.010852259 -0.00072348118 0.68126202
0.010852259 -0.0014469326 0.68126208
0.010852259 -0.0021704435 0.68126208
0.010852259 -0.0028939247 0.68126202
0.010852259 -0.0036174357 0.68126202
0.010852259 -0.0043408871 0.68126202
0.010852259 -0.0050643682 0.68126202
0.010852259 -0.005787909 0.68126202
0.010852259 -0.0065113306 0.68126202
0.010852259 -0.0072348118 0.68126202
0.010852259 -0.0079583228 0.68126208
0.010852259 -0.0086817741 0.68126202
0.010852259 -0.0094052851 0.68126202
0.010852259 -0.010128766 0.68126202
0.010852259 -0.010852277 0.68126202
0.010852259 -0.011575729 0.68126202
0.010852259 -0.01229921 0.68126202
0.010852259 -0.013022691 0.68126202
0.010852259 -0.013746142 0.68126202
0.010852259 -0.014469683 0.68126208
0.010852259 -0.015193164 0.68126202
0.010852259 -0.015916616 0.68126202
0.010852259 -0.016640127 0.68126208
0.010852259 -0.017363608 0.68126202
0.010852259 -0.018087059 0.68126202
0.010852259 -0.01881057 0.68126208
0.010852259 -0.019534022 0.68126208
0.010852259 -0.020257533 0.68126202
0.010852259 -0.020981014 0.68126208
0.010852259 -0.021704495 0.68126202
0.010852259 -0.022427976 0.68126202
0.010852259 -0.023151457 0.68126202
0.010852259 -0.023874938 0.68126202
0.010852259 -0.02459842 0.68126202
0.010852259 -0.025321901 0.68126202
0.010852259 -0.026045412 0.68126202
0.010852259 -0.026768863 0.68126202
0.010852259 -0.027492404 0.68126202
0.010852259 -0.028215855 0.68126202
0.010852259 -0.028939366 0.68126202
0.010852259 -0.029662818 0.68126202
0.010852259 -0.030386299 0.68126202
0.010852259 -0.03110981 0.68126208
0.010852259 -0.031833261 0.68126202
0.010852259 -0.032556742 0.68126202
0.010852259 -0.033280283 0.68126208
0.010852259 -0.034003705 0.68126202
0.010852259 -0.034727216 0.68126214
0.010852259 -0.035450697 0.68126208
0.010852259 -0.036174178 0.68126202
0.010852259 -0.036897689 0.68126202
0.011547316 0.037528783 0.6808331
0.011547316 0.03680709 0.6808331
0.011547316 0.036085397 0.6808331
0.011547316 0.035363644 0.6808331
0.011547316 0.034641981 0.6808331
0.011547316 0.033920228 0.6808331
0.011547316 0.033198565 0.6808331
0.011547316 0.032476813 0.6808331
0.011547316 0.031755179 0.6808331
0.011547316 0.031033427 0.6808331
0.011547316 0.030311733 0.68083304
0.011547316 0.02959004 0.6808331
0.011547316 0.028868288 0.6808331
0.011547316 0.028146595 0.6808331
0.011547316 0.027424872 0.6808331
0.011547316 0.026703179 0.6808331
0.011547316 0.025981456 0.6808331
0.011547316 0.025259793 0.6808331
0.011547316 0.02453807 0.6808331
0.011547316 0.023816347 0.6808331
0.011547316 0.023094624 0.6808331
0.011547316 0.022372931 0.6808331
0.011547316 0.021651208 0.6808331
0.011547316 0.020929545 0.6808331
0.011547316 0.020207822 0.6808331
0.011547316 0.019486099 0.6808331
0.011547316 0.018764406 0.6808331
0.011547316 0.018042684 0.6808331
0.011547316 0.017320991 0.6808331
0.011547316 0.016599298 0.68083304
0.011547316 0.015877545 0.6808331
0.011547316 0.015155882 0.6808331
0.011547316 0.014434129 0.6808331
0.011547316 0.013712466 0.6808331
0.011547316 0.012990743 0.6808331
0.011547316 0.01226908 0.6808331
0.011547316 0.011547327 0.6808331
0.011547316 0.010825604 0.6808331
0.011547316 0.010103911 0.6808331
0.011547316 0.0093822181 0.6808331
0.011547316 0.0086605251 0.6808331
0.011547316 0.0079387724 0.6808331
0.011547316 0.0072170794 0.6808331
0.011547316 0.0064953864 0.6808331
0.011547316 0.0057736635 0.6808331
0.011547316 0.0050519705 0.6808331
0.011547316 0.0043302476 0.6808331
0.011547316 0.0036085546 0.6808331
0.011547316 0.0028868616 0.6808331
0.011547316 0.0021651387 0.6808331
0.011547316 0.0014434159 0.6808331
0.011547316 0.00072175264 0.6808331
0.011547316 -0 0.6808331
