# .PCD v0.7 - Point Cloud Data file format
VERSION 0.7
FIELDS x y z
SIZE 4 4 4
TYPE F F F
COUNT 1 1 1
WIDTH 1308
HEIGHT 1
VIEWPOINT 0 0 0 1 0 0 0
POINTS 1308
DATA ascii
-0.030022567 0.049391985 0.74040687
-0.029462593 0.047520339 0.7360459
-0.028923012 0.045717031 0.73184383
-0.028402841 0.043978661 0.72779286
-0.027901156 0.042301774 0.72388583
-0.027416782 0.040683031 0.72011358
-0.026949039 0.039119571 0.7164709
-0.026496891 0.037608534 0.71294969
-0.026059665 0.036147296 0.70954466
-0.025636725 0.034733653 0.70625085
-0.025227206 0.033365041 0.7030617
-0.024830649 0.032039553 0.69997334
-0.024446288 0.030755043 0.69698
-0.024073642 0.029509664 0.69407791
-0.023712263 0.028301746 0.69126356
-0.023361498 0.027129501 0.68853194
-0.023021031 0.025991499 0.68588048
-0.022690278 0.024886101 0.68330455
-0.022368962 0.023812145 0.68080223
-0.022127178 0.022840977 0.67891932
-0.022127178 0.022127181 0.67891932
-0.022127178 0.021413445 0.67891926
-0.022127178 0.02069962 0.67891926
-0.022127178 0.019985855 0.67891932
-0.022127178 0.019272089 0.67891932
-0.022127178 0.018558323 0.67891926
-0.022127178 0.017844528 0.67891926
-0.022127178 0.017130733 0.67891932
-0.022127178 0.016416967 0.67891932
-0.022127178 0.015703171 0.67891932
-0.022127178 0.014989406 0.67891926
-0.022127178 0.01427561 0.67891932
-0.022127178 0.013561845 0.67891932
-0.022127178 0.012848079 0.67891932
-0.022127178 0.012134284 0.67891932
-0.022127178 0.011420488 0.67891932
-0.022127178 0.010706723 0.67891932
-0.022127178 0.0099929273 0.67891932
-0.022127178 0.0092791915 0.67891932
-0.022127178 0.0085653663 0.67891932
-0.022127178 0.0078516006 0.67891932
-0.022127178 0.007137835 0.67891926
-0.022127178 0.0064240396 0.67891926
-0.022127178 0.0057102442 0.67891932
-0.022127178 0.0049964786 0.67891932
-0.022127178 0.0042826831 0.67891932
-0.022127178 0.0035689175 0.67891932
-0.022127178 0.0028551221 0.67891932
-0.022127178 0.0021413565 0.67891932
-0.022127178 0.0014275908 0.67891926
-0.022127178 0.00071379542 0.67891926
-0.022127178 2.9802322e-08 0.67891932
-0.022127178 -0.00071376562 0.67891932
-0.022127178 -0.001427561 0.67891932
-0.022127178 -0.0021413267 0.67891932
-0.022127178 -0.0028550923 0.67891932
-0.022127178 -0.0035688877 0.67891932
-0.022127178 -0.0042826533 0.67891926
-0.022127178 -0.004996419 0.67891926
-0.022127178 -0.0057102144 0.67891932
-0.022127178 -0.0064240098 0.67891932
-0.022127178 -0.0071378052 0.67891932
-0.022127178 -0.0078515708 0.67891932
-0.022127178 -0.0085653365 0.67891926
-0.022127178 -0.0092791319 0.67891932
-0.022127178 -0.0099929273 0.67891932
-0.022127178 -0.010706693 0.67891926
-0.022127178 -0.011420459 0.67891926
-0.022127178 -0.012134254 0.67891932
-0.022127178 -0.012848049 0.67891932
-0.022127178 -0.013561815 0.67891932
-0.022127178 -0.014275581 0.67891926
-0.022127178 -0.014989346 0.67891932
-0.022127178 -0.015703171 0.67891932
-0.022127178 -0.016416907 0.67891932
-0.022127178 -0.017130703 0.67891926
-0.022127178 -0.017844468 0.67891932
-0.022127178 -0.018558294 0.67891932
-0.022127178 -0.019272059 0.67891932
-0.022127112 -0.019985735 0.67891872
-0.022127112 -0.020699531 0.67891878
-0.022127112 -0.021413296 0.67891884
-0.022127112 -0.022127062 0.67891872
-0.022127112 -0.022840858 0.67891872
-0.022127112 -0.023554623 0.67891878
-0.022127112 -0.024268419 0.67891884
-0.022127112 -0.024982214 0.67891878
-0.022127112 -0.02569598 0.67891872
-0.022127112 -0.026409745 0.67891878
-0.022127112 -0.027123511 0.67891878
-0.022127112 -0.027837306 0.67891872
-0.022127112 -0.028551102 0.67891872
-0.022127112 -0.029264867 0.67891878
-0.022127112 -0.029978633 0.67891878
-0.022127112 -0.030692458 0.67891878
-0.022127112 -0.031406194 0.67891878
-0.022127112 -0.03211996 0.67891884
-0.022127112 -0.032833725 0.67891872
-0.022127112 -0.03354755 0.67891872
-0.022127112 -0.034261316 0.67891878
-0.022127112 -0.034975082 0.67891884
-0.022127112 -0.035688877 0.67891878
-0.022127112 -0.036402643 0.67891872
-0.022127112 -0.037116438 0.67891878
-0.022127112 -0.037830204 0.67891884
-0.022127112 -0.038543969 0.67891872
-0.022127112 -0.039257765 0.67891872
-0.022127112 -0.03997153 0.67891878
-0.022127112 -0.040685326 0.67891872
-0.022127112 -0.041399091 0.67891878
-0.022127112 -0.042112857 0.67891878
-0.022127112 -0.042826653 0.67891878
-0.022127112 -0.043540418 0.67891878
-0.022127112 -0.044254184 0.67891872
-0.022127112 -0.044967979 0.67891878
-0.022127112 -0.045681775 0.67891878
-0.022127112 -0.04639554 0.67891878
-0.022127112 -0.047109306 0.67891872
-0.022127112 -0.047823101 0.67891878
-0.022127112 -0.048536897 0.67891878
-0.022127112 -0.049250662 0.67891878
-0.022127112 -0.049964428 0.67891872
-0.022127112 -0.050678194 0.67891878
-0.022127112 -0.051391989 0.67891884
-0.022127112 -0.052105784 0.67891878
-0.022127112 -0.05281952 0.67891878
-0.022127112 -0.053533316 0.67891878
-0.022127112 -0.054247111 0.67891878
-0.022127112 -0.054960877 0.67891872
-0.022127112 -0.055674642 0.67891878
-0.022127112 -0.056388408 0.67891878
-0.022127112 -0.057102233 0.67891878
-0.022127112 -0.057815969 0.67891872
-0.022127112 -0.058529764 0.67891878
-0.022127112 -0.05924353 0.67891884
-0.022127112 -0.059957355 0.67891878
-0.022127112 -0.060671091 0.67891872
-0.022127112 -0.061384887 0.67891878
-0.022127112 -0.062098652 0.67891884
-0.022127112 -0.062812448 0.67891878
-0.022127112 -0.063526213 0.67891872
-0.022127112 -0.064239979 0.67891878
-0.022127112 -0.064953774 0.67891884
-0.034653202 0.068151325 0.785465
-0.033884902 0.065510839 0.77928215
-0.033149928 0.062984914 0.77336752
-0.03244631 0.060566455 0.76770532
-0.031771801 0.058248341 0.76227725
-0.031124897 0.056024849 0.75707138
-0.030503681 0.053889841 0.75207227
-0.02990678 0.051838428 0.74726868
-0.02933291 0.049865961 0.74265057
-0.028780533 0.047967583 0.73820537
-0.028248688 0.046139508 0.73392546
-0.027736032 0.044377685 0.72979987
-0.027241759 0.042678803 0.72582227
-0.026764693 0.041039228 0.72198313
-0.026304046 0.039456069 0.7182762
-0.025859082 0.037926674 0.71469545
-0.025428832 0.036448061 0.71123296
-0.025012754 0.035017878 0.70788467
-0.024609985 0.033633709 0.70464337
-0.024219982 0.03229329 0.70150495
-0.023842229 0.030994922 0.69846499
-0.023475999 0.02973628 0.69551784
-0.023120927 0.028515816 0.69266039
-0.02277636 0.02733168 0.68988752
-0.022441914 0.026182264 0.68719614
-0.022117218 0.025066167 0.68458325
-0.021801716 0.023981899 0.68204421
-0.021495152 0.022928178 0.67957717
-0.021342671 0.022054136 0.67835009
-0.021342671 0.021342695 0.67835009
-0.021342671 0.020631254 0.67835009
-0.021342671 0.019919842 0.67835009
-0.021342671 0.019208431 0.67835009
-0.021342671 0.01849699 0.67835009
-0.021342671 0.017785579 0.67835009
-0.021342671 0.017074168 0.67835015
-0.021342671 0.016362727 0.67835009
-0.021342671 0.015651286 0.67835009
-0.021342671 0.014939874 0.67835015
-0.021342671 0.014228463 0.67835009
-0.021342671 0.013517052 0.67835009
-0.021342671 0.012805611 0.67835015
-0.021342671 0.0120942 0.67835009
-0.021342671 0.011382788 0.67835015
-0.021342671 0.010671347 0.67835015
-0.021342671 0.0099599063 0.67835009
-0.021342671 0.0092485249 0.67835009
-0.021342671 0.0085370839 0.67835015
-0.021342671 0.0078256726 0.67835009
-0.021342671 0.0071142018 0.67835015
-0.021342671 0.0064028203 0.67835009
-0.021342671 0.0056913793 0.67835009
-0.021342671 0.0049799979 0.67835009
-0.021342671 0.0042685866 0.67835009
-0.021342671 0.0035571456 0.67835009
-0.021342671 0.0028457046 0.67835009
-0.021342671 0.0021342933 0.67835009
-0.021342671 0.0014228821 0.67835009
-0.021342671 0.00071144104 0.67835009
-0.021342671 -0 0.67835009
-0.021342671 -0.00071141124 0.67835009
-0.021342671 -0.0014228225 0.67835009
-0.021342671 -0.0021342635 0.67835009
-0.021342671 -0.0028456748 0.67835015
-0.021342671 -0.003557086 0.67835009
-0.021342671 -0.004268527 0.67835009
-0.021342671 -0.0049799383 0.67835015
-0.021342671 -0.0056913495 0.67835009
-0.021342671 -0.0064027905 0.67835015
-0.021342671 -0.0071142316 0.67835009
-0.021342671 -0.0078256428 0.67835009
-0.021342671 -0.0085370243 0.67835009
-0.021342671 -0.0092484951 0.67835015
-0.021342671 -0.0099598765 0.67835009
-0.021342671 -0.010671318 0.67835015
-0.021342671 -0.011382729 0.67835009
-0.021342671 -0.0120942 0.67835015
-0.021342671 -0.012805581 0.67835009
-0.021342671 -0.013516963 0.67835009
-0.021342671 -0.014228433 0.67835009
-0.021342671 -0.014939845 0.67835009
-0.021342671 -0.015651256 0.67835009
-0.021342671 -0.016362697 0.67835009
-0.021342671 -0.017074108 0.67835009
-0.021342671 -0.017785519 0.67835009
-0.021342671 -0.01849696 0.67835009
-0.021342671 -0.019208401 0.67835009
-0.021342671 -0.019919813 0.67835009
-0.021342671 -0.020631254 0.67835009
-0.021342671 -0.021342665 0.67835009
-0.021342671 -0.022054106 0.67835015
-0.021342671 -0.022765487 0.67835009
-0.021342671 -0.023476899 0.67835009
-0.021342671 -0.02418834 0.67835015
-0.021342671 -0.024899781 0.67835009
-0.021342671 -0.025611192 0.67835015
-0.021342671 -0.026322603 0.67835015
-0.021342671 -0.027034044 0.67835009
-0.021342671 -0.027745485 0.67835009
-0.021342671 -0.028456897 0.67835009
-0.021342671 -0.029168308 0.67835009
-0.021342671 -0.029879749 0.67835015
-0.021342671 -0.03059113 0.67835009
-0.021342671 -0.031302571 0.67835009
-0.021342671 -0.032013983 0.67835009
-0.021342671 -0.032725394 0.67835009
-0.021342671 -0.033436805 0.67835009
-0.021342671 -0.034148246 0.67835009
-0.021342671 -0.034859687 0.67835009
-0.021342671 -0.035571098 0.67835009
-0.021342671 -0.03628251 0.67835009
-0.021342671 -0.036993951 0.67835009
-0.021342671 -0.037705362 0.67835009
-0.021342671 -0.038416773 0.67835009
-0.021342671 -0.039128244 0.67835009
-0.021342671 -0.039839655 0.67835015
-0.021342671 -0.040551066 0.67835009
-0.021342671 -0.041262478 0.67835009
-0.021342671 -0.041973919 0.67835009
-0.021342671 -0.04268533 0.67835009
-0.021342671 -0.043396741 0.67835015
-0.021342671 -0.044108182 0.67835015
-0.021342671 -0.044819593 0.67835009
-0.021342671 -0.045530975 0.67835009
-0.021342671 -0.046242446 0.67835009
-0.021342671 -0.046953887 0.67835015
-0.021342671 -0.047665268 0.67835009
-0.021342671 -0.048376679 0.67835009
-0.021342671 -0.04908818 0.67835009
-0.021342671 -0.049799562 0.67835009
-0.021342671 -0.050510943 0.67835009
-0.021342671 -0.051222384 0.67835009
-0.021342671 -0.051933795 0.67835009
-0.021342671 -0.052645206 0.67835009
-0.021342671 -0.053356647 0.67835009
-0.021342671 -0.054068089 0.67835009
-0.021342671 -0.0547795 0.67835009
-0.021342671 -0.055490911 0.67835009
-0.021342671 -0.056202352 0.67835009
-0.021342671 -0.056913793 0.67835009
-0.021342671 -0.057625204 0.67835015
-0.021342671 -0.058336616 0.67835009
-0.021342671 -0.059048057 0.67835009
-0.021342671 -0.059759468 0.67835009
-0.021342671 -0.060470879 0.67835009
-0.021342671 -0.06118229 0.67835015
-0.021342671 -0.061893731 0.67835015
-0.021342671 -0.062605143 0.67835009
-0.021342671 -0.063316554 0.67835003
-0.021342671 -0.064028025 0.67835009
-0.021342671 -0.064739436 0.67835015
-0.021342607 -0.065450639 0.67834955
-0.033122588 0.066245198 0.78233886
-0.032396272 0.063675463 0.7762925
-0.031701274 0.061216265 0.77050668
-0.031035328 0.058860123 0.76496279
-0.030396789 0.056600928 0.75964701
-0.029784122 0.054433078 0.75454664
-0.029195538 0.05235064 0.74964678
-0.028629888 0.050349146 0.74493778
-0.028085627 0.048423529 0.74040687
-0.02756178 0.046569943 0.73604596
-0.027057013 0.044784039 0.73184377
-0.026570398 0.043062419 0.7277928
-0.026101081 0.041401714 0.72388577
-0.025647957 0.039798588 0.72011358
-0.025210392 0.038250268 0.71647084
-0.024787415 0.036753803 0.71294963
-0.024378398 0.035306662 0.70954466
-0.023982743 0.033906639 0.70625091
-0.023599645 0.032551259 0.70306158
-0.023228673 0.031238616 0.69997334
-0.022869106 0.029966444 0.69698006
-0.022520503 0.028733075 0.69407791
-0.02218244 0.027536839 0.69126356
-0.021854304 0.02637589 0.68853188
-0.021535803 0.025248885 0.68588042
-0.021226387 0.024154186 0.68330461
-0.020925738 0.023090512 0.68080175
-0.020633547 0.02205655 0.67836928
-0.02056339 0.02127251 0.67778522
-0.02056339 0.020563394 0.67778522
-0.020563327 0.019854248 0.67778468
-0.020563327 0.019145221 0.67778468
-0.020563327 0.018436104 0.67778468
-0.020563327 0.017727017 0.67778468
-0.020563327 0.017017931 0.67778468
-0.020563327 0.016308874 0.67778468
-0.020563327 0.015599787 0.67778468
-0.020563327 0.014890701 0.67778468
-0.020563327 0.014181614 0.67778468
-0.020563327 0.013472557 0.67778468
-0.020563327 0.01276347 0.67778468
-0.020563327 0.012054384 0.67778468
-0.020563327 0.011345327 0.67778468
-0.020563327 0.01063621 0.67778468
-0.020563327 0.0099271536 0.67778468
-0.020563327 0.0092180669 0.67778468
-0.020563327 0.0085089803 0.67778468
-0.020563327 0.0077999234 0.67778468
-0.020563327 0.0070908368 0.67778468
-0.020563327 0.0063817203 0.67778468
-0.020563327 0.0056726635 0.67778468
-0.020563327 0.004963547 0.67778468
-0.020563327 0.0042544901 0.67778468
-0.020563327 0.0035454035 0.67778468
-0.020563327 0.0028363764 0.67778468
-0.020563327 0.00212726 0.67778468
-0.020563327 0.0014181733 0.67778468
-0.020563327 0.00070908666 0.67778468
-0.020563327 -0 0.67778468
-0.020563327 -0.00070908666 0.67778468
-0.020563327 -0.0014181435 0.67778468
-0.020563327 -0.0021272004 0.67778468
-0.020563327 -0.0028363168 0.67778468
-0.020563327 -0.0035454035 0.67778468
-0.020563327 -0.0042544603 0.67778468
-0.020563327 -0.0049635768 0.67778468
-0.020563327 -0.0056726336 0.67778468
-0.020563327 -0.0063816905 0.67778468
-0.020563327 -0.0070907772 0.67778468
-0.020563327 -0.0077998638 0.67778468
-0.020563327 -0.0085089207 0.67778468
-0.020563327 -0.0092180669 0.67778468
-0.020563327 -0.0099271238 0.67778468
-0.020563327 -0.010636181 0.67778468
-0.020563327 -0.011345237 0.67778468
-0.020563327 -0.012054354 0.67778468
-0.020563327 -0.012763411 0.67778468
-0.020563327 -0.013472497 0.67778468
-0.020563327 -0.014181614 0.67778468
-0.020563327 -0.014890671 0.67778468
-0.020563327 -0.015599757 0.67778468
-0.020563327 -0.016308784 0.67778468
-0.020563327 -0.017017901 0.67778468
-0.020563327 -0.017726988 0.67778468
-0.020563327 -0.018436044 0.67778468
-0.020563327 -0.019145161 0.67778468
-0.020563327 -0.019854248 0.67778468
-0.020563327 -0.020563304 0.67778468
-0.020563327 -0.021272361 0.67778462
-0.020563327 -0.021981478 0.67778468
-0.020563327 -0.022690535 0.67778468
-0.020563327 -0.023399651 0.67778468
-0.020563327 -0.024108708 0.67778468
-0.020563327 -0.024817824 0.67778468
-0.020563327 -0.025526881 0.67778468
-0.020563327 -0.026235938 0.67778468
-0.020563327 -0.026945025 0.67778468
-0.020563327 -0.027654141 0.67778474
-0.020563327 -0.028363198 0.67778474
-0.020563327 -0.029072285 0.67778468
-0.020563327 -0.029781371 0.67778468
-0.020563327 -0.030490458 0.67778468
-0.020563327 -0.031199515 0.67778468
-0.020563327 -0.031908572 0.67778468
-0.020563327 -0.032617688 0.67778468
-0.020563327 -0.033326775 0.67778468
-0.020563327 -0.034035832 0.67778468
-0.020563327 -0.034744889 0.67778468
-0.020563327 -0.035454035 0.67778468
-0.020563327 -0.036163092 0.67778468
-0.020563327 -0.036872119 0.67778468
-0.020563327 -0.037581235 0.67778468
-0.020563327 -0.038290322 0.67778468
-0.020563327 -0.038999379 0.67778468
-0.020563327 -0.039708465 0.67778468
-0.020563327 -0.040417582 0.67778468
-0.020563327 -0.041126639 0.67778468
-0.020563327 -0.041835725 0.67778468
-0.020563327 -0.042544782 0.67778468
-0.020563327 -0.043253869 0.67778468
-0.020563327 -0.043962955 0.67778468
-0.020563327 -0.044672042 0.67778468
-0.020563327 -0.045381129 0.67778468
-0.020563327 -0.046090215 0.67778468
-0.020563327 -0.046799272 0.67778474
-0.020563327 -0.047508359 0.67778468
-0.020563327 -0.048217446 0.67778468
-0.020563327 -0.048926502 0.67778468
-0.020563327 -0.049635619 0.67778468
-0.020563327 -0.050344676 0.67778468
-0.020563327 -0.051053792 0.67778468
-0.020563327 -0.051762849 0.67778468
-0.020563327 -0.052471906 0.67778468
-0.020563327 -0.053180993 0.67778468
-0.020563327 -0.053890109 0.67778468
-0.020563327 -0.054599166 0.67778468
-0.020563327 -0.055308253 0.67778468
-0.020563327 -0.056017369 0.67778474
-0.020563327 -0.056726396 0.67778468
-0.020563327 -0.057435483 0.67778468
-0.020563327 -0.05814454 0.67778468
-0.020563327 -0.058853656 0.67778468
-0.020563327 -0.059562743 0.67778468
-0.020563327 -0.060271829 0.67778468
-0.020563327 -0.060980886 0.67778468
-0.020563327 -0.061689973 0.67778468
-0.020563327 -0.06239903 0.67778468
-0.020563327 -0.063108087 0.67778468
-0.020563327 -0.063817203 0.67778468
-0.020563327 -0.06452629 0.67778468
-0.020563327 -0.065235376 0.67778474
-0.020563327 -0.065944463 0.67778468
-0.032342989 0.066996217 0.785465
-0.031625904 0.064381301 0.77928221
-0.030940078 0.061880171 0.77336884
-0.030283222 0.059484959 0.76770532
-0.02965368 0.057189256 0.76227725
-0.029049905 0.054987341 0.75707138
-0.028470105 0.052873045 0.75207222
-0.027913112 0.050841749 0.74726975
-0.027377382 0.048888206 0.74265057
-0.02686183 0.047008216 0.73820543
-0.02636544 0.045197934 0.73392546
-0.025886964 0.043453127 0.72979993
-0.025425643 0.041770726 0.72582233
-0.024980379 0.040147066 0.72198313
-0.024550442 0.038579285 0.71827614
-0.024135144 0.037064701 0.71469539
-0.023733577 0.035600394 0.71123302
-0.023345236 0.034184098 0.70788467
-0.022969319 0.032813311 0.70464343
-0.022605317 0.031486005 0.70150489
-0.022252746 0.030200183 0.69846499
-0.021910932 0.028953761 0.69551784
-0.021579532 0.027745128 0.69266039
-0.021257937 0.026572436 0.68988758
-0.020945787 0.025434196 0.68719614
-0.020642735 0.024328947 0.68458319
-0.020348268 0.023255169 0.68204421
-0.020062143 0.022211641 0.67957717
-0.019789159 0.021202713 0.67722344
-0.019789159 0.020495951 0.6772235
-0.019789159 0.019789159 0.6772235
-0.019789159 0.019082397 0.6772235
-0.019789159 0.018375635 0.6772235
-0.019789159 0.017668933 0.67722344
-0.019789159 0.016962171 0.67722344
-0.019789159 0.016255379 0.67722344
-0.019789159 0.015548646 0.67722344
-0.019789159 0.014841884 0.67722344
-0.019789159 0.014135152 0.67722344
-0.019789159 0.01342839 0.67722344
-0.019789159 0.012721628 0.67722344
-0.019789159 0.012014836 0.6772235
-0.019789159 0.011308074 0.6772235
-0.019789159 0.010601372 0.67722344
-0.019789159 0.0098946095 0.67722344
-0.019789159 0.0091878474 0.6772235
-0.019789159 0.0084810853 0.67722344
-0.019789159 0.0077743232 0.67722344
-0.019789159 0.007067591 0.67722344
-0.019789159 0.0063608289 0.67722344
-0.019789159 0.0056540668 0.6772235
-0.019789159 0.0049473047 0.6772235
-0.019789159 0.0042405128 0.6772235
-0.019789159 0.0035338104 0.67722344
-0.019789159 0.0028270483 0.67722344
-0.019789159 0.0021202862 0.6772235
-0.019789159 0.001413554 0.67722344
-0.019789159 0.00070679188 0.67722344
-0.019789159 2.9802322e-08 0.67722344
-0.019789159 -0.00070673227 0.6772235
-0.019789159 -0.0014134943 0.6772235
-0.019789159 -0.0021202564 0.6772235
-0.019789159 -0.0028270185 0.6772235
-0.019789159 -0.0035337508 0.67722344
-0.019789159 -0.0042405128 0.6772235
-0.019789159 -0.0049472749 0.6772235
-0.019789159 -0.005654037 0.6772235
-0.019789159 -0.0063607693 0.67722344
-0.019789159 -0.0070675015 0.67722344
-0.019789159 -0.0077742934 0.6772235
-0.019789159 -0.0084810555 0.67722344
-0.019789159 -0.0091878176 0.6772235
-0.019789159 -0.0098945796 0.6772235
-0.019789159 -0.010601312 0.6772235
-0.019789159 -0.011308074 0.67722344
-0.019789159 -0.012014836 0.67722344
-0.019789159 -0.012721598 0.6772235
-0.019789159 -0.01342833 0.67722344
-0.019789159 -0.014135092 0.67722344
-0.019789159 -0.014841825 0.67722344
-0.019789159 -0.015548617 0.6772235
-0.019789159 -0.016255379 0.6772235
-0.019789159 -0.016962141 0.6772235
-0.019789159 -0.017668873 0.67722344
-0.019789159 -0.018375605 0.67722344
-0.019789159 -0.019082397 0.6772235
-0.019789159 -0.019789159 0.6772235
-0.019789159 -0.020495892 0.67722344
-0.019789159 -0.021202654 0.67722344
-0.019789159 -0.021909386 0.67722344
-0.019789159 -0.022616148 0.67722344
-0.019789159 -0.02332294 0.67722344
-0.019789159 -0.024029702 0.6772235
-0.019789159 -0.024736434 0.6772235
-0.019789159 -0.025443166 0.67722344
-0.019789159 -0.026149929 0.67722344
-0.019789159 -0.026856691 0.67722344
-0.019789159 -0.027563453 0.67722344
-0.019789159 -0.028270215 0.67722344
-0.019789159 -0.028976947 0.67722344
-0.019789159 -0.029683709 0.67722344
-0.019789159 -0.030390471 0.67722344
-0.0197891 -0.031097144 0.67722297
-0.0197891 -0.031803906 0.67722297
-0.0197891 -0.032510638 0.67722303
-0.0197891 -0.0332174 0.67722297
-0.0197891 -0.033924133 0.67722297
-0.0197891 -0.034630895 0.67722297
-0.0197891 -0.035337657 0.67722297
-0.0197891 -0.036044419 0.67722297
-0.0197891 -0.036751181 0.67722297
-0.0197891 -0.037457913 0.67722297
-0.0197891 -0.038164645 0.67722297
-0.0197891 -0.038871437 0.67722297
-0.0197891 -0.039578199 0.67722297
-0.0197891 -0.040284932 0.67722297
-0.0197891 -0.040991694 0.67722291
-0.0197891 -0.041698456 0.67722297
-0.0197891 -0.042405218 0.67722297
-0.0197891 -0.04311195 0.67722297
-0.0197891 -0.043818682 0.67722291
-0.0197891 -0.044525445 0.67722297
-0.0197891 -0.045232207 0.67722297
-0.0197891 -0.045938969 0.67722297
-0.0197891 -0.046645701 0.67722291
-0.0197891 -0.047352463 0.67722297
-0.0197891 -0.048059225 0.67722297
-0.0197891 -0.048765987 0.67722297
-0.0197891 -0.049472719 0.67722297
-0.0197891 -0.050179511 0.67722297
-0.0197891 -0.050886244 0.67722297
-0.0197891 -0.051593006 0.67722297
-0.0197891 -0.052299768 0.67722297
-0.0197891 -0.0530065 0.67722297
-0.0197891 -0.053713262 0.67722291
-0.0197891 -0.054420024 0.67722297
-0.0197891 -0.055126756 0.67722297
-0.0197891 -0.055833519 0.67722297
-0.0197891 -0.056540251 0.67722297
-0.0197891 -0.057247013 0.67722297
-0.0197891 -0.057953775 0.67722297
-0.0197891 -0.058660537 0.67722297
-0.0197891 -0.059367269 0.67722291
-0.0197891 -0.060074002 0.67722297
-0.0197891 -0.060780793 0.67722297
-0.0197891 -0.061487556 0.67722297
-0.0197891 -0.062194318 0.67722297
-0.0197891 -0.06290108 0.67722297
-0.0197891 -0.063607782 0.67722297
-0.0197891 -0.064314544 0.67722297
-0.0197891 -0.065021336 0.67722297
-0.0197891 -0.065728068 0.67722291
-0.0197891 -0.06643483 0.67722297
-0.031545356 0.067764103 0.78866136
-0.03083827 0.065103024 0.78233892
-0.030162048 0.062558353 0.77629244
-0.02951498 0.060123116 0.77050662
-0.028894963 0.057789922 0.76496279
-0.028300583 0.055553019 0.75964808
-0.027730044 0.05340606 0.75454664
-0.027182054 0.051343888 0.74964672
-0.026655415 0.049361885 0.74493778
-0.026148688 0.047455013 0.74040687
-0.025660967 0.045619518 0.73604596
-0.025191013 0.043851018 0.73184383
-0.02473796 0.042146176 0.72779286
-0.024301006 0.040501714 0.72388577
-0.023879133 0.038914174 0.72011358
-0.023471743 0.037380934 0.7164709
-0.023077937 0.035899043 0.71294963
-0.02269713 0.034466028 0.70954466
-0.02232876 0.033079684 0.70625091
-0.021972083 0.031737477 0.70306164
-0.021626696 0.030437559 0.69997334
-0.021291927 0.029177874 0.69698
-0.020967364 0.027956545 0.69407791
-0.020652615 0.026771933 0.69126356
-0.020347111 0.025622308 0.68853188
-0.020050576 0.024506271 0.68588048
-0.019762499 0.023422241 0.68330455
-0.019482642 0.022368968 0.68080223
-0.019210545 0.021345079 0.67836922
-0.019019993 0.020428896 0.67666543
-0.019019993 0.019724488 0.67666543
-0.019019993 0.019020021 0.67666543
-0.019019993 0.018315524 0.67666548
-0.019019993 0.017611086 0.67666543
-0.019019993 0.016906679 0.67666543
-0.019019993 0.016202211 0.67666543
-0.019019993 0.015497774 0.67666543
-0.019019993 0.014793336 0.67666543
-0.019019993 0.014088869 0.67666543
-0.019019993 0.013384461 0.67666543
-0.019019993 0.012680024 0.67666543
-0.019019993 0.011975557 0.67666543
-0.019019993 0.011271089 0.67666548
-0.019019993 0.010566682 0.67666543
-0.019019993 0.0098622441 0.67666543
-0.019019993 0.0091577768 0.67666543
-0.019019993 0.0084533393 0.67666543
-0.019019993 0.0077489316 0.67666543
-0.019019993 0.0070444643 0.67666543
-0.019019993 0.0063400269 0.67666543
-0.019019993 0.0056355596 0.67666543
-0.019019993 0.0049311519 0.67666543
-0.019019993 0.0042266846 0.67666543
-0.019019993 0.0035222471 0.67666543
-0.019019993 0.0028178096 0.67666543
-0.019019993 0.0021133721 0.67666543
-0.019019993 0.0014089346 0.67666543
-0.019019993 0.0007044673 0.67666548
-0.019019993 2.9802322e-08 0.67666543
-0.019019993 -0.00070440769 0.67666543
-0.019019993 -0.001408875 0.67666543
-0.019019993 -0.0021133125 0.67666543
-0.019019993 -0.0028177798 0.67666543
-0.019019993 -0.0035222173 0.67666543
-0.019019993 -0.0042266548 0.67666543
-0.019019993 -0.0049311221 0.67666543
-0.019019993 -0.0056355298 0.67666543
-0.019019993 -0.0063399971 0.67666543
-0.019019993 -0.0070444047 0.67666543
-0.019019993 -0.0077489018 0.67666543
-0.019019993 -0.0084533393 0.67666543
-0.019019993 -0.009157747 0.67666543
-0.019019993 -0.0098622143 0.67666543
-0.019019993 -0.010566652 0.67666543
-0.019019993 -0.011271119 0.67666543
-0.019019993 -0.011975527 0.67666543
-0.019019993 -0.012679994 0.67666548
-0.019019993 -0.013384432 0.67666543
-0.019019993 -0.014088869 0.67666543
-0.019019993 -0.014793307 0.67666543
-0.019019993 -0.015497744 0.67666543
-0.019019993 -0.016202182 0.67666543
-0.019019993 -0.016906649 0.67666543
-0.019019993 -0.017611057 0.67666543
-0.019019993 -0.018315524 0.67666543
-0.019019993 -0.019019961 0.67666543
-0.019019993 -0.019724429 0.67666543
-0.019019993 -0.020428866 0.67666543
-0.019019993 -0.021133274 0.67666543
-0.019019993 -0.021837741 0.67666543
-0.019019993 -0.022542179 0.67666543
-0.019019993 -0.023246676 0.67666543
-0.019019993 -0.023951083 0.67666543
-0.019019993 -0.024655551 0.67666543
-0.019019993 -0.025359988 0.67666548
-0.019019993 -0.026064426 0.67666543
-0.019019993 -0.026768863 0.67666548
-0.019019993 -0.027473301 0.67666543
-0.019019993 -0.028177738 0.67666543
-0.019019993 -0.028882205 0.67666543
-0.019019993 -0.029586613 0.67666543
-0.019019993 -0.03029108 0.67666548
-0.019019993 -0.030995548 0.67666543
-0.019019993 -0.031699985 0.67666548
-0.019019993 -0.032404393 0.67666543
-0.019019993 -0.03310883 0.67666543
-0.019019993 -0.033813328 0.67666543
-0.019019993 -0.034517735 0.67666543
-0.019019993 -0.035222173 0.67666543
-0.019019993 -0.03592664 0.67666543
-0.019019993 -0.036631107 0.67666543
-0.019019993 -0.037335545 0.67666543
-0.019019993 -0.038039953 0.67666543
-0.019019993 -0.03874442 0.67666543
-0.019019993 -0.039448857 0.67666543
-0.019019993 -0.040153295 0.67666537
-0.019019993 -0.040857732 0.67666543
-0.019019993 -0.04156217 0.67666543
-0.019019993 -0.042266637 0.67666543
-0.019019993 -0.042971075 0.67666543
-0.019019993 -0.043675512 0.67666543
-0.019019993 -0.04437995 0.67666543
-0.019019993 -0.045084417 0.67666537
-0.019019993 -0.045788884 0.67666543
-0.019019993 -0.046493292 0.67666543
-0.019019993 -0.047197729 0.67666543
-0.019019993 -0.047902197 0.67666543
-0.019019993 -0.048606664 0.67666548
-0.019019993 -0.049311101 0.67666548
-0.019019993 -0.050015509 0.67666543
-0.019019993 -0.050719976 0.67666548
-0.019019993 -0.051424414 0.67666543
-0.019019993 -0.052128851 0.67666543
-0.019019993 -0.052833289 0.67666543
-0.019019993 -0.053537726 0.67666543
-0.019019993 -0.054242194 0.67666543
-0.019019993 -0.054946631 0.67666543
-0.019019993 -0.055651069 0.67666548
-0.019019993 -0.056355506 0.67666543
-0.019019993 -0.057059944 0.67666543
-0.019019993 -0.057764411 0.67666543
-0.019019993 -0.058468819 0.67666543
-0.019019993 -0.059173256 0.67666543
-0.019019993 -0.059877753 0.67666543
-0.019019993 -0.060582191 0.67666548
-0.019019993 -0.061286628 0.67666543
-0.019019993 -0.061991036 0.67666543
-0.019019993 -0.062695533 0.67666543
-0.019019993 -0.063399941 0.67666543
-0.019019993 -0.064104378 0.67666537
-0.019019993 -0.064808846 0.67666543
-0.019064497 -0.065666556 0.67706335
-0.019176936 -0.066764146 0.67806876
-0.030032776 0.065841109 0.785465
-0.029366914 0.063251823 0.77928215
-0.028729936 0.060774893 0.77336758
-0.028120136 0.058403403 0.76770532
-0.02753556 0.056130201 0.76227725
-0.026974913 0.053949833 0.75707138
-0.026436524 0.051856279 0.75207222
-0.025919318 0.049844891 0.74726975
-0.025421854 0.047910452 0.74265057
-0.024943128 0.046048909 0.73820543
-0.024482196 0.0442563 0.7339254
-0.024037896 0.0425286 0.72979987
-0.023609525 0.04086265 0.72582233
-0.023196066 0.039254904 0.72198313
-0.022796839 0.037702471 0.7182762
-0.022411205 0.036202699 0.71469545
-0.022038322 0.034752756 0.71123302
-0.021677718 0.033350348 0.70788467
-0.021328654 0.031993002 0.70464349
-0.020990651 0.030678689 0.70150495
-0.020663265 0.029405415 0.69846499
-0.020345867 0.028171241 0.69551778
-0.020038137 0.02697441 0.69266045
-0.019739512 0.025813222 0.68988752
-0.019449659 0.024686098 0.68719614
-0.019168256 0.023591727 0.68458319
-0.01889482 0.02252844 0.68204421
-0.018629132 0.021495163 0.67957723
-0.018370757 0.020490468 0.67717808
-0.018255895 0.019660234 0.67611152
-0.018255895 0.018958092 0.67611152
-0.018255895 0.018255919 0.67611146
-0.018255895 0.017553747 0.67611158
-0.018255895 0.016851574 0.67611152
-0.018255895 0.016149491 0.67611152
-0.018255895 0.015447319 0.67611152
-0.018255895 0.014745176 0.67611152
-0.018255895 0.014042974 0.67611158
-0.018255895 0.01334089 0.67611152
-0.018255895 0.012638718 0.67611152
-0.018255895 0.011936545 0.67611152
-0.018255895 0.011234432 0.67611152
-0.018255895 0.01053229 0.67611152
-0.018255895 0.0098301172 0.67611152
-0.018255895 0.0091279447 0.67611152
-0.018255843 0.008425802 0.67611104
-0.018255843 0.0077236295 0.67611104
-0.018255843 0.0070214868 0.67611098
-0.018255843 0.0063193738 0.67611098
-0.018255843 0.0056172013 0.67611098
-0.018255843 0.0049150586 0.67611104
-0.018255843 0.0042128861 0.67611098
-0.018255843 0.0035107434 0.67611104
-0.018255843 0.0028086007 0.67611098
-0.018255843 0.0021064878 0.67611098
-0.018255843 0.0014042854 0.67611104
-0.018255843 0.00070217252 0.67611098
-0.018255843 2.9802322e-08 0.67611104
-0.018255843 -0.00070214272 0.67611098
-0.018255843 -0.0014042854 0.67611098
-0.018255843 -0.0021064281 0.67611104
-0.018255843 -0.0028085411 0.67611098
-0.018255843 -0.0035107434 0.67611104
-0.018255843 -0.0042129159 0.67611104
-0.018255843 -0.004914999 0.67611104
-0.018255843 -0.0056171417 0.67611104
-0.018255843 -0.0063193142 0.67611098
-0.018255843 -0.0070214868 0.67611104
-0.018255843 -0.0077235997 0.67611098
-0.018255843 -0.0084257722 0.67611104
-0.018255843 -0.0091279149 0.67611104
-0.018255843 -0.0098300278 0.67611104
-0.018255843 -0.010532171 0.67611104
-0.018255843 -0.011234343 0.67611098
-0.018255843 -0.011936545 0.67611104
-0.018255843 -0.012638628 0.67611098
-0.018255843 -0.013340771 0.67611104
-0.018255843 -0.014042944 0.67611098
-0.018255843 -0.014745086 0.67611104
-0.018255843 -0.015447229 0.67611104
-0.018255843 -0.016149372 0.67611098
-0.018255843 -0.016851544 0.67611104
-0.018255843 -0.017553657 0.67611104
-0.018255843 -0.01825583 0.67611104
-0.018255843 -0.018957973 0.67611104
-0.018255843 -0.019660115 0.67611098
-0.018255843 -0.020362258 0.67611104
-0.018255843 -0.021064401 0.67611098
-0.018255843 -0.021766573 0.67611104
-0.018255843 -0.022468716 0.67611104
-0.018255843 -0.023170859 0.67611104
-0.018255843 -0.023873031 0.67611098
-0.018255843 -0.024575144 0.67611098
-0.018255843 -0.025277287 0.67611098
-0.018255843 -0.025979459 0.67611104
-0.018255843 -0.026681602 0.67611104
-0.018255843 -0.027383745 0.67611098
-0.018255843 -0.028085917 0.67611098
-0.018255843 -0.02878803 0.67611098
-0.018255843 -0.029490143 0.67611104
-0.018255843 -0.030192345 0.67611104
-0.018255843 -0.030894518 0.67611104
-0.018255843 -0.031596661 0.67611104
-0.018255843 -0.032298774 0.67611104
-0.018255843 -0.033000916 0.67611104
-0.018255843 -0.033703059 0.67611104
-0.018255843 -0.034405202 0.67611098
-0.018255843 -0.035107374 0.67611104
-0.018255843 -0.035809547 0.67611104
-0.018255843 -0.036511689 0.67611104
-0.018255843 -0.037213802 0.67611098
-0.018255843 -0.037915945 0.67611098
-0.018255843 -0.038618147 0.67611104
-0.018255843 -0.03932023 0.67611098
-0.018255843 -0.040022433 0.67611098
-0.018255843 -0.040724546 0.67611098
-0.018255843 -0.041426718 0.67611098
-0.018255843 -0.042128831 0.67611104
-0.018255843 -0.042831004 0.67611104
-0.018255843 -0.043533176 0.6761111
-0.018255843 -0.044235289 0.67611098
-0.018255843 -0.044937432 0.67611104
-0.018255843 -0.045639575 0.67611104
-0.018255843 -0.046341717 0.67611104
-0.018255843 -0.04704386 0.67611104
-0.018255843 -0.047746032 0.67611098
-0.018255843 -0.048448205 0.67611104
-0.018255843 -0.049150318 0.67611104
-0.018255843 -0.049852461 0.67611104
-0.018255843 -0.050554633 0.67611098
-0.018255843 -0.051256746 0.67611098
-0.018255843 -0.051958919 0.67611098
-0.018255843 -0.052661031 0.67611098
-0.018255843 -0.053363234 0.67611098
-0.018255843 -0.054065347 0.67611098
-0.018255843 -0.054767519 0.67611104
-0.018255843 -0.055469662 0.67611104
-0.018255843 -0.056171805 0.67611104
-0.018255843 -0.056873947 0.6761111
-0.018255843 -0.05757609 0.67611098
-0.018255843 -0.058278263 0.67611104
-0.018255843 -0.058980376 0.67611104
-0.018255843 -0.059682548 0.67611104
-0.018255843 -0.060384691 0.67611098
-0.018255843 -0.061086804 0.67611098
-0.018255843 -0.061788976 0.67611104
-0.018255843 -0.062491119 0.67611098
-0.018255843 -0.063193291 0.67611104
-0.018284313 -0.063995093 0.67637539
-0.018391712 -0.065078348 0.67737263
-0.018500378 -0.066174418 0.67838162
-0.02920866 0.066595763 0.78866136
-0.028553953 0.06396091 0.78233886
-0.02792782 0.061441243 0.77629244
-0.027328683 0.059029996 0.77050662
-0.026754595 0.05671978 0.76496279
-0.026204126 0.054504603 0.75964701
-0.025675967 0.052378982 0.75454664
-0.025168568 0.050337166 0.74964678
-0.02468094 0.048374653 0.74493784
-0.024211746 0.046486586 0.74040687
-0.023760155 0.044669122 0.73604596
-0.023325011 0.042918026 0.73184383
-0.022905517 0.041229963 0.7277928
-0.02250093 0.039601654 0.72388577
-0.022110308 0.03802973 0.72011364
-0.021733096 0.03651166 0.71647084
-0.021368461 0.035044312 0.71294969
-0.02101586 0.033625364 0.70954466
-0.020674778 0.032252669 0.70625085
-0.020344522 0.030923665 0.70306164
-0.020024719 0.029636621 0.69997334
-0.019714747 0.028389245 0.69698
-0.019414226 0.027179927 0.69407791
-0.019122792 0.026007026 0.69126356
-0.018839918 0.024868697 0.68853188
-0.018565347 0.023763657 0.68588042
-0.018298611 0.022690296 0.68330461
-0.018039484 0.021647394 0.68080223
-0.01778754 0.020633578 0.67836928
-0.017542537 0.019647658 0.67600328
-0.017496707 0.018896461 0.67556071
-0.017496707 0.018196553 0.67556071
-0.017496707 0.017496735 0.67556071
-0.017496707 0.016796857 0.67556071
-0.017496707 0.016096979 0.67556071
-0.017496707 0.015397131 0.67556071
-0.017496707 0.014697254 0.67556071
-0.017496707 0.013997376 0.67556071
-0.017496707 0.013297528 0.67556071
-0.017496707 0.01259765 0.67556071
-0.017496707 0.011897773 0.67556071
-0.017496707 0.011197925 0.67556071
-0.017496707 0.010498047 0.67556071
-0.017496707 0.0097981989 0.67556071
-0.017496707 0.0090983212 0.67556071
-0.017496707 0.0083984435 0.67556071
-0.017496707 0.0076985657 0.67556071
-0.017496707 0.006998688 0.67556077
-0.017496707 0.0062988698 0.67556071
-0.017496707 0.0055989325 0.67556071
-0.017496707 0.0048991144 0.67556065
-0.017496707 0.0041992068 0.67556071
-0.017496707 0.0034993589 0.67556071
-0.017496707 0.0027994812 0.67556071
-0.017496707 0.0020996332 0.67556071
-0.017496707 0.0013997555 0.67556071
-0.017496707 0.00069987774 0.67556071
-0.017496707 2.9802322e-08 0.67556071
-0.017496707 -0.00069984794 0.67556071
-0.017496707 -0.0013997257 0.67556071
-0.017496707 -0.0020995736 0.67556071
-0.017496707 -0.0027994514 0.67556071
-0.017496707 -0.0034993291 0.67556071
-0.017496707 -0.004199177 0.67556071
-0.017496707 -0.0048990548 0.67556071
-0.017496707 -0.0055989325 0.67556071
-0.017496707 -0.0062988102 0.67556071
-0.017496707 -0.0069986582 0.67556071
-0.017496707 -0.0076985657 0.67556071
-0.017496707 -0.0083983839 0.67556071
-0.017496707 -0.0090982914 0.67556071
-0.017496707 -0.0097981393 0.67556071
-0.017496707 -0.010497987 0.67556071
-0.017496707 -0.011197895 0.67556071
-0.017496707 -0.011897743 0.67556071
-0.017496707 -0.01259762 0.67556071
-0.017496707 -0.013297468 0.67556071
-0.017496707 -0.013997346 0.67556071
-0.017496707 -0.014697224 0.67556071
-0.017496707 -0.015397072 0.67556071
-0.017496707 -0.01609695 0.67556071
-0.017496707 -0.016796827 0.67556071
-0.017496707 -0.017496645 0.67556071
-0.017496707 -0.018196583 0.67556071
-0.017496707 -0.018896431 0.67556071
-0.017496707 -0.019596308 0.67556071
-0.017496707 -0.020296156 0.67556071
-0.017496707 -0.020996034 0.67556071
-0.017496707 -0.021695912 0.67556071
-0.017496707 -0.02239579 0.67556071
-0.017496707 -0.023095667 0.67556071
-0.017496707 -0.023795485 0.67556071
-0.017496707 -0.024495393 0.67556071
-0.017496707 -0.025195241 0.67556071
-0.017496707 -0.025895119 0.67556071
-0.017496707 -0.026594967 0.67556071
-0.017496707 -0.027294844 0.67556071
-0.017496707 -0.027994692 0.67556071
-0.017496707 -0.02869457 0.67556071
-0.017496707 -0.029394478 0.67556071
-0.017496707 -0.030094296 0.67556071
-0.017496655 -0.030794084 0.67556024
-0.017496655 -0.031493962 0.67556024
-0.017496655 -0.03219381 0.67556024
-0.017496655 -0.032893717 0.67556024
-0.017496655 -0.033593535 0.67556018
-0.017496655 -0.034293443 0.67556024
-0.017496655 -0.034993291 0.67556018
-0.017496655 -0.035693169 0.67556024
-0.017496655 -0.036393046 0.67556024
-0.017496655 -0.037092924 0.67556024
-0.017496655 -0.037792742 0.67556024
-0.017496655 -0.03849262 0.67556024
-0.017496655 -0.039192498 0.67556024
-0.017496655 -0.039892375 0.67556024
-0.017496655 -0.040592223 0.67556024
-0.017496655 -0.041292101 0.67556024
-0.017496655 -0.041991979 0.67556024
-0.017496655 -0.042691827 0.67556024
-0.017496655 -0.043391705 0.67556024
-0.017496655 -0.044091582 0.67556024
-0.017496655 -0.04479143 0.67556024
-0.017496655 -0.045491278 0.67556024
-0.017496655 -0.046191156 0.67556024
-0.017496655 -0.046891004 0.67556018
-0.017496655 -0.047590882 0.67556018
-0.017496655 -0.048290759 0.67556018
-0.017496655 -0.048990607 0.67556018
-0.017496655 -0.049690485 0.67556024
-0.017496655 -0.050390333 0.67556024
-0.017496655 -0.051090211 0.67556024
-0.017496655 -0.051790059 0.67556024
-0.017496655 -0.052489966 0.67556024
-0.017496655 -0.053189814 0.67556024
-0.017496655 -0.053889662 0.67556024
-0.017496655 -0.05458957 0.67556024
-0.017496655 -0.055289388 0.67556018
-0.017496655 -0.055989295 0.67556024
-0.017496655 -0.056689173 0.67556024
-0.017496655 -0.057389021 0.67556024
-0.017496655 -0.058088869 0.67556024
-0.017496655 -0.058788776 0.67556024
-0.017496655 -0.059488624 0.67556024
-0.017496655 -0.060188502 0.67556018
-0.017496655 -0.06088835 0.67556018
-0.017496655 -0.061588228 0.67556024
-0.017510401 -0.062336981 0.67569292
-0.017612837 -0.063406199 0.67668217
-0.017716533 -0.064488143 0.67768353
-0.017821403 -0.065582752 0.67869627
-0.017927522 -0.066690356 0.67972106
-0.02836558 0.067368299 0.79193324
-0.02772256 0.064685971 0.785465
-0.02710792 0.062122345 0.77928215
-0.026519943 0.059669882 0.77336758
-0.025957048 0.057321876 0.76770526
-0.02541744 0.055071175 0.76227731
-0.02489992 0.052912354 0.75707138
-0.024402946 0.050839514 0.75207222
-0.023925424 0.048847765 0.74726874
-0.023466328 0.046932697 0.74265057
-0.023024427 0.045089483 0.73820543
-0.02259895 0.043314666 0.73392546
-0.022188826 0.041604102 0.72979987
-0.021793406 0.039954573 0.72582233
-0.021411752 0.038362741 0.72198319
-0.021043237 0.036825716 0.71827614
-0.020687267 0.035340786 0.71469533
-0.020343065 0.033905119 0.71123302
-0.020010203 0.032516599 0.70788467
-0.019687988 0.031172663 0.70464337
-0.019375985 0.029871345 0.70150495
-0.019073784 0.028610677 0.69846499
-0.0187808 0.027388692 0.69551778
-0.018496741 0.026203752 0.69266039
-0.01822109 0.025054038 0.68988752
-0.017953532 0.02393806 0.68719614
-0.017693773 0.022854447 0.68458325
-0.017441371 0.02180174 0.68204427
-0.017196123 0.020778656 0.67957723
-0.016957622 0.019783914 0.67717803
-0.016742438 0.018835217 0.67501348
-0.016742438 0.018137693 0.67501348
-0.016742438 0.017440051 0.67501348
-0.016742438 0.016742438 0.67501348
-0.016742438 0.016044855 0.67501354
-0.016742438 0.015347242 0.67501348
-0.016742438 0.01464963 0.67501348
-0.016742438 0.013952047 0.67501348
-0.016742438 0.013254464 0.67501348
-0.016742438 0.012556821 0.67501348
-0.016742438 0.011859238 0.67501342
-0.016742438 0.011161655 0.67501348
-0.016742438 0.010464042 0.67501348
-0.016742438 0.0097664595 0.67501348
-0.016742438 0.0090688467 0.67501348
-0.016742438 0.0083712041 0.67501342
-0.016742438 0.007673651 0.67501342
-0.016742438 0.0069760382 0.67501354
-0.016742438 0.0062784851 0.67501342
-0.016742438 0.0055808127 0.67501348
-0.016742438 0.0048831999 0.67501348
-0.016742438 0.004185617 0.67501348
-0.016742438 0.0034880042 0.67501348
-0.016742438 0.0027904212 0.67501348
-0.016742438 0.0020928383 0.67501354
-0.016742438 0.0013952255 0.67501348
-0.016742438 0.00069761276 0.67501348
-0.016742438 2.9802322e-08 0.67501348
-0.016742438 -0.00069758296 0.67501348
-0.016742438 -0.0013951957 0.67501342
-0.016742438 -0.0020927787 0.67501342
-0.016742438 -0.0027903616 0.67501348
-0.016742438 -0.0034879744 0.67501342
-0.016742438 -0.0041855574 0.67501348
-0.016742438 -0.0048832297 0.67501348
-0.016742438 -0.0055808127 0.67501342
-0.016742438 -0.0062783957 0.67501354
-0.016742438 -0.0069759786 0.67501342
-0.016742438 -0.0076735914 0.67501348
-0.016742438 -0.0083712041 0.67501348
-0.016742438 -0.0090688169 0.67501348
-0.016742438 -0.0097663999 0.67501348
-0.016742438 -0.010464013 0.67501348
-0.016742438 -0.011161596 0.67501348
-0.016742438 -0.011859208 0.67501348
-0.016742438 -0.012556821 0.67501348
-0.016742438 -0.013254404 0.67501348
-0.016742438 -0.013951987 0.67501348
-0.016742438 -0.0146496 0.67501348
-0.016742438 -0.015347242 0.67501342
-0.016742438 -0.016044796 0.67501342
-0.016742438 -0.016742438 0.67501354
-0.016742438 -0.017440021 0.67501342
-0.016742438 -0.018137604 0.67501348
-0.016742438 -0.018835217 0.67501348
-0.016742438 -0.019532859 0.67501348
-0.016742438 -0.020230442 0.67501348
-0.016742438 -0.020928025 0.67501348
-0.016742438 -0.021625608 0.67501348
-0.016742438 -0.022323251 0.67501348
-0.016742438 -0.023020834 0.67501348
-0.016742438 -0.023718417 0.67501348
-0.016742438 -0.024416029 0.67501348
-0.016742438 -0.025113642 0.67501342
-0.016742438 -0.025811225 0.67501348
-0.016742438 -0.026508838 0.67501342
-0.016742438 -0.027206451 0.67501342
-0.016742438 -0.027904004 0.67501342
-0.016742438 -0.028601646 0.67501348
-0.016742438 -0.029299259 0.67501342
-0.016742438 -0.029996872 0.67501348
-0.016742438 -0.030694425 0.67501348
-0.016742438 -0.031392068 0.67501348
-0.016742438 -0.032089651 0.67501342
-0.016742438 -0.032787263 0.67501354
-0.016742438 -0.033484876 0.67501354
-0.016742438 -0.034182459 0.67501348
-0.016742438 -0.034880072 0.67501348
-0.016742438 -0.035577655 0.67501348
-0.016742438 -0.036275268 0.67501348
-0.016742438 -0.03697288 0.67501348
-0.016742438 -0.037670434 0.67501348
-0.016742438 -0.038368046 0.67501348
-0.016742438 -0.039065689 0.67501354
-0.016742438 -0.039763272 0.67501342
-0.016742438 -0.040460855 0.67501342
-0.016742438 -0.041158468 0.67501342
-0.016742438 -0.04185608 0.67501348
-0.016742438 -0.042553693 0.67501348
-0.016742438 -0.043251306 0.67501348
-0.016742438 -0.043948889 0.67501348
-0.016742438 -0.044646502 0.67501348
-0.016742438 -0.045344085 0.67501348
-0.016742438 -0.046041697 0.67501342
-0.016742438 -0.04673931 0.67501342
-0.016742438 -0.047436893 0.67501354
-0.016742438 -0.048134476 0.67501348
-0.016742438 -0.048832089 0.67501348
-0.016742438 -0.049529672 0.67501348
-0.016742438 -0.050227284 0.67501348
-0.016742438 -0.050924927 0.67501354
-0.016742438 -0.05162248 0.67501348
-0.016742438 -0.052320063 0.67501348
-0.016742438 -0.053017706 0.67501342
-0.016742438 -0.053715318 0.67501354
-0.016742438 -0.054412931 0.67501348
-0.016742438 -0.055110514 0.67501348
-0.016742438 -0.055808067 0.67501342
-0.016742438 -0.05650574 0.67501348
-0.016742438 -0.057203323 0.67501348
-0.016742438 -0.057900906 0.67501348
-0.016742438 -0.058598518 0.67501348
-0.016742438 -0.059296131 0.67501342
-0.016742438 -0.059993714 0.67501342
-0.016742684 -0.060692191 0.67501593
-0.016840236 -0.061747521 0.67599726
-0.016938981 -0.062815368 0.67699051
-0.017038841 -0.063895613 0.67799509
-0.017139884 -0.064988732 0.67901146
-0.017242186 -0.066095054 0.6800406
-0.02750271 0.068158925 0.79528201
-0.026871968 0.065427423 0.78866136
-0.026269637 0.062818736 0.78233898
-0.025693595 0.060324103 0.77629244
-0.02514239 0.057936817 0.77050662
-0.024614226 0.055649608 0.76496279
-0.024107797 0.053456455 0.75964701
-0.023621889 0.051351935 0.75454664
-0.023155084 0.049330413 0.74964678
-0.022706464 0.047387391 0.74493778
-0.022274807 0.04551807 0.74040687
-0.021859342 0.043718696 0.73604596
-0.021459009 0.041985035 0.73184377
-0.021073075 0.040313721 0.72779286
-0.020700857 0.038701624 0.72388577
-0.020341482 0.037145317 0.72011364
-0.019994447 0.035642326 0.7164709
-0.019658985 0.034189582 0.71294969
-0.019334592 0.03278479 0.70954466
-0.019020796 0.031425685 0.70625085
-0.018716959 0.030109912 0.70306158
-0.01842274 0.028835595 0.69997334
-0.018137569 0.027600676 0.69698
-0.017861089 0.026403368 0.69407797
-0.017592968 0.02524209 0.69126362
-0.017332725 0.024115115 0.68853188
-0.017080121 0.023021042 0.68588042
-0.016834723 0.021958351 0.68330461
-0.016596325 0.02092579 0.68080223
-0.016364537 0.019922048 0.67836928
-0.016139135 0.018945992 0.67600328
-0.015993085 0.018079162 0.67447025
-0.015993085 0.017383814 0.67447025
-0.015993085 0.016688466 0.67447025
-0.015993085 0.015993088 0.67447031
-0.015993085 0.015297741 0.67447025
-0.015993085 0.014602423 0.67447025
-0.015993085 0.013907015 0.67447031
-0.015993085 0.013211727 0.67447025
-0.015993085 0.01251632 0.67447025
-0.015993085 0.011820972 0.67447025
-0.015993085 0.011125654 0.67447025
-0.015993085 0.010430306 0.67447025
-0.015993085 0.0097349286 0.67447019
-0.015993085 0.0090395808 0.67447025
-0.015993036 0.008344233 0.67446977
-0.015993036 0.0076488256 0.67446977
-0.015993036 0.0069535077 0.67446977
-0.015993036 0.0062581599 0.67446977
-0.015993036 0.0055628121 0.67446977
-0.015993036 0.0048674643 0.67446977
-0.015993036 0.0041721165 0.67446983
-0.015993036 0.0034767687 0.67446977
-0.015993036 0.0027813911 0.67446977
-0.015993036 0.0020860732 0.67446977
-0.015993036 0.0013907254 0.67446977
-0.015993036 0.00069537759 0.67446977
-0.015993036 2.9802322e-08 0.67446977
-0.015993036 -0.00069534779 0.67446977
-0.015993036 -0.0013906658 0.67446977
-0.015993036 -0.0020860434 0.67446977
-0.015993036 -0.0027813911 0.67446977
-0.015993036 -0.0034767091 0.67446977
-0.015993036 -0.0041720867 0.67446983
-0.015993036 -0.0048674047 0.67446977
-0.015993036 -0.0055627525 0.67446977
-0.015993036 -0.0062581301 0.67446977
-0.015993036 -0.0069534779 0.67446971
-0.015993036 -0.0076488554 0.67446983
-0.015993036 -0.0083441734 0.67446977
-0.015993036 -0.0090395212 0.67446977
-0.015993036 -0.009734869 0.67446977
-0.015993036 -0.010430187 0.67446977
-0.015993036 -0.011125594 0.67446983
-0.015993036 -0.011820942 0.67446977
-0.015993036 -0.01251626 0.67446977
-0.015993036 -0.013211608 0.67446977
-0.015993036 -0.013906986 0.67446971
-0.015993036 -0.014602333 0.67446983
-0.015993036 -0.015297681 0.67446977
-0.015993036 -0.015992999 0.67446977
-0.015993036 -0.016688377 0.67446971
-0.015993036 -0.017383724 0.67446971
-0.015993036 -0.018079072 0.67446983
-0.015993036 -0.01877442 0.67446977
-0.015993036 -0.019469768 0.67446977
-0.015993036 -0.020165116 0.67446971
-0.015993036 -0.020860463 0.67446971
-0.015993036 -0.021555841 0.67446977
-0.015993036 -0.022251159 0.67446977
-0.015993036 -0.022946507 0.67446977
-0.015993036 -0.023641855 0.67446977
-0.015993036 -0.024337202 0.67446977
-0.015993036 -0.02503261 0.67446977
-0.015993036 -0.025727898 0.67446977
-0.015993036 -0.026423275 0.67446977
-0.015993036 -0.027118593 0.67446977
-0.015993036 -0.027813941 0.67446977
-0.015993036 -0.028509349 0.67446983
-0.015993036 -0.029204667 0.67446977
-0.015993036 -0.029900014 0.67446977
-0.015993036 -0.030595362 0.67446977
-0.015993036 -0.03129071 0.67446977
