# .PCD v0.7 - Point Cloud Data file format
VERSION 0.7
FIELDS x y z
SIZE 4 4 4
TYPE F F F
COUNT 1 1 1
WIDTH 1356
HEIGHT 1
VIEWPOINT 0 0 0 1 0 0 0
POINTS 1356
DATA ascii
0.040008239 -0.042736053 0.72611672
0.03993386 -0.043564171 0.7257086
0.039859757 -0.044389218 0.72530198
0.039785929 -0.045211285 0.72489697
0.039712369 -0.046030253 0.72449338
0.039638933 -0.046846002 0.7240904
0.039565921 -0.04765892 0.72368979
0.039493173 -0.048468858 0.72329062
0.040115997 -0.050145 0.72670794
0.042851899 -0.054538786 0.74171948
0.045988493 -0.059575975 0.75892943
0.049620524 -0.065408885 0.77885789
0.053875167 -0.072241664 0.80220246
0.051990226 0.076252341 0.78552091
0.05186747 0.07491973 0.7848624
0.051745299 0.073593348 0.78420687
0.051623452 0.072272867 0.78355318
0.051502425 0.070958912 0.78290391
0.051381964 0.069651097 0.78225762
0.051262066 0.068349451 0.78161442
0.05114273 0.067053825 0.78097415
0.051023941 0.065764248 0.78033686
0.050905462 0.064480275 0.77970123
0.050787777 0.06320259 0.77906984
0.050670631 0.061930805 0.77844137
0.05055403 0.060664833 0.77781582
0.050437957 0.059404761 0.77719307
0.050322417 0.058150381 0.77657324
0.05020741 0.056901723 0.77595627
0.050092686 0.055658549 0.7753408
0.049978726 0.054421276 0.77472943
0.049865276 0.053189635 0.77412075
0.049752347 0.051963568 0.77351487
0.049639925 0.050743073 0.77291173
0.049528014 0.049528033 0.77231133
0.049416598 0.048318475 0.77171367
0.049305461 0.047114104 0.77111733
0.049195047 0.045915395 0.77052504
0.049085129 0.04472205 0.76993525
0.048975695 0.043533981 0.7693482
0.048866753 0.042351186 0.76876372
0.048758294 0.041173726 0.76818192
0.048650313 0.040001392 0.76760256
0.048542593 0.038834095 0.76702464
0.048435565 0.037672132 0.76645041
0.048329011 0.036515266 0.7658788
0.048222918 0.035363466 0.76530969
0.048117295 0.034216762 0.76474297
0.048012137 0.033075035 0.76417875
0.047907434 0.031938285 0.7636171
0.04780297 0.030806363 0.76305664
0.047699176 0.029679477 0.76249981
0.047595832 0.028557539 0.76194537
0.047492936 0.027440369 0.76139331
0.04739048 0.026328057 0.76084363
0.047288466 0.025220513 0.7602964
0.047186896 0.024117798 0.75975144
0.04708555 0.023019612 0.75920773
0.046984844 0.021926254 0.75866747
0.04688457 0.020837575 0.75812948
0.046784721 0.019753575 0.75759381
0.046685297 0.018674135 0.75706041
0.046586297 0.017599285 0.75652927
0.04648751 0.016528904 0.75599933
0.046389345 0.015463144 0.75547266
0.046291593 0.014401853 0.7549482
0.046194248 0.013345033 0.75442594
0.04609732 0.012292624 0.75390589
0.046000794 0.011244655 0.75338805
0.04590467 0.010201037 0.75287241
0.045808751 0.0091617703 0.75235778
0.045713428 0.0081268251 0.75184643
0.045618497 0.007096231 0.75133711
0.045523964 0.0060698986 0.75082999
0.045429822 0.0050477982 0.7503249
0.045336068 0.0040298998 0.7498219
0.045242697 0.0030162036 0.74932098
0.045149527 0.0020066798 0.74882108
0.045056924 0.0010012686 0.74832428
0.044964701 2.9802322e-08 0.74782956
0.044872858 -0.00099718571 0.74733686
0.044781383 -0.0019902885 0.74684608
0.044690285 -0.0029793382 0.74635732
0.044599555 -0.0039643645 0.74587059
0.044509005 -0.0049454272 0.74538475
0.044419009 -0.0059225261 0.74490196
0.044329375 -0.0068956614 0.74442101
0.044240106 -0.0078648925 0.74394214
0.044151194 -0.0088302195 0.74346513
0.044062641 -0.0097916722 0.74299002
0.043974433 -0.01074928 0.74251688
0.043886404 -0.011703014 0.74204457
0.043798909 -0.012653023 0.74157512
0.043711755 -0.013599187 0.74110758
0.043624952 -0.014541626 0.74064195
0.043538496 -0.01548031 0.74017805
0.043452375 -0.016415298 0.73971605
0.043366421 -0.017346561 0.73925495
0.043280981 -0.018274158 0.73879653
0.043195881 -0.019198149 0.73833996
0.043111108 -0.020118505 0.73788518
0.043026671 -0.021035254 0.73743218
0.042942565 -0.021948427 0.73698092
0.042858787 -0.022857994 0.73653144
0.042775162 -0.023763925 0.73608285
0.042692035 -0.024666488 0.73563689
0.042609233 -0.025565535 0.73519266
0.042526744 -0.026461095 0.73475015
0.042444583 -0.027353168 0.73430932
0.042362731 -0.028241813 0.73387021
0.042281032 -0.029126942 0.73343194
0.042199813 -0.030008763 0.73299611
0.042118903 -0.030887187 0.73256207
0.042038307 -0.031762272 0.73212969
0.041958012 -0.03263399 0.73169893
0.04187803 -0.03350243 0.73126978
0.041798349 -0.034367472 0.73084229
0.041718807 -0.035229206 0.73041558
0.04163973 -0.036087751 0.72999138
0.041560955 -0.036943048 0.72956872
0.041482475 -0.037795126 0.72914773
0.041404292 -0.038643986 0.72872818
0.041326404 -0.039489657 0.72831035
0.041248646 -0.04033199 0.72789323
0.041171338 -0.041171312 0.7274785
0.041094325 -0.042007536 0.72706532
0.041017592 -0.04284057 0.72665358
0.040941153 -0.043670565 0.7262435
0.040864993 -0.044497401 0.72583497
0.04078912 -0.045321226 0.72542787
0.04071337 -0.046141803 0.72502148
0.040638056 -0.04695949 0.72461742
0.040563017 -0.047774196 0.72421491
0.040488258 -0.048585892 0.72381383
0.041534167 -0.050763965 0.72942507
0.044404168 -0.055258512 0.74482232
0.047700461 -0.060420573 0.76250666
0.051525388 -0.066410482 0.78302711
0.056016907 -0.073444366 0.80712372
0.053310826 0.076489478 0.78638828
0.053184308 0.075151771 0.78572428
0.053058647 0.07382071 0.78506482
0.052933581 0.072496057 0.78440839
0.052809101 0.071177512 0.78375506
0.052685201 0.069865197 0.78310484
0.052561887 0.068558991 0.78245759
0.052438892 0.067258596 0.78181207
0.052316729 0.065964609 0.7811709
0.052195128 0.064676583 0.78053278
0.052074093 0.063394576 0.77989751
0.051953621 0.062118471 0.77926528
0.051833697 0.060848266 0.77863586
0.051714335 0.059583902 0.77800941
0.051595267 0.058325112 0.77738452
0.051477 0.057072312 0.7767638
0.051359266 0.055825293 0.77614582
0.051242068 0.054583937 0.77553082
0.051125411 0.053348273 0.77491856
0.051009279 0.052118242 0.77430904
0.050893676 0.050893694 0.77370238
0.050778359 0.049674511 0.77309716
0.050663795 0.04846105 0.77249587
0.050549753 0.047253072 0.77189738
0.050436221 0.046050489 0.77130145
0.050323192 0.04485333 0.77070832
0.050210677 0.043661445 0.77011776
0.050098661 0.042474955 0.76952988
0.04998691 0.041293561 0.76894337
0.049875893 0.040117592 0.76836073
0.049765363 0.038946837 0.76778066
0.049655322 0.037781209 0.76720315
0.049545765 0.036620826 0.76662815
0.049436692 0.035465449 0.7660557
0.049328096 0.034315228 0.7654857
0.049219757 0.033169866 0.76491719
0.049112115 0.032029629 0.76435226
0.049004942 0.030894458 0.76378971
0.048898235 0.029764146 0.76322973
0.048791993 0.02863884 0.76267213
0.04868621 0.027518332 0.76211691
0.048580885 0.026402652 0.76156414
0.048475798 0.025291741 0.76101267
0.048371378 0.024185747 0.76046461
0.048267413 0.023084432 0.75991893
0.048163891 0.021987885 0.75937569
0.048060808 0.020896047 0.75883466
0.047958169 0.019808859 0.75829595
0.047855757 0.0187262 0.75775844
0.04775399 0.01764825 0.75722438
0.047652654 0.01657486 0.75669253
0.047551747 0.015505999 0.756163
0.047451273 0.014441699 0.75563562
0.047351215 0.013381869 0.7551105
0.047251586 0.012326509 0.75458759
0.047152162 0.01127553 0.75406581
0.047053363 0.010229051 0.75354731
0.046954978 0.0091868639 0.7530309
0.046857003 0.0081490874 0.75251669
0.046759434 0.0071156025 0.75200462
0.046662271 0.0060864091 0.75149471
0.046565514 0.0050615072 0.75098693
0.046468958 0.0040407777 0.75048012
0.046373002 0.0030243397 0.74997658
0.046277434 0.002012074 0.74947494
0.04618226 0.0010039806 0.74897552
0.046087485 -0 0.74847806
0.045993093 -0.00099983811 0.74798262
0.045899086 -0.0019955933 0.74748921
0.045805272 -0.0029872656 0.74699694
0.045712028 -0.0039749146 0.74650759
0.045619167 -0.00495857 0.7460202
0.04552668 -0.0059382319 0.74553484
0.045434568 -0.0069139302 0.74505138
0.045342829 -0.0078856647 0.7445699
0.045251463 -0.0088535249 0.74409038
0.045160275 -0.0098173916 0.74361175
0.045069635 -0.010777533 0.74313617
0.044979364 -0.011733741 0.74266231
0.04488945 -0.012686163 0.74219042
0.044799894 -0.013634712 0.74172044
0.044710703 -0.014579564 0.7412523
0.044621676 -0.015520543 0.74078512
0.044533186 -0.016457915 0.74032068
0.044445045 -0.017391503 0.73985809
0.044357255 -0.018321455 0.73939729
0.044269815 -0.019247711 0.73893839
0.044182714 -0.020170361 0.73848128
0.044095956 -0.021089345 0.7380259
0.044009354 -0.022004664 0.73757148
0.043923277 -0.022916466 0.73711967
0.043837532 -0.023824722 0.73666966
0.043752123 -0.024729431 0.73622143
0.043667048 -0.025630623 0.73577487
0.043582298 -0.026528329 0.7353301
0.043497704 -0.027422458 0.73488617
0.043413617 -0.02831319 0.73444486
0.04332985 -0.029200524 0.73400521
0.043246407 -0.030084491 0.7335673
0.043163281 -0.030964971 0.73313105
0.043080479 -0.031842083 0.73269641
0.042997986 -0.032715827 0.73226351
0.042915646 -0.033586115 0.73183131
0.04283379 -0.034453243 0.73140174
0.04275224 -0.035317063 0.73097372
0.042671006 -0.036177516 0.73054737
0.042590074 -0.037034839 0.73012263
0.042509455 -0.037888825 0.72969949
0.042429138 -0.038739592 0.72927797
0.042348959 -0.03958708 0.72885722
0.042269245 -0.04043141 0.72843885
0.042189833 -0.04127261 0.72802204
0.042110715 -0.042110711 0.72760683
0.042031899 -0.042945623 0.72719318
0.041953374 -0.043777406 0.72678101
0.041874979 -0.044605941 0.72636962
0.041797042 -0.045431525 0.72596049
0.041719392 -0.046254069 0.72555298
0.041642025 -0.047073573 0.72514701
0.041564953 -0.047890007 0.72474247
0.041488159 -0.048703462 0.72433943
0.042987783 -0.051398396 0.73220992
0.045998152 -0.055997729 0.7480092
0.049461663 -0.06128943 0.76618677
0.053489499 -0.067443281 0.78732598
0.05823148 -0.074688196 0.8122133
0.054639403 0.076727688 0.7872597
0.054509595 0.0753856 0.78659296
0.054380402 0.07404992 0.78592932
0.054251824 0.072720557 0.78526878
0.054123849 0.071397483 0.78461146
0.053996477 0.070080578 0.78395712
0.053869441 0.068769515 0.78330469
0.053743262 0.067464978 0.78265649
0.053617671 0.06616652 0.78201139
0.053492669 0.064874113 0.78136933
0.053368248 0.063587725 0.78073025
0.053244404 0.062307328 0.78009409
0.053121135 0.061032802 0.77946085
0.052998178 0.059763938 0.77882928
0.052876044 0.058501184 0.77820194
0.052754469 0.057244211 0.77757746
0.052633453 0.05599305 0.77695584
0.052512988 0.054747611 0.77633709
0.052393079 0.053507835 0.77572119
0.052273471 0.052273482 0.77510679
0.052154649 0.051045001 0.77449644
0.052036364 0.049822092 0.77388883
0.051918622 0.048604697 0.77328396
0.051801406 0.047392786 0.77268195
0.051684715 0.046186358 0.77208257
0.051568553 0.044985294 0.77148587
0.051452674 0.043789536 0.77089065
0.051337551 0.042599291 0.77029926
0.051222939 0.04141432 0.7697106
0.051108845 0.040234625 0.76912451
0.050995249 0.039060205 0.76854104
0.050882164 0.03789103 0.76796013
0.050769579 0.036726952 0.76738179
0.050657257 0.035567909 0.76680481
0.050545659 0.034414083 0.76623166
0.050434552 0.033265382 0.765661
0.050323937 0.032121688 0.76509273
0.050213806 0.030983001 0.76452702
0.050104152 0.029849261 0.76396382
0.049994975 0.028720558 0.763403
0.049886055 0.027596563 0.76284349
0.049777824 0.026477575 0.76228762
0.04967007 0.025363475 0.76173407
0.049562778 0.024254143 0.7611829
0.049455948 0.023149639 0.76063418
0.049349573 0.022049814 0.76008785
0.049243663 0.020954788 0.75954378
0.049137987 0.019864291 0.7590009
0.049032975 0.018778592 0.75846159
0.048928414 0.017697513 0.75792444
0.048824299 0.016621023 0.75738966
0.048720628 0.015549153 0.7568571
0.048617389 0.014481813 0.75632679
0.04851459 0.013418943 0.75579882
0.048412018 0.012360573 0.75527191
0.048310086 0.011306673 0.75474828
0.048208579 0.010257155 0.75422692
0.048107501 0.0092121065 0.75370777
0.048006848 0.0081714392 0.7531907
0.047906615 0.0071350634 0.75267589
0.047806587 0.0061029792 0.75216204
0.047707189 0.0050752461 0.75165141
0.047608197 0.0040517747 0.75114298
0.047509622 0.0030325353 0.75063664
0.047411449 0.0020175278 0.75013232
0.047313683 0.0010067225 0.74963015
0.047216319 2.9802322e-08 0.74913007
0.047119156 -0.0010025203 0.748631
0.047022589 -0.0020009279 0.74813497
0.04692642 -0.0029952824 0.74764091
0.046830639 -0.0039855838 0.74714899
0.046735253 -0.004971832 0.74665904
0.046640255 -0.005954057 0.74617106
0.04654564 -0.0069322884 0.74568504
0.046451211 -0.0079065561 0.74519998
0.04635736 -0.0088769495 0.74471796
0.046263885 -0.0098433793 0.74423778
0.04617079 -0.010805964 0.74375963
0.046078071 -0.011764586 0.74328327
0.045985721 -0.012719423 0.74280894
0.04589374 -0.013670474 0.74233651
0.045801938 -0.014617592 0.74186492
0.04571069 -0.015561074 0.74139619
0.045619804 -0.016500771 0.74092937
0.04552928 -0.017436743 0.74046445
0.045439117 -0.018368959 0.7400012
0.045349304 -0.01929757 0.73953992
0.045259666 -0.020222366 0.73907948
0.045170564 -0.021143645 0.73862177
0.045081817 -0.022061288 0.73816592
0.044993412 -0.022975326 0.73771179
0.044905353 -0.023885846 0.73725951
0.044817638 -0.024792701 0.73680896
0.044730268 -0.025696099 0.73636019
0.044643056 -0.026595831 0.7359122
0.044556364 -0.027492195 0.7354669
0.044470008 -0.028385133 0.73502332
0.044383984 -0.029274523 0.73458147
0.044298291 -0.030160517 0.73414123
0.044212934 -0.031043112 0.73370278
0.0441279 -0.03192234 0.733266
0.044043023 -0.032797992 0.73283005
0.043958642 -0.033670455 0.7323966
0.04387458 -0.034539551 0.73196483
0.043790847 -0.035405338 0.73153472
0.04370743 -0.036267847 0.73110622
0.043624323 -0.037127048 0.73067939
0.043541372 -0.037982881 0.73025328
0.043458901 -0.038835615 0.72982961
0.04337674 -0.039685041 0.72940761
0.043294892 -0.040531397 0.72898716
0.043213349 -0.041374445 0.72856826
0.043132115 -0.042214423 0.72815108
0.043051187 -0.043051153 0.7277354
0.042970397 -0.043884635 0.72732031
0.042890072 -0.044715196 0.72690779
0.042810049 -0.045542568 0.7264967
0.04273032 -0.04636693 0.72608721
0.04265089 -0.047188163 0.72567916
0.042571757 -0.048006415 0.72527266
0.042492751 -0.048821449 0.72486687
0.0444782 -0.052048981 0.7350654
0.047635157 -0.056756794 0.75128144
0.051274262 -0.062183678 0.76997423
0.055515662 -0.068508685 0.79176062
0.055976555 0.076967776 0.78813791
0.055843156 0.075620949 0.78746694
0.05571039 0.07428053 0.78679919
0.055578262 0.072946489 0.7861346
0.055446479 0.071618378 0.7854718
0.055315588 0.070296884 0.78481346
0.055185322 0.068981677 0.78415829
0.055055663 0.06767258 0.78350616
0.054926611 0.066369653 0.78285706
0.054798163 0.065072834 0.78221107
0.054670312 0.063782066 0.78156805
0.054542795 0.06249696 0.78092664
0.054416135 0.061218202 0.78028959
0.054290064 0.059945345 0.77965546
0.054164574 0.058678299 0.7790243
0.054039661 0.057417125 0.77839607
0.053915322 0.056161821 0.77777064
0.053791557 0.054912239 0.77714825
0.053668104 0.053668112 0.77652735
0.053545468 0.052429974 0.7759105
0.05342339 0.05119741 0.77529645
0.053301875 0.049970508 0.77468526
0.053180903 0.048749149 0.77407688
0.053060479 0.047533393 0.77347118
0.052940357 0.046322852 0.77286696
0.052821022 0.045117974 0.77226675
0.052702218 0.04391852 0.77166927
0.052583955 0.04272449 0.77107441
0.052466221 0.041535795 0.7704823
0.052349012 0.040352374 0.76989269
0.052232321 0.039174289 0.76930588
0.052115917 0.03800118 0.76872039
0.052000262 0.036833555 0.76813865
0.051885121 0.035671026 0.76755965
0.05177049 0.034513682 0.76698303
0.051656365 0.033361465 0.76640898
0.051542744 0.032214224 0.76583761
0.051429618 0.03107205 0.76526862
0.05131676 0.029934794 0.76470089
0.051204618 0.028802633 0.76413691
0.051092975 0.02767536 0.76357543
0.050981816 0.026553035 0.76301628
0.050871134 0.025435567 0.76245964
0.050760936 0.024322987 0.76190531
0.050651211 0.023215145 0.76135343
0.050541736 0.022111982 0.76080287
0.050432961 0.021013737 0.76025575
0.050324649 0.0199202 0.75971097
0.050216805 0.018831313 0.75916857
0.050109416 0.017747104 0.75862849
0.050002489 0.016667515 0.75809062
0.04989602 0.015592515 0.75755513
0.049789783 0.014522016 0.75702083
0.049684215 0.013456166 0.75648987
0.049579091 0.012394786 0.75596112
0.049474411 0.011337906 0.75543463
0.049370173 0.010285437 0.75491035
0.049266379 0.0092374682 0.75438833
0.049163014 0.0081938505 0.7538684
0.049059872 0.0071545839 0.75334966
0.04895737 0.0061196685 0.75283414
0.048855301 0.0050891042 0.75232077
0.048753653 0.0040628314 0.75180948
0.048652429 0.0030407608 0.75130039
0.048551623 0.0020230114 0.75079346
0.048451025 0.0010094047 0.75028741
0.048351053 -0 0.74978459
0.048251487 -0.0010052025 0.74928385
0.048152339 -0.0020062923 0.74878508
0.048053589 -0.0030032992 0.74828851
0.047955252 -0.0039962232 0.74779385
0.047857307 -0.0049851239 0.74730122
0.047759566 -0.0059699118 0.7468096
0.047662422 -0.0069507658 0.74632108
0.047565676 -0.0079275966 0.74583441
0.047469318 -0.0089004934 0.74534982
0.047373351 -0.0098694563 0.74486715
0.047277767 -0.010834455 0.74438637
0.047182575 -0.01179561 0.74390757
0.047087565 -0.012752831 0.74342972
0.046993133 -0.013706297 0.74295479
0.04689908 -0.014655977 0.74248171
0.046805404 -0.015601784 0.74201059
0.046712101 -0.016543835 0.74154127
0.046619166 -0.017482132 0.74107385
0.046526603 -0.018416762 0.74060833
0.046434212 -0.019347548 0.7401436
0.046342384 -0.020274818 0.73968172
0.04625091 -0.021198303 0.73922169
0.0461598 -0.022118241 0.73876345
0.046069052 -0.023034483 0.738307
0.045978658 -0.023947209 0.73785233
0.045888431 -0.02485621 0.73739862
0.045798745 -0.025761753 0.73694742
0.045709409 -0.02666378 0.73649812
0.045620419 -0.02756235 0.73605049
0.045531772 -0.028457344 0.7356047
0.045443475 -0.02934888 0.73516059
0.04535551 -0.030236989 0.73471814
0.045267716 -0.031121522 0.73427659
0.045180432 -0.032002777 0.7338376
0.045093488 -0.032880634 0.73340029
0.045006879 -0.033755153 0.73296475
0.044920601 -0.034626275 0.73253071
0.044834655 -0.035494059 0.73209846
0.044748858 -0.036358476 0.73166692
0.044663563 -0.037219644 0.73123789
0.044578597 -0.038077503 0.73081058
0.044493951 -0.038932204 0.73038489
0.044409625 -0.039783597 0.72996068
0.04432562 -0.040631801 0.7295382
0.044241935 -0.041476786 0.72911727
0.044158388 -0.042318434 0.72869712
0.044075329 -0.043157071 0.72827929
0.043992579 -0.043992549 0.72786319
0.043910146 -0.044824898 0.72744852
0.043828014 -0.045654178 0.7270354
0.043746196 -0.046480298 0.72662395
0.043664511 -0.0473032 0.7262131
0.043583296 -0.048123211 0.72580463
0.043502387 -0.048940152 0.72539765
0.046006821 -0.052716166 0.73799407
0.049317148 -0.057536662 0.75464374
0.053140536 -0.063104361 0.77387381
0.057606865 -0.069608301 0.79633772
0.057322104 0.077209383 0.78902173
0.057185072 0.075857759 0.78834653
0.05704841 0.074512243 0.78767312
0.056912683 0.073173463 0.78700447
0.056777596 0.071841091 0.78633881
0.056643151 0.070514947 0.78567648
0.056509342 0.069195122 0.78501719
0.056376163 0.067881495 0.784361
0.056243606 0.066574067 0.78370792
0.056111403 0.06527245 0.78305656
0.05598009 0.063977271 0.78240955
0.055849392 0.062688112 0.78176558
0.055719297 0.061404943 0.78112471
0.055589817 0.060127795 0.78048676
0.055460926 0.058856517 0.77985173
0.055332642 0.05759117 0.77921963
0.055204678 0.056331307 0.77858919
0.055077575 0.055077583 0.77796292
0.054951046 0.05382964 0.77733952
0.054825105 0.05258736 0.77671903
0.054699738 0.051350802 0.77610135
0.05457494 0.050119877 0.77548647
0.054450456 0.048894316 0.77487314
0.054326795 0.047674567 0.77426386
0.054203693 0.04646033 0.77365732
0.054081146 0.045251578 0.77305359
0.053959154 0.04404828 0.77245253
0.053837709 0.042850435 0.77185416
0.053716812 0.041657984 0.77125847
0.053596459 0.040470839 0.77066553
0.053476389 0.039288789 0.77007401
0.053357106 0.038112223 0.76948625
0.053238355 0.036940902 0.76890111
0.053120136 0.035774797 0.76831871
0.053002436 0.034613878 0.76773882
0.052885253 0.033458024 0.76716149
0.052768353 0.032307178 0.76658547
0.052652206 0.031161547 0.76601321
0.052536566 0.030020922 0.7654435
0.052421436 0.028885305 0.76487625
0.052306809 0.027754664 0.76431143
0.052192677 0.026628941 0.76374918
0.052079048 0.025508165 0.76318932
0.051965676 0.024392039 0.7626307
0.051853038 0.023281008 0.76207566
0.051740877 0.022174656 0.76152313
0.051629204 0.021073192 0.76097286
0.051518012 0.019976407 0.76042503
0.051407296 0.018884331 0.75987959
0.051297054 0.017796934 0.75933647
0.051187061 0.016714156 0.75879449
0.051077761 0.015636086 0.75825596
0.05096893 0.014562577 0.75771976
0.050860561 0.013493598 0.75718588
0.050752651 0.012429237 0.75665414
0.050645199 0.011369348 0.75612473
0.050538197 0.010313958 0.75559759
0.05043143 0.0092629492 0.75507152
0.05032533 0.0082163811 0.75454879
0.050219677 0.0071742833 0.75402826
0.050114468 0.006136477 0.75350988
0.050009701 0.0051030517 0.75299364
0.049905363 0.0040739179 0.75247961
0.049801465 0.0030491054 0.75196773
0.049697787 0.0020285249 0.75145686
0.049594745 0.0010121167 0.75094926
0.049492136 -0 0.75044364
0.049389947 -0.0010079443 0.74994022
0.049288183 -0.0020117462 0.74943876
0.049186837 -0.0030114055 0.74893939
0.049085695 -0.0040069818 0.74844116
0.04898518 -0.0049984753 0.7479459
0.04888507 -0.0059859157 0.74745274
0.048785374 -0.0069693327 0.74696147
0.04868608 -0.0079487264 0.74647224
0.048587192 -0.0089241564 0.74598503
0.048488703 -0.0098956227 0.74549979
0.048390612 -0.010863155 0.74501646
0.048292719 -0.011826783 0.74453413
0.048195418 -0.012786508 0.74405479
0.048098512 -0.013742447 0.7435773
0.048001993 -0.014694452 0.74310184
0.047905859 -0.015642703 0.7426281
0.047810115 -0.016587168 0.74215645
0.04771455 -0.017527759 0.74168551
0.047619563 -0.018464714 0.74121755
0.047524959 -0.019397914 0.74075139
0.047430724 -0.020327449 0.74028718
0.047336861 -0.021253258 0.73982471
0.047243372 -0.022175431 0.73936415
0.047150251 -0.023093969 0.73890525
0.047057308 -0.024008811 0.73844737
0.046964917 -0.024920106 0.73799211
0.046872891 -0.025827885 0.7375387
0.04678122 -0.026732117 0.73708707
0.046689913 -0.027632773 0.73663718
0.046598956 -0.028529972 0.73618907
0.046508171 -0.029423535 0.73574179
0.046417926 -0.03031373 0.73529714
0.046328027 -0.031200469 0.73485422
0.046238475 -0.032083809 0.73441297
0.046149269 -0.032963753 0.73397344
0.046060409 -0.033840269 0.73353565
0.045971889 -0.034713447 0.73309946
0.045883525 -0.035583109 0.73266411
0.045795687 -0.036449611 0.73223138
0.045708179 -0.037312776 0.7318002
0.045621008 -0.038172662 0.73137069
0.045534164 -0.03902927 0.73094285
0.045447655 -0.03988263 0.73051661
0.045361292 -0.040732563 0.73009109
0.045275439 -0.041579455 0.72966808
0.045189906 -0.042423159 0.72924674
0.045104694 -0.043263644 0.72882694
0.045019809 -0.04410103 0.72840869
0.044935238 -0.044935226 0.72799194
0.044850986 -0.045766294 0.72757685
0.044766877 -0.046594083 0.72716248
0.044683252 -0.047418922 0.72675049
0.044599947 -0.048240751 0.72634
0.044546403 -0.049091935 0.72607619
0.047575146 -0.053400636 0.74099874
0.05104601 -0.058338255 0.7580995
0.055063166 -0.064053059 0.77789193
0.059766293 -0.070743769 0.80106407
0.058535125 0.0760957 0.78923011
0.058395091 0.074745715 0.78855401
0.058255725 0.073402226 0.78788114
0.058117017 0.072065115 0.78721136
0.057978973 0.070734352 0.7865448
0.05784158 0.069409907 0.7858814
0.057704557 0.068091393 0.78521979
0.057568461 0.066779405 0.78456271
0.057433005 0.065473646 0.78390867
0.057298191 0.064173996 0.78325772
0.057164002 0.062880397 0.78260982
0.057030439 0.061592877 0.7819649
0.056897502 0.060311347 0.78132302
0.056764912 0.05903554 0.7806828
0.056633204 0.057765871 0.78004688
0.056502111 0.056502134 0.77941388
0.056371622 0.055244207 0.77878386
0.056241736 0.053992093 0.77815664
0.056112446 0.05274567 0.77753246
0.055983748 0.051505029 0.77691102
0.055855379 0.050269872 0.77629119
0.055727854 0.049040556 0.77567542
0.055600911 0.047816813 0.77506256
0.05547455 0.046598613 0.77445239
0.055348758 0.045386016 0.77384508
0.055223536 0.044178873 0.77324039
0.055098884 0.042977154 0.7726385
0.05497453 0.041780651 0.7720381
0.054850996 0.04058978 0.77144158
0.054728013 0.039404184 0.7708478
0.054605577 0.038223922 0.77025664
0.054483697 0.037048906 0.7696681
0.054362349 0.035879165 0.76908219
0.0542413 0.034714431 0.76849771
0.054121032 0.033555061 0.76791704
0.054001298 0.032400787 0.76733899
0.053882092 0.031251669 0.76676333
0.053763412 0.030107528 0.76619029
0.053645253 0.028968453 0.76561975
0.053527612 0.027834386 0.76505172
0.053410247 0.026705116 0.76448506
0.053293634 0.025580972 0.76392198
0.053177528 0.024461627 0.76336139
0.053061929 0.023347288 0.7628032
0.052946832 0.022237688 0.7622475
0.052832227 0.021132916 0.76169413
0.052718125 0.020032942 0.76114315
0.052604277 0.018937588 0.76059341
0.052491151 0.017847002 0.76004726
0.052378513 0.016761154 0.75950336
0.052266359 0.015679926 0.7589618
0.052154679 0.014603347 0.75842261
0.052043479 0.013531297 0.75788575
0.051932752 0.012463868 0.75735104
0.051822267 0.011400938 0.75681758
0.051712479 0.010342538 0.75628746
0.051603153 0.0092885792 0.7557596
0.051494289 0.0082391202 0.755234
0.051385883 0.0071940422 0.75471056
0.051277936 0.0061533451 0.75418931
0.051170435 0.0051170588 0.75367033
0.051063169 0.0040850639 0.75315237
0.05095657 0.0030574203 0.75263762
0.050850414 0.0020340085 0.75212508
0.050744697 0.0010149181 0.75161463
0.050639421 2.9802322e-08 0.75110632
0.050534584 -0.0010106564 0.7506001
0.050430175 -0.0020172 0.75009602
0.050325986 -0.0030195117 0.74959296
0.050222438 -0.0040177405 0.74909294
0.050119318 -0.0050119162 0.74859506
0.050016619 -0.0060020089 0.74809921
0.049914341 -0.0069879889 0.74760532
0.049812473 -0.0079699755 0.74711347
0.04971103 -0.0089479685 0.74662364
0.049609788 -0.0099219382 0.74613476
0.049509164 -0.010892004 0.74564898
0.049408946 -0.011858135 0.74516505
0.049309134 -0.012820363 0.74468315
0.049209725 -0.013778716 0.74420309
0.049110718 -0.014733195 0.74372506
0.049011905 -0.0156838 0.74324799
0.048913687 -0.01663062 0.74277371
0.048815865 -0.017573714 0.7423014
0.048718434 -0.018512964 0.74183095
0.04862139 -0.019448549 0.74136239
0.04852473 -0.020380348 0.74089563
0.048428457 -0.021308511 0.74043083
0.048332363 -0.02223289 0.73996687
0.048236851 -0.023153633 0.73950565
0.048141714 -0.024070829 0.73904628
0.048046954 -0.02498439 0.73858875
0.047952563 -0.025894374 0.73813301
0.047858544 -0.026800781 0.737679
0.0477647 -0.027703524 0.73722595
0.047671411 -0.028602809 0.73677552
0.047578488 -0.029498607 0.73632687
0.047485929 -0.030390978 0.73587996
0.047393732 -0.031279832 0.73543477
0.047301888 -0.032165259 0.73499131
0.047210399 -0.033047289 0.73454952
0.047119077 -0.033925712 0.73410857
0.047028292 -0.034800917 0.73367023
0.046937857 -0.035672724 0.73323363
0.046847772 -0.036541253 0.73279864
0.046758033 -0.037406385 0.73236531
0.046668634 -0.038268298 0.73193371
0.046579577 -0.039126784 0.73150367
0.046490677 -0.039981961 0.73107439
0.046402294 -0.040834039 0.73064768
0.046314251 -0.04168281 0.73022246
0.046226542 -0.042528421 0.72979903
0.046139162 -0.043370813 0.72937715
0.046052109 -0.044209987 0.72895682
0.045965213 -0.045045882 0.7285372
0.045878816 -0.045878798 0.72812009
0.045792747 -0.046708614 0.72770452
0.045706999 -0.04753527 0.72729051
0.04562157 -0.048358858 0.72687799
0.046014983 -0.049696147 0.72877753
0.049184732 -0.054103166 0.74408245
0.052823722 -0.059162557 0.76165313
0.057044212 -0.065030366 0.78203142
0.061997347 -0.071916908 0.80594724
0.059893973 0.07633546 0.79012084
0.059750233 0.074980706 0.78944039
0.059607185 0.073632419 0.78876323
0.05946482 0.072290599 0.78808922
0.059322838 0.070954829 0.78741717
0.059181824 0.069625735 0.78674966
0.059041481 0.068302929 0.78608531
0.058901805 0.066986382 0.78542411
0.058762785 0.065676093 0.78476596
0.058624417 0.064371943 0.78411102
0.0584867 0.063073903 0.78345913
0.058349349 0.061781704 0.7828089
0.058212921 0.060495824 0.78216302
0.058077127 0.059215873 0.78152031
0.057941973 0.057941973 0.78088045
0.057807438 0.056674004 0.78024364
0.057673529 0.055411875 0.7796098
0.057540242 0.054155558 0.77897882
0.05740729 0.052904785 0.77834946
0.057275228 0.051660001 0.77772427
0.05714377 0.050421 0.77710205
0.057012916 0.04918763 0.77648258
0.056882661 0.047959924 0.77586603
0.056752995 0.04673779 0.77525222
0.056623925 0.04552123 0.77464116
0.056495171 0.044309944 0.7740317
0.056367267 0.04310438 0.77342623
0.05623994 0.041904271 0.77282345
0.056113187 0.040709615 0.77222353
0.055987008 0.039520264 0.77162617
0.055861391 0.038336247 0.77103156
0.055736333 0.037157595 0.77043951
0.055611581 0.03598398 0.76984906
0.055487644 0.034815788 0.76926231
0.055364255 0.033652782 0.76867825
0.055241417 0.032494962 0.76809669
0.05511912 0.031342268 0.76751781
0.054997362 0.03019464 0.76694143
0.054875892 0.02905193 0.76636648
0.054755203 0.027914435 0.76579511
0.054635048 0.026781917 0.76522636
0.054515421 0.025654346 0.76466
0.054396316 0.024531722 0.7640962
0.054277726 0.023413926 0.76353484
0.054159656 0.022301048 0.76297593
0.054041855 0.021192878 0.76241827
0.053924806 0.020089656 0.76186419
0.053808261 0.018991143 0.76131254
0.053692225 0.017897427 0.76076329
0.053576678 0.016808361 0.7602163
0.053461637 0.015724033 0.75967169
0.053347085 0.014644295 0.75912941
0.053232789 0.013569176 0.75858843
0.053119216 0.012498677 0.7580508
0.053006124 0.011432707 0.75751537
0.052893516 0.010371268 0.75698233
0.052781381 0.009314388 0.75645155
0.052669723 0.008261919 0.75592303
0.052558538 0.0072139204 0.75539666
0.052447595 0.0061703026 0.75487149
0.052337337 0.0051311553 0.75434953
0.052227549 0.0040962994 0.7538299
0.052118223 0.0030657947 0.75331229
0.052009352 0.0020396113 0.75279695
0.051900931 0.0010177195 0.75228369
0.051792964 -0 0.75177264
0.051685221 -0.001013428 0.75126261
0.051578149 -0.0020226538 0.75075573
0.051471516 -0.0030277371 0.75025094
0.051365331 -0.0040286481 0.74974829
0.051259574 -0.0050254166 0.74924767
0.051154256 -0.0060181022 0.74874914
0.05104937 -0.0070067644 0.74825263
0.050944697 -0.0079913139 0.74775714
0.050840668 -0.0089718699 0.74726468
0.050737061 -0.0099484324 0.7467742
0.050633881 -0.010921001 0.74628574
0.050531112 -0.011889637 0.7457993
0.050428763 -0.012854397 0.74531484
0.050326824 -0.013815165 0.74483228
0.050225094 -0.014772058 0.74435073
0.050123978 -0.015725166 0.74387205
0.050023273 -0.016674399 0.74339533
0.049922969 -0.017619848 0.74292058
0.049823064 -0.018561512 0.74244761
0.049723558 -0.019499391 0.74197662
0.049624249 -0.020433486 0.74150646
0.049525533 -0.021363944 0.74103916
0.049427215 -0.022290707 0.74057376
0.049329285 -0.023213774 0.74011022
0.049231738 -0.024133176 0.7396484
0.049134582 -0.025048971 0.73918849
0.049037807 -0.02596119 0.73873043
0.048941214 -0.026869684 0.73827308
0.048845198 -0.027774721 0.7378186
0.048749555 -0.028676182 0.73736584
0.048654292 -0.029574186 0.73691493
0.048559394 -0.030468613 0.73646569
0.048464868 -0.031359583 0.73601824
0.048370712 -0.032247126 0.73557252
0.048276722 -0.033131033 0.73512763
0.048183296 -0.034011692 0.7346853
0.048090231 -0.034888983 0.73424476
0.047997519 -0.035762817 0.73380595
0.047905166 -0.036633343 0.73336875
0.04781317 -0.037500501 0.73293322
0.047721338 -0.038364202 0.73249853
0.047630038 -0.039224744 0.73206639
0.047539096 -0.040081978 0.73163593
0.047448494 -0.040935963 0.73120695
0.047358241 -0.0417867 0.73077977
0.047268335 -0.042634159 0.73035419
0.04717876 -0.043478429 0.7299301
0.047089349 -0.044319361 0.72950691
0.047000453 -0.045157254 0.72908604
0.046911892 -0.045992047 0.7286669
0.046823665 -0.046823621 0.72824913
0.046735775 -0.047652125 0.72783315
0.046648208 -0.04847756 0.72741866
0.047520161 -0.05031544 0.73154622
0.050837234 -0.054824442 0.74724847
0.054652397 -0.060010463 0.7653085
0.059086647 -0.066038013 0.78629911
0.064303637 -0.073129624 0.81099504
0.061261412 0.076576799 0.79101706
0.061113924 0.075217158 0.79033232
0.060967151 0.073864102 0.78965092
0.060820777 0.072517097 0.78897136
0.060675409 0.071176946 0.7882964
0.060530733 0.069843203 0.78762472
0.06038674 0.068515748 0.78695619
0.060243431 0.067194641 0.78629088
0.060100809 0.065879732 0.78562874
0.059958853 0.064571142 0.78496963
0.059817277 0.063268304 0.78431237
0.059676655 0.061971933 0.78365946
0.059536695 0.060681701 0.78300971
0.059397388 0.059397429 0.78236294
0.059258737 0.058119148 0.78171921
0.05912073 0.056846827 0.78107846
0.058983359 0.055580497 0.78044075
0.058846347 0.05431971 0.77980465
0.058710251 0.053065032 0.77917278
0.058574785 0.051816165 0.77854377
0.058439936 0.050573081 0.77791774
0.058305714 0.049335629 0.77729458
0.058172103 0.048103899 0.77667427
0.058039106 0.046877772 0.77605683
0.057906438 0.045657009 0.77544081
0.057774648 0.044442028 0.77482897
0.057643458 0.04323262 0.77421987
0.057512864 0.042028666 0.77361357
0.057382856 0.040830106 0.77301002
0.057253439 0.039637029 0.77240914
0.0571246 0.038449258 0.77181101
0.056996077 0.037266672 0.77121431
0.056868397 0.036089569 0.77062148
0.056741282 0.034917742 0.77003133
0.056614738 0.03375113 0.76944387
0.056488756 0.032589674 0.76885897
0.05636334 0.031433433 0.76827669
0.056238215 0.03028217 0.76769572
0.056113899 0.029136091 0.76711857
0.055990133 0.02799508 0.76654398
0.055866912 0.026859105 0.7659719
0.055744234 0.025728106 0.76540232
0.055622093 0.024602115 0.76483536
0.055500485 0.023480982 0.76427066
0.05537916 0.022364676 0.7637074
0.055258617 0.021253347 0.76314771
0.055138588 0.020146787 0.76259053
0.055019088 0.019045055 0.76203573
0.054900099 0.017948121 0.76148325
0.054781627 0.016855896 0.76093322
0.054663658 0.015768409 0.76038551
0.054545961 0.014685452 0.75983912
0.05442901 0.013607264 0.75929612
0.054312557 0.012533695 0.75875551
0.054196604 0.011464655 0.75821716
0.054081146 0.010400265 0.75768107
0.053966176 0.0093403459 0.75714731
0.053851694 0.0082848966 0.75661582
0.053737462 0.0072339177 0.75608546
0.053623945 0.0061874092 0.75555843
0.053510912 0.0051453114 0.75503367
0.053398352 0.0041076243 0.75451112
0.053286266 0.0030742586 0.75399071
0.053174645 0.0020452142 0.75347245
0.053063493 0.0010204911 0.75295645
0.052952576 -0 0.75244147
0.052842353 -0.0010161698 0.7519297
0.052732583 -0.0020281374 0.75142008
0.052623272 -0.0030359328 0.75091255
0.052514408 -0.0040395856 0.75040722
0.052405998 -0.0050390065 0.74990386
0.052298032 -0.0060343742 0.74940264
0.052190293 -0.0070256293 0.74890238
0.052083213 -0.0080127716 0.74840528
0.051976576 -0.0089959204 0.7479102
0.051870368 -0.0099750757 0.74741709
0.051764596 -0.010950208 0.74692601
0.051659256 -0.011921346 0.74643695
0.051554129 -0.012888521 0.74594885
0.051449642 -0.013851792 0.74546379
0.051345576 -0.014811218 0.74498063
0.051241934 -0.01576674 0.74449944
0.05113871 -0.016718388 0.74402016
0.0510359 -0.01766625 0.74354291
0.050933503 -0.018610299 0.74306744
0.050831303 -0.019550472 0.74259293
0.050729722 -0.020486981 0.74212134
0.050628543 -0.021419764 0.74165165
0.050527774 -0.022348821 0.74118382
0.050427403 -0.023274153 0.74071777
0.050327428 -0.02419585 0.74025369
0.050227847 -0.02511394 0.73979127
0.05012846 -0.026028216 0.73932987
0.050029665 -0.026939005 0.73887122
0.049931262 -0.027846277 0.73841441
0.049833246 -0.028749943 0.73795927
0.049735613 -0.029650062 0.73750603
0.049638357 -0.030546665 0.73705447
0.049541287 -0.031439632 0.7366038
0.049444791 -0.032329261 0.73615575
0.049348671 -0.033215433 0.73570955
0.049252927 -0.034098178 0.73526508
0.049157552 -0.034977466 0.73482221
0.049062543 -0.035853386 0.73438108
0.048967902 -0.036725909 0.73394179
0.048873436 -0.037594974 0.73350322
0.048779517 -0.038460761 0.73306715
0.048685968 -0.039323241 0.73263276
0.048592776 -0.040182471 0.73220015
0.048499934 -0.041038394 0.73176908
0.048407454 -0.041891068 0.73133969
0.048315126 -0.042740256 0.73091108
0.04822335 -0.043586493 0.73048496
0.048131913 -0.044429451 0.73006052
0.048040826 -0.045269221 0.72963756
0.047950085 -0.046105802 0.72921634
0.047859684 -0.046939284 0.7287966
0.047769625 -0.047769606 0.72837847
0.047679715 -0.048596591 0.72796106
0.049063329 -0.050950348 0.73438478
0.052534617 -0.055565476 0.75050104
0.056534242 -0.060883015 0.76907015
0.061193369 -0.067077368 0.79070115
0.066689409 -0.074384332 0.81621772
0.062637523 0.076819599 0.79191899
0.06248625 0.075455129 0.7912299
0.062335391 0.074096799 0.79054272
0.062185574 0.072745442 0.78986037
0.062036473 0.071400464 0.78918117
0.061888084 0.070061982 0.78850526
0.06174041 0.068729967 0.7878325
0.061593436 0.067404121 0.78716308
0.061446853 0.066084355 0.78649539
0.061301269 0.064771175 0.78583223
0.061156377 0.063464195 0.78517222
0.061012167 0.062163353 0.78451532
0.060868632 0.060868651 0.78386152
0.060725775 0.059580028 0.78321075
0.06058358 0.058297426 0.78256303
0.060441762 0.057020515 0.7819171
0.060300902 0.055749923 0.78127545
0.060160689 0.054485202 0.78063673
0.060021129 0.053226322 0.78000104
0.05988222 0.051973283 0.77936828
0.059743948 0.050726026 0.77873838
0.059606306 0.049484491 0.77811146
0.059469022 0.0482485 0.77748609
0.05933265 0.047018349 0.77686489
0.059196904 0.045793831 0.77624655
0.059061777 0.044574976 0.77563107
0.058927264 0.043361604 0.77501833
0.058793359 0.042153746 0.77440834
0.058660068 0.040951401 0.77380109
0.058527101 0.039754242 0.77319551
0.058395009 0.038562775 0.77259386
0.05826351 0.037376612 0.77199483
0.058132604 0.036195785 0.77139854
0.058002286 0.035020232 0.770805
0.057872552 0.033849984 0.77021402
0.057743393 0.032684922 0.76962566
0.05761455 0.031524986 0.7690388
0.057486538 0.030370265 0.76845568
0.057359099 0.02922067 0.76787508
0.05723222 0.028076172 0.76729727
0.057105906 0.026936769 0.76672179
0.056980141 0.025802374 0.76614892
0.056854937 0.024672925 0.76557857
0.056730021 0.023548305 0.76500958
0.056605902 0.022428751 0.76444423
0.056482334 0.021314114 0.76388139
0.056359302 0.020204335 0.76332086
0.056236807 0.019099295 0.76276296
0.056114838 0.017999142 0.76220739
0.055993147 0.016903579 0.76165307
0.055872232 0.015812933 0.7611022
0.055751845 0.014726907 0.7605539
0.055631969 0.013645589 0.76000786
0.055512611 0.012568891 0.75946414
0.055393763 0.011496812 0.75892282
0.055275422 0.010429382 0.75838375
0.055157341 0.0093663335 0.75784588
0.055040006 0.0083079338 0.7573114
0.054923169 0.0072540045 0.75677925
0.054806832 0.0062046051 0.75624919
0.054690983 0.0051595271 0.75572151
0.054575622 0.0041189492 0.75519609
0.054460745 0.0030827224 0.75467277
0.054346118 0.002050817 0.75415063
0.054232206 0.0010232627 0.75363183
0.054118767 2.9802322e-08 0.75311506
0.054005809 -0.0010189414 0.75260055
0.05389332 -0.0020336807 0.75208807
0.053781297 -0.003044188 0.75157785
0.053669736 -0.004050523 0.75106966
0.053558409 -0.0050526559 0.75056255
0.053447776 -0.0060506463 0.75005853
0.053337593 -0.0070445538 0.74955672
0.053227868 -0.0080343783 0.74905682
0.05311859 -0.0090201199 0.74855912
0.05300976 -0.010001808 0.74806339
0.052901376 -0.010979503 0.74756968
0.052793212 -0.011953175 0.74707699
0.052685715 -0.012922883 0.74658728
0.052578647 -0.013888657 0.74609959
0.052472018 -0.014850527 0.74561387
0.052365821 -0.015808523 0.74513018
0.052260049 -0.016762644 0.7446484
0.052154493 -0.017712802 0.74416751
0.052049574 -0.018659294 0.74368966
0.051945072 -0.019601882 0.74321353
0.051840998 -0.020540774 0.74273956
0.051737335 -0.021475852 0.74226725
0.051634088 -0.022407234 0.74179703
0.051531248 -0.023334891 0.7413286
0.051428609 -0.024258763 0.74086106
0.051326588 -0.025179088 0.74039632
0.051224969 -0.026095778 0.73993349
0.051123753 -0.027008802 0.73947239
0.051022939 -0.02791819 0.7390132
0.05092252 -0.028824031 0.73855579
0.050822288 -0.029726237 0.73809922
0.050722659 -0.030624986 0.73764539
0.050623417 -0.031520218 0.73719335
0.050524563 -0.032411963 0.73674303
0.050426092 -0.033300191 0.73629445
0.050328005 -0.034185052 0.73584771
0.050230302 -0.035066426 0.73540258
0.050132774 -0.035944223 0.73495841
0.050035827 -0.036818802 0.73451674
0.049939252 -0.037689984 0.73407686
0.049843047 -0.038557827 0.73363864
0.049747214 -0.039422274 0.7332021
0.049651749 -0.040283442 0.73276722
0.049556457 -0.041141212 0.73233318
0.049461719 -0.041995794 0.73190165
0.049367342 -0.042847127 0.73147178
0.049273331 -0.043695182 0.73104346
0.049179673 -0.044540048 0.73061687
0.04908637 -0.045381695 0.73019183
0.04899342 -0.046220213 0.72976851
0.048900634 -0.047055274 0.7293458
0.048808385 -0.047887474 0.72892559
0.048716486 -0.048716456 0.72850698
0.050645936 -0.051601499 0.73729587
0.054278281 -0.056326509 0.75384158
0.058471628 -0.061781317 0.77294284
0.063367471 -0.068149894 0.79524398
0.064022064 0.07706365 0.79282522
0.063866958 0.075694233 0.79213178
0.063712597 0.074331373 0.79144168
0.063558996 0.072975129 0.79075491
0.063406117 0.071625471 0.79007143
0.063253976 0.070282221 0.78939128
0.063102253 0.06894508 0.78871298
0.062951565 0.067614675 0.78803927
0.0628016 0.066290587 0.78736877
0.062652342 0.064972818 0.78670156
0.062503792 0.063661277 0.78603739
0.062355947 0.062355965 0.78537643
0.062208798 0.061056823 0.78471851
0.062062044 0.059763491 0.78406239
0.061916273 0.058476508 0.78341073
0.061771192 0.057195574 0.78276205
0.061626792 0.055920601 0.78211653
0.061483063 0.054651618 0.78147393
0.061339997 0.053388536 0.78083432
0.061197601 0.052131295 0.78019774
0.061055571 0.050879657 0.77956271
0.06091449 0.049634099 0.77893198
0.060774054 0.048394173 0.77830416
0.060634274 0.04716 0.7776792
0.060495131 0.045931488 0.77705717
0.060356624 0.044708669 0.77643788
0.060218748 0.043491334 0.77582145
0.060081221 0.042279392 0.77520663
0.0599446 0.041073143 0.77459586
0.059808604 0.039872408 0.77398783
0.05967322 0.038677126 0.7733826
0.05953845 0.037487179 0.77278006
0.05940428 0.036302626 0.7721802
0.059270721 0.035123438 0.77158308
0.059137482 0.033949316 0.77098739
0.059005119 0.032780647 0.77039564
0.05887334 0.031617165 0.7698065
0.058742154 0.030458957 0.76921993
0.058611553 0.029305786 0.76863611
0.058481529 0.0281578 0.76805478
0.058352076 0.027014881 0.76747602
0.058222935 0.02587688 0.76689869
0.058094628 0.024744034 0.766325
0.057966884 0.023616105 0.76575392
0.057839695 0.022493213 0.76518536
0.057713073 0.021375239 0.76461917
0.057587001 0.020262122 0.76405561
0.057461217 0.019153744 0.76349324
0.057336237 0.018050343 0.76293445
0.057211809 0.01695165 0.76237816
0.057087909 0.015857786 0.76182425
0.056964554 0.01476863 0.76127273
0.056841724 0.013684154 0.76072359
0.056719426 0.012604326 0.76017684
0.0565974 0.011529118 0.75963134
0.056476146 0.010458559 0.75908923
0.056355417 0.0093926191 0.75854939
0.056235198 0.0083311498 0.75801194
0.056115489 0.0072742403 0.75747681
0.055996295 0.006221801 0.75694388
0.055877604 0.0051738918 0.75641322
0.055759173 0.0041303337 0.75588375
0.05564148 0.0030912161 0.75535756
0.05552429 0.0020564795 0.75483364
0.055407584 0.0010260642 0.75431192
0.05529137 2.9802322e-08 0.75379241
0.055175651 -0.0010217726 0.75327498
0.055060405 -0.0020392537 0.7527597
0.054945406 -0.0030524731 0.75224555
0.054831125 -0.0040615499 0.75173467
0.054717313 -0.0050663948 0.75122583
0.054603979 -0.006067127 0.75071919
0.05449111 -0.007063657 0.75021452
0.054378707 -0.0080560744 0.74971205
0.054266762 -0.0090444684 0.74921155
0.054155055 -0.01002866 0.74871212
0.054044031 -0.011008978 0.74821579
0.053933464 -0.011985213 0.74772143
0.053823348 -0.012957424 0.7472291
0.053713679 -0.013925761 0.74673885
0.053604458 -0.014890105 0.74625057
0.053495456 -0.015850484 0.74576318
0.053387117 -0.01680702 0.74527889
0.053279217 -0.017759711 0.74479645
0.053171754 -0.018708557 0.74431598
0.053064719 -0.019653618 0.74383754
0.05295812 -0.020594835 0.74336094
0.052851949 -0.021532267 0.74288625
0.052745979 -0.022465855 0.74241245
0.052640654 -0.023395836 0.74194157
0.05253575 -0.024322093 0.7414726
0.052431259 -0.025244683 0.74100542
0.052327186 -0.026163578 0.74054015
0.052223522 -0.027078837 0.74007672
0.052120272 -0.02799049 0.73961508
0.052017219 -0.028898448 0.73915434
0.051914774 -0.029802918 0.73869634
0.051812742 -0.030703843 0.73824024
0.051711105 -0.031601191 0.73778582
0.05160987 -0.032495081 0.73733318
0.05150903 -0.033385485 0.73688239
0.051408373 -0.034272224 0.73643237
0.051308319 -0.035155684 0.73598504
0.051208645 -0.036035687 0.7355395
0.051109366 -0.036912322 0.73509556
0.051010471 -0.03778553 0.73465347
0.050911956 -0.038655341 0.73421299
0.050813816 -0.039521843 0.73377424
0.05071586 -0.040384829 0.73333627
0.050618477 -0.041244656 0.73290092
0.050521471 -0.042101204 0.73246723
0.050424829 -0.042954475 0.73203522
0.050328564 -0.043804497 0.73160475
0.05023266 -0.04465121 0.73117602
0.050137125 -0.045494795 0.73074889
0.050041754 -0.046334952 0.73032254
0.049946941 -0.04717207 0.72989869
0.04985249 -0.048006058 0.72947633
0.04975839 -0.048836917 0.72905564
0.052269518 -0.052269548 0.74028236
0.056070365 -0.05710867 0.75727499
0.060467031 -0.06270656 0.77693152
0.065612227 -0.069257349 0.79993439
0.065256774 0.075935215 0.79304087
0.065098561 0.074567467 0.79234636
0.064941108 0.073206365 0.79165524
0.064784415 0.07185182 0.79096746
0.064628161 0.070503473 0.79028153
0.064472973 0.069161922 0.78960037
0.064318523 0.067826837 0.78892243
0.064164825 0.066498131 0.7882477
0.064011849 0.065175742 0.7875762
0.063859604 0.063859612 0.78690797
0.063708089 0.06254977 0.78624284
0.063556969 0.061245799 0.7855795
0.063406877 0.059948325 0.78492069
0.063257493 0.058656961 0.78426504
0.063108809 0.057371646 0.78361243
0.062960826 0.056092381 0.7829628
0.062813535 0.054819107 0.78231633
0.062666625 0.053551495 0.7816714
0.062520713 0.052290082 0.78103089
0.062375467 0.05103448 0.78039342
0.062230896 0.04978475 0.77975881
0.062086996 0.048540741 0.77912718
0.061943758 0.047302544 0.77849841
0.061801188 0.046070009 0.77787256
0.061658967 0.044842929 0.77724826
0.061517701 0.043621689 0.7766282
0.061377075 0.042406023 0.77601099
0.061237089 0.041195869 0.77539653
0.061097741 0.03999126 0.77478486
0.06095903 0.038792133 0.77417594
0.060820945 0.037598431 0.77356988
0.060683202 0.036409944 0.77296525
0.060546361 0.035227031 0.77236456
0.060410138 0.034049362 0.7717666
0.060274526 0.032877028 0.77117133
0.060139522 0.031709969 0.77057874
0.060005121 0.030548096 0.76998878
0.05987132 0.029391408 0.76940143
0.059737835 0.028239757 0.76881552
0.059605222 0.027093321 0.76823342
0.059473198 0.025951952 0.76765394
0.059341755 0.024815649 0.76707697
0.059210889 0.023684382 0.76650256
0.059080604 0.022558093 0.76593065
0.05895089 0.021436721 0.76536131
0.058821477 0.020320207 0.76479322
0.058692899 0.01920861 0.76422882
0.058564875 0.018101871 0.76366687
0.058437414 0.01699999 0.76310736
0.058310501 0.015902877 0.76255029
0.058184147 0.014810503 0.76199567
0.058058333 0.013722926 0.76144338
0.057932802 0.01263991 0.76089239
0.057808071 0.011561632 0.76034486
0.057683878 0.010488003 0.75979978
0.05756022 0.0094189644 0.75925696
0.057437092 0.0083545446 0.75871646
0.057314485 0.0072945952 0.75817829
0.057192147 0.0062391758 0.75764132
0.057070583 0.0051882565 0.75710768
0.056949537 0.0041418076 0.75657636
0.056829002 0.0030997694 0.75604731
0.056708973 0.0020622015 0.7555204
0.056589451 0.0010289252 0.75499576
0.056470431 2.9802322e-08 0.75447333
0.056351669 -0.0010245442 0.75395209
0.056233648 -0.0020448565 0.753434
0.056116123 -0.0030608475 0.75291812
0.055999085 -0.0040726662 0.75240439
0.05588254 -0.0050801933 0.75189275
0.055766471 -0.0060835779 0.7513833
0.055650886 -0.0070828199 0.75087595
0.05553554 -0.0080778897 0.75036973
0.055420913 -0.0090688467 0.74986649
0.055306751 -0.010055751 0.74936539
0.055193067 -0.011038601 0.74886644
0.055079844 -0.012017399 0.7483694
0.054967087 -0.012992203 0.74787444
0.054854784 -0.013963014 0.74738145
0.054742716 -0.014929801 0.74688953
0.05463133 -0.015892744 0.74640065
0.054520398 -0.016851723 0.74591374
0.054409914 -0.017806858 0.7454288
0.054299884 -0.018758118 0.74494576
0.054190293 -0.019705534 0.74446476
0.054080918 -0.020649046 0.74398458
0.053972203 -0.021588862 0.74350744
0.053863928 -0.022524923 0.74303216
0.053756092 -0.02345714 0.74255878
0.053648684 -0.02438575 0.74208736
0.053541701 -0.025310606 0.74161774
0.053435147 -0.026231796 0.74115002
0.053328797 -0.027149171 0.7406832
0.053223085 -0.028063089 0.74021918
0.053117789 -0.028973311 0.739757
0.053012915 -0.029880017 0.73929667
0.052908454 -0.030783087 0.73883808
0.052804403 -0.031682611 0.73838139
