# .PCD v0.7 - Point Cloud Data file format
VERSION 0.7
FIELDS x y z
SIZE 4 4 4
TYPE F F F
COUNT 1 1 1
WIDTH 1335
HEIGHT 1
VIEWPOINT 0 0 0 1 0 0 0
POINTS 1335
DATA ascii
-0.0064861067 0.00076313317 0.69082654
0.0045712679 0.0030475259 0.69053119
-0.0045706192 0.011426568 0.69050509
-0.022487547 0.02058208 0.6906327
-0.025536781 0.022106692 0.69063306
-0.037274927 0.027385682 0.69024992
-0.046532623 0.032801688 0.69076097
-0.046532623 0.032801688 0.69076097
-0.055532038 0.036514252 0.69024992
-0.056370974 0.037326753 0.69050503
-0.056370974 0.037326753 0.69050503
-0.032546278 -0.0045948029 0.69147825
-0.023404343 -0.0030694306 0.69185561
0.011485537 0.0038285255 0.69145447
0.0076495903 0.0065026879 0.691275
0.0053547113 0.0076496005 0.69127494
0.0022980799 0.0095758885 0.69153273
-0.0045833569 0.01222229 0.69101763
-0.0069038728 0.014574856 0.69179112
-0.011490399 0.016470119 0.69153273
-0.013414551 0.017630935 0.69166178
-0.035138957 0.027500093 0.69101697
-0.058559962 0.039805666 0.69140399
-0.055998083 0.039121956 0.69179118
-0.037363842 -0.0061631203 0.69258708
-0.016581457 -0.0023136884 0.69279194
-0.014599966 -0.0015368164 0.69211042
0 0.00077182055 0.69293088
0.0053776405 0.0023047328 0.69206572
0.0053776405 0.0023047328 0.69206572
0.013114049 0.0061713457 0.69283354
-0.0007692498 0.012307972 0.69231093
0.00038570733 0.012333989 0.69270265
-0.013490001 0.019271851 0.69270271
-0.0514341 -0.0092813671 0.69332469
-0.049667936 -0.0093127191 0.69395542
-0.044028997 -0.0077243447 0.69308072
0.0186 0.003875047 0.69369912
0.0092700198 0.008497566 0.69309592
0.0046481094 0.011620313 0.69362307
-0.003090007 0.014677554 0.69309598
-0.0054151425 0.016245455 0.6933592
-0.027481649 0.027482487 0.69349116
-0.031717263 0.029396504 0.69335914
-0.034448884 0.030965582 0.6934911
-0.034448884 0.030965582 0.6934911
-0.043382358 0.035635501 0.69362307
-0.046481099 0.037184894 0.69362307
-0.05197734 0.040340662 0.69388771
-0.062660933 0.04486835 0.69335914
-0.040438741 -0.0077766776 0.69434327
-0.003501019 -0.00077804923 0.69443858
0.011648154 0.0023296773 0.69407177
0.021065261 0.005461365 0.69495326
0.00776878 0.010876298 0.69415253
0.01038783 0.010388216 0.69468582
-0.0023339414 0.016337574 0.69441867
-0.023372585 0.027268022 0.69468558
-0.02841619 0.029584303 0.69455212
-0.057489164 0.043505341 0.69415307
-0.025404356 -0.0054717362 0.69531202
-0.024281694 -0.0054829419 0.69569814
-0.014047173 -0.0031215847 0.69500244
0.021532256 0.006263867 0.6956259
0.010938294 0.010938287 0.69522166
0.0062504546 0.01328221 0.69522172
-0.010554889 0.02189222 0.69535631
-0.030514453 0.032079309 0.69549096
-0.037502725 0.035158813 0.69522172
-0.047370072 0.040715039 0.6956259
-0.056414895 0.045445353 0.69576091
-0.059702292 -0.012568861 0.69624764
-0.058644012 -0.01259473 0.69663763
-0.054334547 -0.011811823 0.69670653
-0.029532734 -0.0070879161 0.69672811
-0.021264533 -0.0055130124 0.69673502
-0.005505906 -0.0023596585 0.69648945
0.0023581511 -0.00078600645 0.69636691
0.015715728 0.010215223 0.69630319
0.0023539849 0.016477913 0.69603169
0.00078466162 0.017262578 0.69603163
0.0015760856 0.018124998 0.69684792
-0.014667984 0.025407454 0.69630277
-0.019672792 0.028328806 0.69657487
-0.022410672 0.029488683 0.69643903
-0.033371687 0.034549832 0.69616711
-0.037717745 0.036931962 0.69630319
-0.04170632 0.039345592 0.69657481
-0.050290328 0.043218255 0.69630313
-0.054297086 0.045641065 0.69657552
-0.060418949 0.047864377 0.69603169
-0.066195816 0.052011013 0.69684857
-0.040286791 -0.0094791949 0.69730526
-0.0015839625 -0.0023759305 0.69779873
0.024499815 0.0075086057 0.69739687
0.023778006 0.0087186098 0.69794816
0.019786399 0.010288954 0.69767195
0.0075028725 0.015794948 0.69725907
0.0075028725 0.015794948 0.69725907
-0.003553573 0.021323159 0.69725913
-0.0063408017 0.023777992 0.69794816
-0.011451034 0.025271893 0.69725913
-0.015852004 0.028533608 0.69794822
-0.027621204 0.033145458 0.6971218
-0.03645961 0.038837403 0.69794816
-0.044385612 0.042800426 0.69794816
-0.053384483 0.046662256 0.6975342
-0.059359193 0.049861759 0.69767195
-0.062525019 0.05144465 0.69767189
-0.062525019 0.05144465 0.69767189
-0.050383188 -0.011901587 0.69815099
-0.049295496 -0.011926293 0.69854897
-0.041317496 -0.010329366 0.69842309
-0.011534492 -0.004772976 0.69864857
0.032521043 0.0039660037 0.69809204
0.033360381 0.0039714873 0.69835728
0.031795949 0.005564332 0.69850308
0.018309217 0.012736887 0.69878173
0.011658519 0.015633404 0.6985032
0.0087565528 0.017513126 0.69878107
-0.019489413 0.031421572 0.69864213
-0.024606179 0.033337414 0.69822526
-0.047693923 0.045309246 0.69850308
-0.059531081 0.050799906 0.69822526
-0.059703972 0.051743448 0.69878179
-0.060569815 -0.014345467 0.69900346
-0.0047946847 -0.0039955676 0.69952083
0.003596433 -0.0023974031 0.69952834
0.0075896583 -0.0015977621 0.6994648
0.01955365 0.00079812109 0.6992752
0.027516544 0.0023927242 0.69914865
0.034430142 0.0064056218 0.69990391
0.034430142 0.0064056218 0.69990391
0.029539648 0.0079837143 0.69934088
0.020727405 0.011958152 0.69906056
0.02155596 0.011975527 0.69934082
0.014370671 0.015568808 0.6993413
0.0079720784 0.018335819 0.69906056
0.0031981329 0.021587402 0.69962198
-0.0095804464 0.027544394 0.6993413
-0.013611917 0.030426681 0.69990385
-0.022321822 0.03348276 0.69906062
-0.026346173 0.03592661 0.69934088
-0.039605506 0.043206364 0.69976294
-0.042437155 0.044839293 0.69990391
-0.050444163 0.048842758 0.69990385
-0.050444163 0.048842758 0.69990385
-0.064335577 -0.016083866 0.70074737
-0.019257611 -0.0072215796 0.70031416
0.0032177868 -0.0032177866 0.70080817
0.011254819 -0.0016078055 0.70067996
0.038489867 0.0048112571 0.70018667
0.038489867 0.0048112571 0.70018667
0.026500545 0.011242658 0.70047027
0.026500545 0.011242658 0.70047027
0.0016037443 0.023254335 0.70018661
-0.004825349 0.027343661 0.70075464
-0.0096506979 0.029756367 0.70075464
-0.0096506979 0.029756367 0.70075464
-0.018470077 0.033728033 0.70047021
-0.028487019 0.038518056 0.70032841
-0.033678632 0.040895492 0.70018667
-0.036511615 0.042530358 0.70032841
-0.048543464 -0.013753951 0.7019214
-0.045599941 -0.012913316 0.70144475
0.042066537 0.0056628287 0.70190066
0.019386727 0.016560107 0.70161295
0.014518645 0.018551588 0.70132595
0.013732212 0.019386649 0.70161223
0.0064717527 0.02346012 0.70190001
-0.015325244 0.033474177 0.70132601
-0.017797321 0.035594642 0.70190001
-0.029418662 0.040299982 0.7011829
-0.057183851 0.053962231 0.70103991
-0.056461398 0.054041654 0.70132589
-0.06452731 0.058074594 0.70132595
-0.066335693 0.059863895 0.70190066
-0.050391238 -0.014629692 0.70281565
-0.033325877 -0.01137954 0.70283115
-0.0085233385 -0.0064941496 0.70257711
0.03981575 0.0081256628 0.70276845
0.02835576 0.012962669 0.70218861
0.023494774 0.015393168 0.70218861
0.00081016467 0.026735455 0.70218861
-0.00081256632 0.02843985 0.70276845
-0.0044655064 0.030042723 0.70262325
-0.016227273 0.035700023 0.70247811
-0.059142221 0.056711763 0.70218927
-0.059142221 0.056711763 0.70218927
-0.061555639 -0.017121494 0.70343089
-0.028479682 -0.010578126 0.7030434
0.035826348 0.0016284585 0.70317137
0.04557126 0.0056964159 0.70305967
0.035478421 0.011418238 0.70349813
0.032550897 0.012206614 0.70305955
0.02533979 0.017165691 0.70393848
0.020435315 0.019617945 0.70393842
0.0057133725 0.026527002 0.70364463
-0.00733484 0.0325993 0.70335174
-0.0097652692 0.033364654 0.70305961
-0.0097652692 0.033364654 0.70305961
-0.010626327 0.03514865 0.70393771
-0.024413174 0.040688604 0.70305961
-0.020435315 0.040053248 0.70393842
-0.02775065 0.043258369 0.70364463
-0.033414271 0.045639038 0.70335162
-0.03187909 0.045775145 0.70393842
-0.048455149 0.052934542 0.7032057
-0.055336528 0.056150347 0.70305955
-0.066509537 -0.018885374 0.70482987
-0.054509193 -0.016393811 0.70448858
-0.045526862 -0.014765561 0.70463765
0.0016403922 -0.0057413578 0.70461041
0.0065687289 -0.0049265623 0.70482653
0.013510203 -0.0032751113 0.70426917
0.018443 -0.0024590045 0.70448482
0.04746313 0.0032733381 0.70415986
0.04263261 0.0094289929 0.70452875
0.04263261 0.0094289929 0.70452875
0.025415493 0.018036813 0.70452797
0.015577238 0.022955954 0.70452803
0.008186304 0.026196182 0.70423245
0.0024595638 0.02951479 0.70452797
-0.014779486 0.038590908 0.70482439
-0.026274644 0.044338495 0.70482445
-0.042568929 0.051573902 0.70423311
-0.042568929 0.051573902 0.70423311
-0.049265128 0.055833817 0.7048251
-0.06349121 0.062262669 0.70438087
-0.0082456116 -0.0082455873 0.70566416
0.012347518 -0.0041157901 0.70532787
0.042826068 0.0016471744 0.70542693
0.050161164 0.0065785348 0.70512176
0.018544111 0.023076758 0.70556957
0.0074230968 0.028867632 0.70571911
-0.020619713 0.042888999 0.70571917
-0.030425623 0.046871901 0.70512176
-0.034589078 0.049412996 0.70542002
-0.043713793 0.054436058 0.70571911
-0.058384307 0.060851246 0.70512176
-0.066607684 0.064963073 0.70512247
-0.067376167 -0.019840911 0.70618188
-0.00082904263 -0.0074613392 0.7067461
0.025721982 -0.0024892092 0.70691484
0.039014284 2.9802322e-08 0.7069993
0.05725497 0.0058085024 0.70692468
0.053773057 0.0066182315 0.70632005
0.050463948 0.0082727671 0.70632011
0.041301563 0.012390494 0.70601916
0.039769348 0.014084995 0.70662194
0.034021068 0.017425448 0.70692468
0.020681944 0.023163825 0.70632005
0.020681944 0.023163825 0.70632005
0.0033141123 0.032312602 0.70662194
-0.0066282246 0.037283778 0.70662194
-0.028169956 0.048054636 0.706622
-0.039649501 0.052866012 0.70601916
-0.048432007 0.057953224 0.70647103
-0.037475888 -0.01499033 0.70765269
-0.019586258 -0.011668563 0.70781517
0.00041572179 -0.0074775368 0.7071805
0.024175497 -0.0033345222 0.70785558
0.044111833 0.01331681 0.70753229
0.044111833 0.01331681 0.70753229
0.038227841 0.015789807 0.70722836
0.037453447 0.016645998 0.70753223
0.028341187 0.021672696 0.70783776
0.028341187 0.021672696 0.70783776
0.024931114 0.02243799 0.70722765
0.014149079 0.028298199 0.70753229
0.015004157 0.028341174 0.70783776
-0.0074906889 0.039118111 0.70753223
-0.016620742 0.043213964 0.70722765
-0.016620742 0.043213964 0.70722765
-0.016671287 0.044178933 0.70783776
-0.030401684 0.050808847 0.70768499
-0.046679765 0.05918327 0.70783854
-0.057428818 0.064087242 0.707533
-0.060387433 0.065801844 0.70768571
-0.062422629 0.06658414 0.707533
-0.026747566 -0.013373762 0.70839238
-0.0054274322 -0.0091853887 0.70819318
-0.0041842954 -0.0092054307 0.70863318
0.017569436 -0.0050198436 0.70858026
0.051804714 0.0016711354 0.7083196
0.061505888 0.0033472776 0.7086215
0.054264188 0.0091831684 0.70814419
0.054264188 0.0091831684 0.70814419
0.049255189 0.011687696 0.70814425
0.049255189 0.011687696 0.70814425
0.049255189 0.011687696 0.70814425
0.024210175 0.024210185 0.70814419
-0.0058616884 0.040194422 0.70875996
-0.042706586 0.058616906 0.70875996
-0.054264188 0.063447386 0.70814419
-0.049634866 -0.018507898 0.70969784
-0.049634866 -0.018507898 0.70969784
-0.031970836 -0.01514405 0.70971453
-0.0155316 -0.011753842 0.70928591
0.0058710934 -0.0075485408 0.70908433
0.029433722 -0.0033638477 0.70962417
0.050370682 0.00083956122 0.70927352
0.047877152 0.014279157 0.70937943
0.04710938 0.015142292 0.70969063
0.031869274 0.021805316 0.70906925
0.035332035 0.021030962 0.70969057
0.027718352 0.024358571 0.70937943
0.01682472 0.030284524 0.70968992
-0.011741312 0.043610603 0.70906925
-0.016773302 0.046126604 0.70906925
-0.020594243 0.048754483 0.709535
-0.021872215 0.049633116 0.70969063
-0.033546604 0.054513246 0.70906919
-0.069307067 -0.022820622 0.71064883
-0.052330088 -0.019412756 0.7103653
-0.017701626 -0.012643993 0.71009994
0.021912234 -0.0050566792 0.71006227
0.021912234 -0.0050566792 0.71006227
0.035411842 -0.0025294125 0.71014935
0.043812905 -0.00084257126 0.7100085
0.066560015 0.0058977306 0.71000278
0.068350285 0.0054855943 0.7103163
0.060473524 0.010149345 0.7107867
0.055692695 0.011813611 0.71031588
0.05139444 0.013480544 0.71000278
0.044791702 0.0177477 0.71062917
0.044791702 0.0177477 0.71062917
0.04232157 0.01946792 0.71094418
0.031269681 0.024508715 0.71062917
0.007582759 0.035386235 0.71000201
0.0033753025 0.037972212 0.71031511
-0.0042126444 0.041283935 0.71000201
-0.028778665 0.055018097 0.71094418
-0.032562163 0.056667179 0.7107867
-0.040628709 0.060943067 0.71094418
-0.05139444 0.064874977 0.71000272
-0.053079505 0.065717489 0.71000272
-0.057774026 -0.021240473 0.71171349
-0.052735861 -0.020413876 0.71194535
-0.04576369 -0.018644452 0.7111963
-0.019479994 -0.013551325 0.7110709
0.0042461818 -0.0093415678 0.71162134
0.0042461818 -0.0093415678 0.71162134
0.05353383 -0 0.71174371
0.066226147 0.0084905922 0.71157718
0.065478511 0.0093541145 0.71189511
0.065478511 0.0093541145 0.71189511
0.053407636 0.014411598 0.71126014
0.048471101 0.01785779 0.71189511
0.029762957 0.027211875 0.71189511
0.025471596 0.028867811 0.71157718
0.025471596 0.028867811 0.71157718
0.019558515 0.032314092 0.71189511
0.016157035 0.034014821 0.71189505
-0.045459248 0.064578116 0.71173614
-0.046770364 0.065478534 0.71189511
-0.039143518 -0.01786986 0.71203411
-0.011505943 -0.012784734 0.71236473
-0.011505943 -0.012784734 0.71236473
0.018718924 -0.0068068504 0.71201336
0.070019908 0.002561748 0.71274757
0.078599826 0.0042717457 0.71285492
0.069838695 0.0076652467 0.71221399
0.070800379 0.0076771677 0.71253395
0.062270209 0.011942267 0.71253395
0.04442599 0.021358669 0.71285486
0.037591223 0.024776042 0.71285492
0.0025590404 0.041797668 0.71253324
0.0034173713 0.041862845 0.71285415
0.00042650674 0.042617634 0.71237361
-0.00085301657 0.043503881 0.71253401
-0.0085169133 0.046843052 0.71221399
-0.013669535 0.050406426 0.71285486
-0.025550742 0.05535996 0.71221399
-0.034067653 0.059618384 0.71221405
-0.03747442 0.061321825 0.71221405
-0.039299913 0.063221633 0.71285486
-0.025739267 -0.016301513 0.71373117
-0.012436448 -0.013723314 0.71366662
0.010297427 -0.0094392896 0.7137658
0.022254273 -0.0068474114 0.71323818
0.053483993 -0.00085571408 0.71319115
0.073703468 0.0077131987 0.71349978
0.058276951 0.015426278 0.71349901
0.048926283 0.020600557 0.71382296
0.038505435 0.024814606 0.71317613
0.031759169 0.029184073 0.71382296
0.027424449 0.030852526 0.71349907
0.0025750676 0.043776184 0.71382296
-0.0055659092 0.047099009 0.7133376
-0.030852618 0.059991211 0.71349978
-0.035593655 0.062611118 0.71366137
-0.050410852 -0.02154322 0.71463746
0.007748933 -0.010331899 0.7144596
0.039626453 -0.0043072104 0.71456867
0.043917984 -0.0034444928 0.71449447
0.075819567 0.0025847852 0.71460283
0.082531683 0.0042985678 0.71414864
0.068776153 0.011176169 0.71414798
0.052524187 0.019804209 0.71447396
0.02751046 0.031809002 0.71414798
0.017194038 0.036967188 0.71414798
0.014637887 0.03874734 0.71447396
0.0017248135 0.045707554 0.71480095
-0.010316423 0.05072245 0.71414798
-0.022422574 0.057781279 0.71480095
-0.028414724 0.060273677 0.71447396
-0.052782122 -0.022497267 0.71549487
-0.034614146 -0.019037753 0.71551245
-0.008635099 -0.013816148 0.71506733
0.043332111 -0.0043332279 0.71582353
0.057223577 -0.0017340183 0.71591568
0.057223577 -0.0017340183 0.71591568
0.057872295 0.018139094 0.71512902
0.051123269 0.022528917 0.71578825
0.047657281 0.024261922 0.71578825
0.037141919 0.028504282 0.71512902
0.031959325 0.031095564 0.71512902
0.024223512 0.035470158 0.71545732
0.020763012 0.037200421 0.71545732
-0.011228953 0.052689701 0.71512902
-0.016411545 0.055281013 0.71512902
-0.019449718 0.057053536 0.71529353
-0.035526339 0.065853715 0.71578825
-0.03979592 0.067480057 0.7154581
-0.065063551 -0.025157899 0.716034
-0.019103758 -0.016498655 0.71623641
0.074636631 0.011282325 0.71611941
0.056500643 0.020861804 0.71645081
0.04701354 0.026118666 0.71678406
0.03818604 0.029507399 0.71611857
0.029601119 0.034824848 0.71678412
0.0087062111 0.045272321 0.71678406
0.00043462033 0.048638955 0.71628469
-0.029507505 0.063354373 0.71611935
-0.028685048 0.063454837 0.71645159
-0.011353172 -0.015719771 0.7174359
0.07610663 0.013121873 0.71779025
0.067144461 0.016568124 0.71711838
0.067144461 0.016568124 0.71711838
0.065609165 0.018370569 0.71779037
0.060264423 0.020525575 0.71745437
0.055111703 0.023619324 0.71779025
0.053362124 0.024494112 0.71779025
0.039240267 0.030520201 0.71711838
0.035752244 0.032264233 0.71711844
0.035752244 0.032264233 0.71711844
0.031442225 0.034935832 0.71745378
0.014824102 0.042728335 0.71711838
0.016620988 0.04286468 0.71779031
0.0026160181 0.048832357 0.71711844
-0.0034935807 0.052403718 0.71745384
-0.0095920656 0.054936379 0.71711844
-0.013548078 0.057690099 0.71762204
-0.016620988 0.059485674 0.71779031
-0.018370567 0.060360491 0.71779025
-0.058439717 -0.025485128 0.71875817
-0.0079079997 -0.015815973 0.71872646
-0.0079079997 -0.015815973 0.71872646
0.070094958 0.016647577 0.71812785
0.066803753 0.019337952 0.71880615
0.050502211 0.027227119 0.71863627
0.027205177 0.038613826 0.71846569
0.021484114 0.041213751 0.71829712
0.0087899677 0.048344851 0.71880615
0.003504748 0.049942672 0.71812785
-0.010547961 0.058013856 0.71880615
-0.019276114 0.06133309 0.71812779
-0.018429382 0.061431289 0.71846646
-0.024611907 0.065045774 0.71880615
-0.018557308 -0.01855731 0.71993715
0.0026421801 -0.014091611 0.7192238
0.0044171843 -0.014134943 0.71987808
0.017649468 -0.011472136 0.71964544
0.049369093 -0.0052895248 0.71943247
0.082891509 0.012345582 0.71948886
0.082891509 0.012345582 0.71948886
0.052111275 0.028263748 0.71983105
0.048422281 0.02905336 0.71914613
0.030814178 0.037857443 0.71914619
0.03350921 0.037036508 0.71948802
0.013206076 0.046661466 0.71914619
0.013206076 0.046661466 0.71914619
0.0061826939 0.051228046 0.71983105
0.0017636424 0.052909285 0.71948808
-0.0017636424 0.054672927 0.71948808
-0.013206125 0.059867829 0.71914697
-0.016727759 0.06162861 0.71914691
-0.073439762 -0.029198915 0.72021109
-0.048801597 -0.024844408 0.72081113
-0.015980013 -0.01864332 0.72092628
-0.007534455 -0.01684247 0.72060478
0.080634847 0.015063643 0.72052032
0.074312054 0.017693371 0.72017509
0.073546067 0.018608063 0.72052038
0.071002543 0.02041325 0.72086668
0.061140705 0.024810731 0.72052038
0.057596318 0.026582956 0.72052032
0.056802034 0.027513534 0.72086668
0.053080037 0.028309375 0.72017515
0.049541365 0.030078679 0.72017515
0.04519096 0.032785624 0.72052038
0.039051395 0.036388814 0.72086668
0.035501271 0.038163871 0.72086668
0.027469013 0.0416466 0.72052032
0.0062026801 0.052279741 0.72052038
-0.0035386691 0.05661872 0.72017515
-0.0088753179 0.060352176 0.72086668
0.082696699 2.9802322e-08 0.72127223
0.079375841 0.017837286 0.72191244
0.079375841 0.017837286 0.72191244
0.041781638 0.03555885 0.72121418
0.020446332 0.046226531 0.72121418
0.018729132 0.048160642 0.72191244
0.0097786803 0.051560342 0.72121418
-0.012465808 0.063219458 0.72156268
-0.015161678 0.065106034 0.72191244
-0.022314273 -0.020529121 0.72208327
-0.022314273 -0.020529121 0.72208327
0.067995414 -0.0035786927 0.72259158
0.085758403 0.015186399 0.72226328
0.060745537 0.027692825 0.72226328
0.031316999 0.042949051 0.72261447
0.025480572 0.045596182 0.72243845
0.017866267 0.049132288 0.72226244
0.012547278 0.052877843 0.72296762
0 0.0591515 0.72296762
-0.0053774049 0.061840177 0.72296762
-0.0053774049 0.061840177 0.72296762
-0.012506434 0.064318806 0.72226328
-0.011632072 0.06442377 0.7226153
-0.066396885 -0.029609382 0.72321415
-0.037719093 -0.024247974 0.72341174
-0.037719093 -0.024247974 0.72341174
-0.0053829583 -0.017943203 0.72319114
-0.00089682947 -0.017039746 0.72311133
0.027827062 -0.011669397 0.72330874
0.053112313 -0.0072016418 0.72392714
0.085432276 -0.00089928508 0.7237047
0.085281663 0.017056406 0.72332191
0.076304652 0.021544874 0.72332197
0.070918441 0.02423799 0.72332191
0.056555208 0.031419545 0.72332197
0.01526093 0.052066684 0.72332191
0.012588439 0.053950489 0.7236774
-0.0044885087 0.061941475 0.72332191
-0.054541685 -0.027947128 0.72424406
-0.010841663 -0.019876331 0.72471493
0.045114428 -0.0090228617 0.72442925
0.065072864 -0.0054227114 0.72479171
0.072170675 0.025259763 0.72439188
0.042330615 0.039628685 0.72403407
0.040662922 0.041566581 0.72475088
0.031522796 0.045032591 0.72403401
0.026118889 0.047734559 0.72403401
0.026118889 0.047734559 0.72403401
0.018913679 0.051337153 0.72403407
0.016238403 0.053225875 0.72439188
0.012629868 0.055030167 0.72439188
0.0063045598 0.057641745 0.72403401
-0.047535736 -0.027163461 0.72519237
-0.04257388 -0.026268989 0.72528356
-0.041733809 -0.026310414 0.72562873
-0.027230246 -0.023599535 0.7257297
-0.023553584 -0.022647649 0.72530288
0.032569822 -0.011761308 0.72501564
0.044508386 -0.0099916756 0.72588891
0.049031775 -0.0090799332 0.72580713
0.083546206 0.021794677 0.72583491
0.07706178 0.024478436 0.72547239
0.078097545 0.024519026 0.72583491
0.06538374 0.030875713 0.72583407
0.057116378 0.034451187 0.72547239
0.056302663 0.035416216 0.72583413
0.02905944 0.049037844 0.72583413
0.010897332 0.058119148 0.72583497
-0.0054486659 0.066292107 0.72583497
-0.0054486659 0.066292107 0.72583497
-0.059153393 -0.030031741 0.72630358
-0.011823893 -0.020919174 0.72617757
0.0036455865 -0.018227905 0.72662818
0.011820526 -0.016366869 0.72611511
0.011820526 -0.016366869 0.72611511
0.021840831 -0.014560521 0.72629941
0.073643036 -0.0045458674 0.72609138
0.089290343 0.020044774 0.72656286
0.081225209 0.024641395 0.72692907
0.06195657 0.033711702 0.7265628
0.05284531 0.038267314 0.72656286
0.028198041 0.050028801 0.7261979
0.015463443 0.056396127 0.7261979
0.0081865285 0.060034543 0.72619784
-0.01829122 -0.022864014 0.72739208
0.083327942 0.024723679 0.72766507
0.059519958 0.03662771 0.72766507
0.059519958 0.03662771 0.72766507
0.043037504 0.044868886 0.72766507
0.032049205 0.050363034 0.72766507
0.00045784583 0.06587483 0.72748077
-0.035778668 -0.026604623 0.72807789
-0.0064278017 -0.021119893 0.72828448
0.009201563 -0.018403113 0.72874296
0.019339701 -0.016576886 0.72893167
0.062611349 -0.0082867742 0.7288875
0.06616313 -0.0073514581 0.72844744
0.070731111 -0.0064301193 0.72836387
0.090029463 -0.0027559698 0.72838366
0.087282278 0.023887783 0.72840607
0.088349111 0.023927867 0.72877842
0.080986679 0.02760914 0.72877836
0.080986679 0.02760914 0.72877836
0.076257154 0.029400378 0.72840601
0.076257154 0.029400378 0.72840601
0.062580623 0.036812127 0.72877836
0.059719454 0.037669212 0.72840607
0.055217978 0.04049322 0.72877753
0.048694327 0.043181747 0.72840607
0.033130918 0.051537037 0.72877836
0.02751671 0.053198993 0.72803497
0.016510025 0.05870235 0.72803491
0.011475288 0.061505497 0.72822052
-0.02856556 -0.025801122 0.72905999
0.0073996345 -0.019424021 0.72990131
0.014740583 -0.017504483 0.72901583
0.015687009 -0.017532498 0.7293728
0.074884653 -0.0064715147 0.72979206
0.023123946 0.058272362 0.72990215
0.01198406 0.062685877 0.72915202
-0.05466646 -0.031502694 0.73028654
-0.038996309 -0.028782964 0.7307533
0.023172023 -0.016683817 0.73036641
0.06672208 -0.0083402395 0.73032165
0.078034937 -0.0065028667 0.73087496
0.084456161 0.028770804 0.73065823
0.068562567 0.036134362 0.73027956
0.054757293 0.043620199 0.73065829
0.037060846 0.051885188 0.73027956
0.0083528068 0.066822469 0.73065823
-0.067004316 -0.034432799 0.73126805
-0.021469353 -0.026136607 0.73195237
0.03536576 -0.01489082 0.73128307
0.045642406 -0.013040632 0.73147619
0.08101812 0.031662256 0.73141944
0.080223151 0.032648951 0.73180199
0.070894875 0.037313104 0.73180205
0.049355865 0.047493368 0.73141944
0.044623848 0.049272209 0.73103815
0.027889905 0.057639152 0.73103821
0.024253512 0.060633779 0.73180199
0.020452598 0.061357826 0.73103821
-0.070049994 -0.035491973 0.73208505
-0.044460073 -0.030888304 0.73257029
-0.044460073 -0.030888304 0.73257029
-0.034633841 -0.029017538 0.73258001
-0.0065372498 -0.023347288 0.73205924
-0.0065372498 -0.023347288 0.73205924
0.029506717 -0.016860709 0.73273915
0.082369119 0.032760471 0.73257101
0.076753043 0.035568535 0.73257095
0.058032557 0.044928491 0.73257011
0.046800446 0.0505445 0.73257011
0.046800446 0.0505445 0.73257011
0.030941125 0.059069425 0.73295653
0.025315465 0.061882287 0.73295665
-0.061184034 -0.034827828 0.73384577
0.0018792915 -0.022551477 0.73344809
0.0450201 -0.014068782 0.73303121
0.050711021 -0.013147295 0.73331469
0.043203946 0.053535342 0.73334444
0.025402356 0.063035518 0.73373353
-0.064243369 -0.035900682 0.73468167
-0.055605832 -0.033928961 0.73413038
-0.038787238 -0.031218946 0.7349894
-0.024568159 -0.02834785 0.73472369
-0.024568159 -0.02834785 0.73472369
0.0047213985 -0.022662699 0.73456681
0.034971893 -0.017013341 0.73478568
0.049092535 -0.014161319 0.73452038
0.0840718 -0.0075570047 0.73465067
0.086704984 0.032985628 0.734124
0.087004125 0.0340451 0.734909
0.079438545 0.037827879 0.734909
0.060524605 0.047284842 0.73490906
0.032153696 0.0614703 0.734909
0.026479516 0.064307392 0.73490906
-0.061713602 -0.036078721 0.73581266
-0.052178528 -0.034153193 0.73563409
0.06162174 -0.012324333 0.73547149
0.085156694 -0.0075694621 0.73502696
0.05020855 0.053050548 0.73530352
0.047448359 0.055040121 0.73569846
-0.059158627 -0.036258519 0.73695493
-0.049578067 -0.034323275 0.73677462
-0.019086972 -0.028630435 0.73699772
0.075332992 -0.010489404 0.73681265
0.080069236 -0.0095320046 0.73672163
0.080069236 -0.0095320046 0.73672163
0.07699994 0.040876538 0.73609668
0.07699994 0.040876538 0.73609668
0.065820545 0.047696084 0.73689449
0.043804143 0.058088094 0.73649442
0.043804143 0.058088094 0.73649442
0.038975123 0.059888601 0.73609579
0.020999571 -0.020999551 0.73704052
0.078357868 0.042045712 0.73729587
0.073708422 0.044990897 0.73769867
0.066890858 0.047779202 0.73729593
0.063068524 0.049690366 0.73729587
0.047779184 0.057335049 0.73729587
0.048819866 0.057435155 0.73769867
0.038223349 0.062112927 0.73729593
-0.070203654 -0.039429426 0.73877102
-0.066219956 -0.038388401 0.73829198
-0.060538914 -0.03747642 0.7385878
0.080771439 -0.010577202 0.73873985
0.090139106 0.03739816 0.73810291
0.085494027 0.04034552 0.73850852
0.070124313 0.048030376 0.73850864
0.056675814 0.054754615 0.73850864
0.055813003 0.055813015 0.73891568
0.055813003 0.055813015 0.73891568
0.047946334 0.058494538 0.73810291
0.045148529 0.060518265 0.73850864
-0.043408558 -0.034726799 0.73948097
-0.022225978 -0.030923069 0.73989433
-0.022225978 -0.030923069 0.73989433
-0.0019328756 -0.02706027 0.73991632
0.026995882 -0.021211028 0.73936117
0.032822903 -0.02027294 0.7396608
0.038664784 -0.019332379 0.73996013
0.048292652 -0.017385364 0.73977518
0.062705606 -0.014470488 0.73949713
0.088875197 -0.0096603036 0.73981899
0.088842861 0.040558726 0.73973411
0.065666199 0.052146733 0.73973316
0.037595425 0.065551013 0.73932421
-0.072520204 -0.040611297 0.74003661
-0.070824869 -0.040748537 0.74082547
-0.035857931 -0.033919632 0.74056703
-0.010657231 -0.029065192 0.74049604
0.009689305 -0.025192201 0.74051809
0.094971165 0.038763791 0.74055743
0.076423287 0.047401786 0.74014461
0.064814687 0.053206116 0.74014461
0.065898359 0.053300202 0.74055743
0.059219386 0.057277799 0.74097174
-0.043793675 -0.03600812 0.74154711
-0.017541818 -0.031185448 0.74187368
0.052509371 -0.017503113 0.7413547
0.075857483 0.049599141 0.74138755
0.04968727 0.063326925 0.74180472
-0.057585116 -0.039040715 0.74222934
0.065430567 -0.015625179 0.74236375
0.087018445 0.045953572 0.74264377
0.087018445 0.045953572 0.74264377
0.072223604 0.052703738 0.7422235
0.057686388 0.060619622 0.74264377
0.057686388 0.060619622 0.74264377
-0.040173262 -0.036253929 0.74315077
-0.023567952 -0.033387929 0.74367291
-0.019598583 -0.032337666 0.74317342
0.04214884 -0.020584315 0.74324012
0.054052349 -0.018672585 0.74385923
0.057861172 -0.017652541 0.74335897
0.078463316 -0.013731062 0.74338156
0.088199832 -0.011759937 0.74319005
0.088199832 -0.011759937 0.74319005
0.094202906 -0.010794044 0.74349958
0.084537208 0.049149603 0.74391252
0.084537208 0.049149603 0.74391252
0.079479739 0.05102402 0.74348772
0.07077533 0.056030482 0.74391252
0.062686861 0.058768958 0.74306548
0.052005474 0.064761519 0.74348873
-0.073821664 -0.043308705 0.74422586
-0.031557318 -0.035501987 0.74467915
-0.016744489 -0.032503992 0.74439037
0.0049337759 -0.028615922 0.74482137
0.024628971 -0.024628967 0.74443597
0.064009175 0.060070157 0.74433887
0.057218656 0.064124376 0.74476671
-0.077069901 -0.044463396 0.74514014
-0.070367001 -0.043607712 0.74586654
-0.039614804 -0.037634045 0.74569404
-0.0089069465 -0.03166914 0.7455228
-0.003957035 -0.030666977 0.74542576
0.037599076 -0.022757322 0.74547178
0.06330514 -0.017804533 0.74539775
0.074253164 -0.015840679 0.74561489
0.085221119 -0.01387319 0.74583244
0.087128103 0.05049473 0.74562693
0.061385702 0.063365906 0.74562693
-0.080343232 -0.045626998 0.74606138
-0.038691249 -0.037699103 0.74610764
0.014923481 -0.027857125 0.74678743
0.030857455 -0.024885029 0.74690878
0.093406029 0.048690408 0.74649346
0.093406029 0.048690408 0.74649346
0.078358792 0.055545479 0.74605942
0.080634333 0.055747211 0.74692905
0.056537353 0.066456199 0.74605942
0.056537353 0.066456199 0.74605942
0.074929439 -0.016983986 0.74779177
0.090918995 0.051953703 0.74780405
0.083772913 0.054851294 0.74736631
0.070936806 0.061944872 0.74780405
-0.069249563 -0.045162737 0.74889207
-0.050010901 -0.041008919 0.74807161
-0.023037881 -0.03605932 0.74841654
-0.017050695 -0.035104364 0.74873888
0.040077604 -0.02404657 0.74848729
-0.062416717 -0.044295698 0.7496416
-0.02614479 -0.037206054 0.74936336
0.011067993 -0.030185372 0.74951112
0.053338047 -0.022140324 0.74955881
0.059455834 -0.021162242 0.74988413
0.089465544 -0.015078425 0.74928176
0.081522197 0.059380412 0.74957526
0.081522197 0.059380412 0.74957526
0.076349795 0.061280787 0.74913007
0.071457729 0.064412624 0.74957538
0.068312973 0.065299183 0.74913007
-0.075864181 -0.047541559 0.75080073
-0.070777178 -0.046510696 0.75069928
-0.0020219542 -0.03336221 0.750669
0.0667165 -0.020217121 0.7506398
0.082932763 -0.017193347 0.75076509
-0.080084436 -0.048658878 0.75133288
-0.048623227 -0.042545289 0.75115347
-0.010153955 -0.035538822 0.75173575
-0.010153955 -0.035538822 0.75173575
0.025310924 -0.028348237 0.75102144
0.04657669 -0.024300843 0.75104558
0.089387462 0.058914512 0.75182527
0.086180843 0.059819669 0.75137281
0.071986355 0.066916913 0.75137281
0.075166725 0.06602487 0.75182533
-0.044888057 -0.042847663 0.75289148
-0.0030557204 -0.034631491 0.75250298
0.044807378 -0.025458723 0.75244892
-0.060266521 -0.045965999 0.75320137
-0.054211311 -0.04500559 0.75353658
0.015340965 -0.031704634 0.75350666
0.035735413 -0.027567297 0.75309157
-0.078179993 -0.050405502 0.75494391
0.0071907709 -0.033899307 0.75459832
0.018508013 -0.031874895 0.75483251
0.055459362 -0.024648607 0.75454342
0.075871587 -0.020505816 0.75412482
0.083311081 -0.019542098 0.75490713
0.088337995 0.063685536 0.75458223
-0.027868014 -0.041285932 0.75578034
0.0092784762 -0.03402108 0.75548893
-0.0702985 -0.049622416 0.75617933
-0.043405615 -0.044439048 0.75609851
0.059996456 -0.024826109 0.756329
0.071443275 -0.022779018 0.7565676
-0.040523935 -0.044680208 0.75745249
-0.034336898 -0.0437015 0.75779939
-0.018705247 -0.040527999 0.75747788
0.018683143 -0.03321448 0.75718141
0.041597586 -0.029118329 0.75766122
-0.081473522 -0.053271115 0.75876999
-0.081473522 -0.053271115 0.75876999
-0.020905988 -0.041811943 0.75895512
0.055370249 -0.02716276 0.75881571
0.077317268 -0.022986174 0.75884134
0.087689929 -0.020878553 0.75862408
-0.053350866 -0.04812035 0.75914735
0.024090592 -0.033517331 0.75946641
0.035646629 -0.031452924 0.75971103
0.069270164 -0.025189131 0.7599808
-0.0063123442 -0.039978176 0.76058662
0 -0.038980603 0.76094228
0.014703336 -0.0357081 0.76014751
0.070448324 -0.025235176 0.76044428
-0.086671986 -0.056019664 0.761774
-0.04856265 -0.048562616 0.76146847
-0.04326535 -0.047486335 0.76135802
-0.0074219694 -0.041350931 0.76257211
0.013759701 -0.03704536 0.76212722
0.035990618 -0.03281495 0.76215357
-0.072344236 -0.054258138 0.76344228
-0.034003161 -0.04675433 0.76313162
0.049984626 -0.030841559 0.76334983
-0.059746545 -0.052278191 0.76417065
-0.053420871 -0.051284045 0.76453638
-0.053420871 -0.051284045 0.76453638
-0.03098733 -0.04701522 0.7645632
0.0021354058 -0.040572703 0.76436383
0.080032155 -0.025610268 0.76421714
-0.084786452 -0.057955265 0.76570213
-0.040715668 -0.049287349 0.76527208
-0.0064357938 -0.042905271 0.76555389
0.010732169 -0.039709002 0.7656951
0.010732169 -0.039709002 0.7656951
0.021445442 -0.037529528 0.76546699
0.021445442 -0.037529528 0.76546699
0.042815302 -0.033181816 0.76501077
0.043967746 -0.033243895 0.76549399
0.061159197 -0.030043095 0.76563507
0.082472883 -0.025705814 0.76517832
-0.077529043 -0.057069987 0.76655817
-0.048530187 -0.051765531 0.76695812
-0.038717236 -0.049472004 0.76624107
0.002156395 -0.042049676 0.7668975
0.084931895 -0.025802046 0.76614654
-0.047541134 -0.051863015 0.76744854
-0.030270061 -0.048648328 0.76759183
-0.024853662 -0.047546118 0.76747608
-0.018396517 -0.046532333 0.76785123
0.049794544 -0.033557177 0.76793379
-0.033654947 -0.049939543 0.76869512
-0.022778207 -0.047725737 0.76846164
-0.0054263724 -0.044496208 0.76860601
0.017366147 -0.040159196 0.76863253
0.080379717 -0.028241485 0.76883245
-0.015236182 -0.046796829 0.7693361
0.0032729157 -0.043638825 0.7699815
0.069579966 -0.030441225 0.76906776
-0.070922352 -0.057828933 0.77001548
-0.030571353 -0.050224334 0.77018964
0.0043721851 -0.043721855 0.7704823
0.079934001 -0.029564619 0.77095068
-0.044996828 -0.053776711 0.77155358
0.041741017 -0.037347227 0.77178633
0.041741017 -0.037347227 0.77178633
-0.030878704 -0.05183205 0.77283967
-0.025353173 -0.050706327 0.7727192
0.038610812 -0.038610756 0.77292538
0.060564425 -0.034136266 0.77244383
0.061783936 -0.034201801 0.77295399
-0.087350361 -0.063024938 0.77353734
-0.047485583 -0.055215776 0.77320302
-0.0055359136 -0.047608823 0.77389508
0.016577523 -0.043101549 0.77340877
0.050797109 -0.036441386 0.77319545
-0.039890539 -0.054295421 0.77410948
-0.0033344072 -0.04779312 0.77492994
-0.090123534 -0.064532906 0.77521169
-0.031192442 -0.053472757 0.77554482
-0.024544686 -0.052436352 0.77594358
-0.070408396 -0.061467618 0.77640855
-0.012284931 -0.050256491 0.77621984
0.012310183 -0.045883387 0.77677399
0.012310183 -0.045883387 0.77677399
0.070454389 -0.034668028 0.77658474
0.081562728 -0.032401621 0.77633715
0.082841031 -0.032464713 0.77686232
-0.068439633 -0.061707854 0.77746296
0.020213442 -0.044918746 0.77770627
0.020213442 -0.044918746 0.77770627
0.038202733 -0.041573524 0.77786094
-0.083467044 -0.065420091 0.77890468
-0.060795486 -0.060795486 0.77839994
-0.054121409 -0.059759021 0.77880722
-0.036101613 -0.056408733 0.77896321
0.051841114 -0.039444298 0.77867478
0.051841114 -0.039444298 0.77867478
-0.075833969 -0.064515471 0.77985042
-0.075833969 -0.064515471 0.77985042
0.059937246 -0.038450271 0.77961886
-0.050004058 -0.060232162 0.78096223
-0.0034033763 -0.051050633 0.78048021
0.026083285 -0.045362234 0.78038287
0.066823341 -0.037375718 0.7800312
-0.046872891 -0.060591757 0.78260046
-0.034333289 -0.058366567 0.78289056
0.013736376 -0.049221992 0.78295213
0.037779242 -0.04464817 0.78298289
0.014910836 -0.04932043 0.78350478
0.03207019 -0.045814514 0.78311282
-0.062069587 -0.064368457 0.78409618
-0.055257645 -0.063315988 0.78452206
-0.018440777 -0.056474864 0.78484738
-0.041570429 -0.061200917 0.78537512
0.025424778 -0.048538178 0.78560138
0.061199415 -0.041569382 0.7853682
0.06823235 -0.040476769 0.78579664
-0.0081292242 -0.055743247 0.78696448
0 -0.054777384 0.78796846
0.0058245952 -0.053586274 0.78783387
0.060560569 -0.043091148 0.78776318
0.079241455 -0.039620697 0.78792965
0.014029175 -0.052609414 0.7888428
0.014029175 -0.052609414 0.7888428
0.039835069 -0.048036367 0.78945154
0.070271395 -0.042162806 0.78934789
0.030616507 -0.05063501 0.79088521
0.069702066 -0.043711454 0.79181057
0.021304023 -0.053260058 0.79233348
-0.026139988 -0.062973589 0.79344988
0.066463619 -0.045100272 0.79312861
-0.034706663 -0.065822959 0.79552615
-0.013227709 -0.062530965 0.79691136
-0.0023976553 -0.059941351 0.79602015
0.038570512 -0.053034455 0.79758966
0.056566183 -0.049344927 0.79715675
0.063889906 -0.048218787 0.79762381
0.020521048 -0.056734651 0.79802221
0.071236849 -0.047088772 0.79809076
-0.0084887436 -0.063059211 0.79936385
0.013404329 -0.059710175 0.80078775
0.013404329 -0.059710175 0.80078775
0.03899904 -0.054842383 0.80082262
0.0571937 -0.051109225 0.80038011
0.070658788 -0.048730165 0.80071032
-0.0036690286 -0.063596487 0.80185825
0.053797938 -0.052575231 0.80177879
0.066701256 -0.051878721 0.80480325
0.066701256 -0.051878721 0.80480325
0.028435364 -0.059343368 0.80507165
0.028435364 -0.059343368 0.80507165
0.047442384 -0.057430238 0.80800819
0.056398124 -0.056398124 0.80916893
0.035396893 -0.061944544 0.81179631
0.02409745 -0.064682573 0.81278908
0.031760704 -0.063521385 0.81330603
0.048547741 -0.061323464 0.81503081
0.065524645 -0.059100628 0.81677496
0.054139871 -0.061874121 0.8178004
0.049119823 -0.063338727 0.81866533
0.053357918 -0.063769221 0.82078642
0.070681162 -0.061518759 0.82259643
-0.047301263 0.0069230301 0.67371273
-0.052976124 0.0090319868 0.67324007
-0.049386308 0.0014010519 0.67571759
-0.041067347 0.0067089549 0.67559713
-0.056883283 0.013426386 0.67482442
-0.057204153 0.014943595 0.67570513
-0.055021357 0.014018238 0.67581266
-0.039069008 0.0025879792 0.6770581
-0.029052999 0.0032170638 0.67925453
-0.034952603 0.0077015907 0.67822599
-0.052774273 0.017157467 0.67857987
-0.049362108 -0.0021777451 0.68184859
-0.049362108 -0.0021777451 0.68184859
-0.019227002 0.0036278069 0.68176222
-0.036660265 0.011501282 0.68013817
-0.042785626 0.015223797 0.68056655
-0.057032101 -0.0043871207 0.68312216
-0.036986921 -0.00073239207 0.68341911
-0.031214884 0.00048676133 0.68321931
-0.024935452 0.0021842048 0.68236703
-0.024935452 0.0021842048 0.68236703
-0.015418836 0.0066080689 0.68385649
-0.024775511 0.0092304945 0.68252152
-0.023004889 0.0089477971 0.68291283
-0.048606835 0.021297146 0.68261957
-0.046990737 0.022394046 0.68385649
-0.030933967 0.015221924 0.68441188
-0.036910914 0.020217665 0.68571508
-0.049726062 0.026718497 0.68577564
-0.049726062 0.026718497 0.68577564
-0.060287625 0.029408604 0.68409419
-0.062090948 0.031784654 0.6850509
-0.04877504 -0.0049780114 0.686831
-0.0091073979 0.0087970793 0.6873256
-0.016755721 0.011171654 0.68638468
-0.028670952 0.017129278 0.68638462
-0.053126276 -0.0070510558 0.68895614
-0.014687631 0.013307279 0.68844223
-0.039074741 0.02687085 0.68933129
-0.05084249 0.031384729 0.68844241
-0.056427248 0.033856392 0.68823415
-0.056998171 0.035106141 0.68886018
-0.056998171 0.035106141 0.68886018
-0.060712509 -0.0096742064 0.69096518
-0.047233876 -0.0071307672 0.69101763
-0.011053488 2.9802322e-08 0.69063956
-0.0030567427 0.0012725543 0.6910755
0.0003835485 0.010731876 0.69166178
-0.0091008907 0.014838752 0.69124949
-0.025595652 -0.004653722 0.69385022
-0.026517592 -0.0038431436 0.69216204
-0.015074195 0.020873815 0.69322824
-0.030784084 0.027449787 0.69239807
-0.030784084 0.027449787 0.69239807
-0.030784084 0.027449787 0.69239807
-0.051056195 0.039067265 0.69335997
-0.056979358 0.04263784 0.69375539
-0.041090779 -0.0086095184 0.69555485
-0.015024285 -0.0033178031 0.69501877
0.015046335 0.0089888498 0.69528955
0.007126716 0.011402508 0.69428575
-0.019182757 0.026621372 0.6956259
-0.021939123 0.028207481 0.69576091
-0.039540261 0.036800146 0.6956259
-0.036878899 -0.0086775571 0.69704747
-0.028971415 -0.0070952177 0.69692403
0.019070448 0.0023591518 0.69644642
0.028826101 0.0051339492 0.69725966
0.030757397 0.0050163819 0.69781017
0.012681603 0.014266819 0.69794816
0.0067292913 0.016888823 0.69771826
-0.0035638402 0.022176817 0.69781005
-0.014848885 0.027014464 0.6972875
-0.013049352 0.026495308 0.69753456
-0.028830253 0.033119563 0.69671261
-0.010948765 -0.0047779456 0.69884837
-0.007191929 0.026638549 0.69952857
-0.044878975 0.043687806 0.6983642
-0.040835749 0.044038594 0.69990391
-0.056356095 0.049212396 0.69822526
-0.063132271 0.054608762 0.69952887
-0.048793942 -0.013443222 0.70130777
-0.040988393 -0.012115009 0.70158601
-0.031555738 -0.010518581 0.70193672
-0.013084218 -0.0064418167 0.70099735
0.035005432 0.0028150454 0.7008732
0.04448599 0.0040441751 0.70186794
0.022903964 0.013260625 0.70061284
0.0068312138 0.021296993 0.70061278
0.0068312138 0.021296993 0.70061278
0.0016037443 0.023254335 0.70018661
-0.0013462976 0.02692635 0.70161247
0 0.026695967 0.70190001
-0.0090085017 0.029272038 0.70064861
-0.0148998 0.032822121 0.70104086
-0.013219666 0.032697551 0.70150518
-0.022651134 0.038021564 0.70190001
-0.029065426 0.040638682 0.70151728
-0.036873113 0.043203749 0.70064831
-0.047289692 0.05011934 0.70175672
-0.053165488 0.052762609 0.7015655
-0.063007429 -0.017073065 0.70287383
0.015382052 -0.0016191602 0.70204782
0.039698068 0.0072914958 0.70218855
0.034992918 0.010986425 0.70306015
0.01880049 0.020435333 0.70393836
-0.016891278 0.037041154 0.70313323
-0.023043113 0.039388426 0.7026602
-0.027224967 0.042827025 0.7035352
-0.050839569 0.053174511 0.70258743
-0.050839569 0.053174511 0.70258743
-0.057158671 0.055942833 0.70233369
-0.068458661 0.063161895 0.70335215
-0.059178486 -0.017200895 0.70434356
-0.043060251 -0.014834419 0.7055614
-0.016839489 -0.0094482228 0.70491379
-0.016839489 -0.0094482228 0.70491379
0.023173653 -0.0016405359 0.70463014
0.039015498 0.0012305453 0.70489454
0.044601165 0.0016519129 0.7059989
0.046942376 0.0086476058 0.70542026
0.035027493 0.01483506 0.70556962
0.0088242125 0.026675928 0.70475101
-0.0012285577 0.031131238 0.70438015
-0.0065490431 0.033563852 0.70423239
-0.034382593 0.047480762 0.70423311
-0.042568929 0.051573902 0.70423311
-0.04526078 0.054519899 0.70527148
-0.057116821 0.059303544 0.70452899
-0.06499289 -0.019934148 0.70711988
-0.045835204 -0.016667336 0.70779026
-0.035058565 -0.014106736 0.70693094
-0.011323454 -0.0093910899 0.70661849
-0.011323454 -0.0093910899 0.70661849
0.0057826638 -0.005782634 0.70603448
0.0057826638 -0.005782634 0.70603448
0.056851231 0.0053132949 0.70647687
0.039133973 0.015057004 0.70704669
-0.016520625 0.041301578 0.70601916
-0.018889353 0.042950265 0.70632064
-0.026748691 0.046879582 0.70632041
-0.037065137 0.054140568 0.70768499
-0.041678216 0.056682408 0.70783776
-0.049088314 0.05915606 0.70703894
-0.055153124 0.062637359 0.70733041
-0.053348303 0.062517554 0.70783848
-0.017160542 -0.011719584 0.70869488
0.020957442 -0.0046121329 0.7089901
0.027231902 -0.0033515841 0.7088834
0.046917394 0.00041763484 0.70886719
0.059076577 0.0086799366 0.70937979
0.023116671 0.02689904 0.709535
0.017179864 0.028912567 0.70891511
0.017179864 0.028912567 0.70891511
0.0048140185 0.034738969 0.70868361
-0.030494347 0.051799163 0.70829797
-0.034875453 0.054881029 0.70887667
-0.057041761 0.065191597 0.70837498
-0.03101461 -0.016144753 0.71173906
0.0047631739 -0.0088924393 0.7110216
0.017704532 -0.0059015155 0.71013337
0.039598994 0.019378245 0.71000278
0.042712264 0.019030727 0.71078718
0.032776214 0.025033206 0.71145874
0.022517692 0.030589655 0.71173608
0.0029651346 0.039390251 0.7111026
-0.012637932 0.045496553 0.71000206
-0.025066167 0.054381579 0.71173608
-0.049016431 0.064653546 0.71063077
-0.05294276 0.067344263 0.71110302
-0.049039904 -0.020558573 0.71340096
-0.043264039 -0.01907146 0.712744
-0.023087367 -0.015392125 0.71304166
0.0012834251 -0.010842125 0.71322048
0.047369353 -0.0017069727 0.7126497
0.068721831 0.0089643523 0.71269494
0.06284795 0.013141414 0.7134999
0.06284795 0.013141414 0.7134999
0.045028795 0.022299826 0.71366107
0.03719341 0.025223576 0.71301603
0.013627012 0.035770893 0.71221328
0.0089639826 0.038843162 0.71269441
-0.031207707 0.059424214 0.71301639
-0.041142151 0.063525237 0.71245402
-0.042897545 -0.020798951 0.715819
-0.042897545 -0.020798951 0.715819
-0.036840364 -0.018959239 0.71465051
-0.0152403 -0.014953643 0.71485537
0.063203081 7.4505806e-09 0.71490276
0.065353543 0.00028656921 0.71511543
0.074947745 0.0017328858 0.71577567
0.075653769 0.0077373683 0.71414793
0.073046304 0.010806315 0.715294
0.066863313 0.013266034 0.71488386
0.035065677 0.030303419 0.71562272
0.014730378 0.040725172 0.71578747
0.014730378 0.040725172 0.71578747
-0.03120099 0.061541282 0.71439242
-0.039146818 0.06538868 0.714311
-0.069355756 -0.026408624 0.71677136
-0.063132882 -0.025253251 0.71682793
-0.056993112 -0.024457194 0.71747226
-0.024897244 -0.018345565 0.71750307
0.0072091864 -0.012232199 0.71753466
0.041336577 -0.0052214116 0.71669126
0.057199404 -0.002619803 0.7174232
0.082972646 0.0091710091 0.71745414
0.080853865 0.010489106 0.71762204
0.063271299 0.01876381 0.71728665
0.044614233 0.02886802 0.71779031
0.0369725 0.030883327 0.71661794
0.029189423 0.03528899 0.71695185
0.023126971 0.038836002 0.71728671
0.0061235223 0.048113406 0.71779031
-0.053028993 -0.024644606 0.71908808
-0.0030762453 -0.014943376 0.71881258
0.015159566 -0.011423886 0.71874952
0.023244042 -0.0096483082 0.71835327
0.032918952 -0.0079004318 0.71852446
0.084892899 0.0017594695 0.71897972
0.052111275 0.028263748 0.71983105
0.037094928 0.034783516 0.71918929
-0.0013170914 0.053137586 0.71863681
-0.0013170914 0.053137586 0.71863681
-0.023847623 0.06624344 0.71983188
0.052738387 -0.0053181052 0.72058225
0.061070323 -0.0044576675 0.72183257
0.079659127 -0 0.72027993
0.082943298 0.016053557 0.72191238
0.073162742 0.019067302 0.72069407
0.073162742 0.019067302 0.72069407
0.043150581 0.035143711 0.721389
0.011121552 0.05115822 0.721389
0.0050212271 0.052871071 0.72052073
-0.05001628 -0.025901288 0.72222257
-0.045122154 -0.025018409 0.72231114
-0.032792941 -0.023359582 0.72350168
0.0010431851 -0.016409393 0.72266668
0.003135649 -0.016124398 0.72286272
0.072638676 -0.0029904447 0.72310245
0.072638676 -0.0029904447 0.72310245
0.082860097 -0.0008957684 0.72285825
0.061242379 0.02771537 0.72243893
0.068337239 0.026076078 0.7236774
0.056957982 0.030946232 0.72314537
0.045149505 0.035761684 0.72243845
0.033052593 0.041539088 0.7222625
0.021439519 0.047345638 0.72226244
0.021439519 0.047345638 0.72226244
-0.040555127 -0.025234282 0.72417247
-0.014924203 -0.020803913 0.72496766
0.010894025 -0.016341001 0.72576839
0.033048563 -0.011770576 0.72518778
0.0745662 -0.003615275 0.72480106
0.083025128 -0.0018048584 0.72446752
0.08288686 0.021288551 0.72529227
0.07307291 0.024809092 0.72439218
0.064876497 0.030850217 0.72565329
0.052925259 0.034883063 0.72439229
0.052925259 0.034883063 0.72439229
0.045933217 0.037827373 0.72403407
0.041081384 0.041081771 0.72457194
0.034508083 0.046313524 0.72583407
0.01492246 0.054715082 0.72493148
0.01492246 0.054715082 0.72493148
0.0067943418 0.05933474 0.72529209
-0.068705581 -0.031850398 0.72629398
-0.068705581 -0.031850398 0.72629398
-0.047093265 -0.028347611 0.72736275
-0.0263643 -0.023636967 0.72607708
0.050437123 -0.01008743 0.72799027
0.057088271 0.03699372 0.72711337
0.02838644 0.052194446 0.72766507
-0.066847935 -0.033193648 0.72919905
-0.044562858 -0.028483689 0.72842258
-0.041580133 -0.028644085 0.7296716
-0.017102489 -0.024036437 0.72978652
0.039175153 -0.012904614 0.72913003
0.046256043 -0.012026548 0.72994149
0.066676296 -0.007357344 0.72862506
0.074884653 -0.0064715147 0.72979206
0.083078682 0.025703803 0.72822052
0.084562145 0.027263746 0.72971451
0.071170151 0.03251794 0.72877854
0.071170151 0.03251794 0.72877854
0.02300759 0.05659911 0.72877848
0.011475288 0.061505497 0.72822052
0.0073377895 0.06328845 0.72803497
0.0032241654 0.066779047 0.72896582
-0.075560205 -0.036380827 0.73180556
-0.055975601 -0.032652378 0.73182601
-0.005105034 -0.022278115 0.73069841
0.024622379 -0.016724333 0.73090988
0.027795851 -0.015750974 0.73028123
0.069318861 -0.0083740354 0.73122787
0.062800854 0.039599102 0.73065871
0.050987419 0.045116328 0.73040581
0.048766553 0.046909198 0.73084885
0.037060846 0.051885188 0.73027956
0.031245746 0.055376679 0.73065871
-0.065221027 -0.035191923 0.73314941
0.00093913468 -0.022514692 0.73307812
0.017406374 -0.019758135 0.7337423
0.065245092 -0.010326475 0.73323739
0.085072398 0.032900795 0.73353899
0.073413983 0.036941394 0.73237842
0.027284013 0.062094659 0.73373353
-0.071263559 -0.0380072 0.73599148
-0.016555689 -0.026961088 0.7349689
0.042727891 -0.016141623 0.73582923
0.053276956 -0.013201252 0.73424542
