# .PCD v0.7 - Point Cloud Data file format
VERSION 0.7
FIELDS x y z
SIZE 4 4 4
TYPE F F F
COUNT 1 1 1
WIDTH 1314
HEIGHT 1
VIEWPOINT 0 0 0 1 0 0 0
POINTS 1314
DATA ascii
-0.039865628 0.049065411 0.75337738
-0.039749723 0.047903538 0.75265992
-0.039634664 0.046748579 0.7519477
-0.039520264 0.045600325 0.75123948
-0.039406523 0.044458658 0.75053543
-0.039293271 0.043323368 0.74983436
-0.039180834 0.042194754 0.7491383
-0.039069034 0.041072577 0.74844635
-0.038957708 0.039956629 0.74775708
-0.038847182 0.038847208 0.74707288
-0.038737278 0.037744015 0.74639255
-0.038627993 0.036647081 0.74571609
-0.038519163 0.035556167 0.74504244
-0.038411107 0.034471542 0.7443735
-0.038303651 0.033392966 0.74370831
-0.038196642 0.032320231 0.74304593
-0.038090382 0.031253666 0.74238813
-0.037984714 0.030193001 0.74173403
-0.037879627 0.029138207 0.7410835
-0.037774969 0.028089076 0.74043566
-0.037671041 0.027045906 0.73979229
-0.037567683 0.026008427 0.73915249
-0.037464738 0.024976522 0.73851526
-0.037362505 0.023950309 0.73788238
-0.037260834 0.022929758 0.73725295
-0.037159562 0.021914631 0.73662609
-0.037058987 0.020905077 0.73600346
-0.036958955 0.019901007 0.73538423
-0.03685946 0.018902302 0.73476833
-0.036760356 0.017908931 0.73415488
-0.03666193 0.016920924 0.73354554
-0.036564026 0.015938222 0.73293954
-0.036466502 0.014960617 0.73233587
-0.03636964 0.013988346 0.73173618
-0.036273289 0.013021201 0.73113978
-0.036177449 0.012059182 0.73054647
-0.036081973 0.01110214 0.72995549
-0.035987139 0.010150224 0.72936845
-0.035892803 0.009203285 0.72878444
-0.035798822 0.0082612634 0.7282027
-0.03570547 0.0073242188 0.72762477
-0.035612602 0.0063920319 0.72704995
-0.035520218 0.0054646432 0.72647804
-0.035428174 0.0045421124 0.72590822
-0.03533674 0.0036242902 0.72534227
-0.03524578 0.0027112067 0.72477925
-0.035155151 0.0018028617 0.72421819
-0.035065122 0.00089910626 0.72366095
-0.034975551 2.9802322e-08 0.72310638
-0.034886438 -0.00089451671 0.72255474
-0.034797646 -0.0017845035 0.72200513
-0.034709435 -0.0026699007 0.72145903
-0.034621675 -0.0035509467 0.72091579
-0.034534223 -0.004427433 0.72037446
-0.034447338 -0.0052995682 0.71983659
-0.034360893 -0.0061673224 0.71930152
-0.03427488 -0.0070307255 0.71876901
-0.034189168 -0.0078897774 0.71823847
-0.034104016 -0.0087445974 0.71771133
-0.03401928 -0.0095951855 0.71718681
-0.033934843 -0.010441452 0.71666408
-0.033850949 -0.011283636 0.7161448
-0.033767466 -0.012121648 0.71562803
-0.033684272 -0.012955487 0.71511298
-0.033601608 -0.013785273 0.71460128
-0.03351935 -0.014610976 0.71409208
-0.033437494 -0.015432656 0.71358538
-0.033355914 -0.016250312 0.71308041
-0.033274855 -0.017063975 0.71257859
-0.033194184 -0.017873764 0.71207923
-0.033113789 -0.018679559 0.71158159
-0.0330339 -0.01948151 0.71108699
-0.032954395 -0.020279586 0.71059483
-0.03287527 -0.021073878 0.71010506
-0.032796409 -0.021864265 0.7096169
-0.03271804 -0.022650927 0.70913172
-0.032640047 -0.023433864 0.70864892
-0.032562312 -0.024212956 0.70816773
-0.032485057 -0.024988502 0.70768952
-0.032408167 -0.025760293 0.70721358
-0.032331642 -0.026528507 0.70673978
-0.032255366 -0.027292967 0.70626765
-0.032179561 -0.028053939 0.70579839
-0.032104108 -0.028811336 0.70533133
-0.032028899 -0.029565096 0.70486581
-0.031954151 -0.030315489 0.70440304
-0.031879753 -0.031062335 0.70394254
-0.031805698 -0.031805664 0.70348412
-0.031731881 -0.032545507 0.70302713
-0.031658512 -0.033281982 0.70257294
-0.031585481 -0.034015119 0.7021209
-0.031512681 -0.03474471 0.70167023
-0.031440321 -0.035471112 0.7012223
-0.031368293 -0.036194175 0.7007764
-0.031296596 -0.036913961 0.70033264
-0.031478342 -0.037935466 0.70145768
-0.031791434 -0.039127916 0.70339584
-0.032110933 -0.040344477 0.70537359
-0.032436799 -0.041585654 0.70739079
-0.032769468 -0.042852342 0.70945013
-0.033108912 -0.044145197 0.71155137
-0.03345558 -0.045465261 0.71369731
-0.033809464 -0.046813101 0.71588796
-0.034171041 -0.048189878 0.71812624
-0.034540433 -0.049596518 0.72041291
-0.034917768 -0.051033616 0.72274876
-0.035303574 -0.052502722 0.725137
-0.035697863 -0.054004431 0.72757769
-0.036101196 -0.055540264 0.73007452
-0.036513608 -0.057110995 0.73262739
-0.036935698 -0.058718264 0.73524022
-0.037367508 -0.060362875 0.73791337
-0.037809689 -0.062046677 0.74065053
-0.03826246 -0.063770741 0.74345326
-0.038726047 -0.06553638 0.74632305
-0.039201166 -0.06734556 0.74926418
-0.03968792 -0.069199443 0.75227737
-0.040187091 -0.071100205 0.75536734
-0.040698797 -0.073049098 0.75853497
-0.041223887 -0.075048596 0.76178545
-0.04163244 0.077786922 0.77109653
-0.041502926 0.076452821 0.77027369
-0.041374218 0.075126886 0.76945597
-0.041246112 0.073808849 0.76864213
-0.041118987 0.072499275 0.76783442
-0.040992644 0.071197778 0.76703179
-0.040867075 0.069904238 0.76623398
-0.040742088 0.068618268 0.76543993
-0.040618047 0.067340493 0.76465189
-0.040494759 0.066070408 0.76386857
-0.040372036 0.064807773 0.76308888
-0.040250231 0.063553035 0.76231515
-0.040129162 0.062305838 0.7615459
-0.040008821 0.061066151 0.76078135
-0.039889023 0.059833556 0.7600202
-0.039770111 0.058608621 0.75926483
-0.039651912 0.057390958 0.75851381
-0.039534234 0.056180269 0.75776619
-0.039417427 0.05497694 0.75702417
-0.039301313 0.053780764 0.75628638
-0.039185874 0.052591622 0.75555295
-0.039070945 0.051409125 0.75482291
-0.038956858 0.050233841 0.754098
-0.038843434 0.049065411 0.75337738
-0.038730498 0.047903538 0.75265992
-0.038618386 0.046748579 0.7519477
-0.038506925 0.045600325 0.75123948
-0.038396101 0.044458658 0.75053543
-0.038285751 0.043323368 0.74983436
-0.038176194 0.042194754 0.7491383
-0.038067266 0.041072577 0.74844635
-0.037958793 0.039956629 0.74775708
-0.037851099 0.038847208 0.74707288
-0.037744012 0.037744015 0.74639255
-0.037637532 0.036647081 0.74571609
-0.037531495 0.035556167 0.74504244
-0.037426207 0.034471542 0.7443735
-0.037321508 0.033392966 0.74370831
-0.037217241 0.032320231 0.74304593
-0.037113708 0.031253666 0.74238813
-0.037010748 0.030193001 0.74173403
-0.036908358 0.029138207 0.7410835
-0.036806382 0.028089076 0.74043566
-0.036705118 0.027045906 0.73979229
-0.036604408 0.026008427 0.73915249
-0.036504105 0.024976522 0.73851526
-0.036404494 0.023950309 0.73788238
-0.036305428 0.022929758 0.73725295
-0.036206752 0.021914631 0.73662609
-0.036108755 0.020905077 0.73600346
-0.03601129 0.019901007 0.73538423
-0.035914347 0.018902302 0.73476833
-0.035817783 0.017908931 0.73415488
-0.035721879 0.016920924 0.73354554
-0.03562649 0.015938222 0.73293954
-0.035531465 0.014960617 0.73233587
-0.035437085 0.013988346 0.73173618
-0.035343207 0.013021201 0.73113978
-0.035249822 0.012059182 0.73054647
-0.035156794 0.01110214 0.72995549
-0.035064392 0.010150224 0.72936845
-0.034972474 0.009203285 0.72878444
-0.034880903 0.0082612634 0.7282027
-0.034789946 0.0073242188 0.72762477
-0.034699459 0.0063920319 0.72704995
-0.034609441 0.0054646432 0.72647804
-0.034519758 0.0045421124 0.72590822
-0.034430671 0.0036242902 0.72534227
-0.034342043 0.0027112067 0.72477925
-0.034253739 0.0018028617 0.72421819
-0.034166016 0.00089910626 0.72366095
-0.034078743 2.9802322e-08 0.72310638
-0.033991914 -0.00089451671 0.72255474
-0.033905398 -0.0017845035 0.72200513
-0.033819448 -0.0026699007 0.72145903
-0.033733938 -0.0035509467 0.72091579
-0.033648726 -0.004427433 0.72037446
-0.033564072 -0.0052995682 0.71983659
-0.033479843 -0.0061673224 0.71930152
-0.033396039 -0.0070307255 0.71876901
-0.033312526 -0.0078897774 0.71823847
-0.033229552 -0.0087445974 0.71771133
-0.033146992 -0.0095951855 0.71718681
-0.033064719 -0.010441452 0.71666408
-0.032982972 -0.011283636 0.7161448
-0.032901634 -0.012121648 0.71562803
-0.032820571 -0.012955487 0.71511298
-0.03274003 -0.013785273 0.71460128
-0.032659877 -0.014610976 0.71409208
-0.032580122 -0.015432656 0.71358538
-0.032500636 -0.016250312 0.71308041
-0.032421652 -0.017063975 0.71257859
-0.032343052 -0.017873764 0.71207923
-0.032264717 -0.018679559 0.71158159
-0.032186877 -0.01948151 0.71108699
-0.03210941 -0.020279586 0.71059483
-0.032032315 -0.021073878 0.71010506
-0.031955473 -0.021864265 0.7096169
-0.031879116 -0.022650927 0.70913172
-0.031803124 -0.023433864 0.70864892
-0.031727377 -0.024212956 0.70816773
-0.031652104 -0.024988502 0.70768952
-0.031577189 -0.025760293 0.70721358
-0.031502627 -0.026528507 0.70673978
-0.031428304 -0.027292967 0.70626765
-0.031354442 -0.028053939 0.70579839
-0.031280924 -0.028811336 0.70533133
-0.031207645 -0.029565096 0.70486581
-0.031134816 -0.030315489 0.70440304
-0.031062324 -0.031062335 0.70394254
-0.03099017 -0.031805664 0.70348412
-0.030918242 -0.032545507 0.70302713
-0.030846756 -0.033281982 0.70257294
-0.030775597 -0.034015119 0.7021209
-0.030704662 -0.03474471 0.70167023
-0.030634159 -0.035471112 0.7012223
-0.030563977 -0.036194175 0.7007764
-0.030494118 -0.036913961 0.70033264
-0.030671205 -0.037935466 0.70145768
-0.030976269 -0.039127916 0.70339584
-0.031287573 -0.040344477 0.70537359
-0.031605087 -0.041585654 0.70739079
-0.031929225 -0.042852342 0.70945013
-0.032259963 -0.044145197 0.71155137
-0.032597747 -0.045465261 0.71369731
-0.032942556 -0.046813101 0.71588796
-0.03329486 -0.048189878 0.71812624
-0.033654783 -0.049596518 0.72041291
-0.034022443 -0.051033616 0.72274876
-0.034398355 -0.052502722 0.725137
-0.034782533 -0.054004431 0.72757769
-0.035175525 -0.055540264 0.73007452
-0.035577361 -0.057110995 0.73262739
-0.035988625 -0.058718264 0.73524022
-0.036409367 -0.060362875 0.73791337
-0.036840208 -0.062046677 0.74065053
-0.037281372 -0.063770741 0.74345326
-0.037733071 -0.06553638 0.74632305
-0.038196009 -0.06734556 0.74926418
-0.038670283 -0.069199443 0.75227737
-0.039156653 -0.071100205 0.75536734
-0.039655238 -0.073049098 0.75853497
-0.040166866 -0.075048596 0.76178545
-0.040536847 0.077786922 0.77109653
-0.040410742 0.076452821 0.77027369
-0.04028542 0.075126886 0.76945597
-0.04016069 0.073808849 0.76864213
-0.040036909 0.072499275 0.76783442
-0.039913889 0.071197778 0.76703179
-0.039791625 0.069904238 0.76623398
-0.039669927 0.068618268 0.76543993
-0.03954915 0.067340493 0.76465189
-0.039429106 0.066070408 0.76386857
-0.039309613 0.064807773 0.76308888
-0.039191015 0.063553035 0.76231515
-0.039073136 0.062305838 0.7615459
-0.038955957 0.061066151 0.76078135
-0.03883931 0.059833556 0.7600202
-0.038723528 0.058608621 0.75926483
-0.038608439 0.057390958 0.75851381
-0.038493861 0.056180269 0.75776619
-0.038380127 0.05497694 0.75702417
-0.038267065 0.053780764 0.75628638
-0.038154669 0.052591622 0.75555295
-0.038042765 0.051409125 0.75482291
-0.037931677 0.050233841 0.754098
-0.037821237 0.049065411 0.75337738
-0.037711278 0.047903538 0.75265992
-0.037602115 0.046748579 0.7519477
-0.037493583 0.045600325 0.75123948
-0.037385676 0.044458658 0.75053543
-0.037278231 0.043323368 0.74983436
-0.037171558 0.042194754 0.7491383
-0.037065495 0.041072577 0.74844635
-0.036959879 0.039956629 0.74775708
-0.03685502 0.038847208 0.74707288
-0.036750749 0.037744015 0.74639255
-0.03664707 0.036647081 0.74571609
-0.036543824 0.035556167 0.74504244
-0.036441308 0.034471542 0.7443735
-0.036339365 0.033392966 0.74370831
-0.036237836 0.032320231 0.74304593
-0.03613703 0.031253666 0.74238813
-0.036036782 0.030193001 0.74173403
-0.035937082 0.029138207 0.7410835
-0.035837792 0.028089076 0.74043566
-0.035739195 0.027045906 0.73979229
-0.035641134 0.026008427 0.73915249
-0.035543472 0.024976522 0.73851526
-0.035446484 0.023950309 0.73788238
-0.035350021 0.022929758 0.73725295
-0.035253942 0.021914631 0.73662609
-0.035158526 0.020905077 0.73600346
-0.035063624 0.019901007 0.73538423
-0.034969233 0.018902302 0.73476833
-0.03487521 0.017908931 0.73415488
-0.034781829 0.016920924 0.73354554
-0.03468895 0.015938222 0.73293954
-0.034596425 0.014960617 0.73233587
-0.034504529 0.013988346 0.73173618
-0.034413122 0.013021201 0.73113978
-0.034322195 0.012059182 0.73054647
-0.034231614 0.01110214 0.72995549
-0.034141645 0.010150224 0.72936845
-0.034052148 0.009203285 0.72878444
-0.033962987 0.0082612634 0.7282027
-0.033874419 0.0073242188 0.72762477
-0.033786315 0.0063920319 0.72704995
-0.033698667 0.0054646432 0.72647804
-0.033611346 0.0045421124 0.72590822
-0.033524599 0.0036242902 0.72534227
-0.033438306 0.0027112067 0.72477925
-0.033352323 0.0018028617 0.72421819
-0.033266909 0.00089910626 0.72366095
-0.033181936 2.9802322e-08 0.72310638
-0.03309739 -0.00089451671 0.72255474
-0.03301315 -0.0017845035 0.72200513
-0.032929465 -0.0026699007 0.72145903
-0.032846201 -0.0035509467 0.72091579
-0.032763235 -0.004427433 0.72037446
-0.032680809 -0.0052995682 0.71983659
-0.032598797 -0.0061673224 0.71930152
-0.032517195 -0.0070307255 0.71876901
-0.032435879 -0.0078897774 0.71823847
-0.032355089 -0.0087445974 0.71771133
-0.032274704 -0.0095951855 0.71718681
-0.032194592 -0.010441452 0.71666408
-0.032115001 -0.011283636 0.7161448
-0.032035802 -0.012121648 0.71562803
-0.031956874 -0.012955487 0.71511298
-0.031878449 -0.013785273 0.71460128
-0.031800408 -0.014610976 0.71409208
-0.031722751 -0.015432656 0.71358538
-0.031645358 -0.016250312 0.71308041
-0.031568449 -0.017063975 0.71257859
-0.03149192 -0.017873764 0.71207923
-0.031415645 -0.018679559 0.71158159
-0.031339854 -0.01948151 0.71108699
-0.031264428 -0.020279586 0.71059483
-0.03118936 -0.021073878 0.71010506
-0.031114543 -0.021864265 0.7096169
-0.031040194 -0.022650927 0.70913172
-0.030966198 -0.023433864 0.70864892
-0.030892447 -0.024212956 0.70816773
-0.030819155 -0.024988502 0.70768952
-0.03074621 -0.025760293 0.70721358
-0.030673608 -0.026528507 0.70673978
-0.030601243 -0.027292967 0.70626765
-0.030529326 -0.028053939 0.70579839
-0.030457743 -0.028811336 0.70533133
-0.03038639 -0.029565096 0.70486581
-0.030315477 -0.030315489 0.70440304
-0.030244892 -0.031062335 0.70394254
-0.030174637 -0.031805664 0.70348412
-0.030104604 -0.032545507 0.70302713
-0.030035 -0.033281982 0.70257294
-0.029965714 -0.034015119 0.7021209
-0.029896647 -0.03474471 0.70167023
-0.029827997 -0.035471112 0.7012223
-0.029759664 -0.036194175 0.7007764
-0.02969164 -0.036913961 0.70033264
-0.029864067 -0.037935466 0.70145768
-0.030161105 -0.039127916 0.70339584
-0.030464217 -0.040344477 0.70537359
-0.030773375 -0.041585654 0.70739079
-0.031088982 -0.042852342 0.70945013
-0.031411018 -0.044145197 0.71155137
-0.031739909 -0.045465261 0.71369731
-0.032075644 -0.046813101 0.71588796
-0.032418679 -0.048189878 0.71812624
-0.032769129 -0.049596518 0.72041291
-0.033127114 -0.051033616 0.72274876
-0.033493135 -0.052502722 0.725137
-0.033867203 -0.054004431 0.72757769
-0.034249853 -0.055540264 0.73007452
-0.034641117 -0.057110995 0.73262739
-0.035041559 -0.058718264 0.73524022
-0.035451226 -0.060362875 0.73791337
-0.035870731 -0.062046677 0.74065053
-0.036300283 -0.063770741 0.74345326
-0.036740091 -0.06553638 0.74632305
-0.037190851 -0.06734556 0.74926418
-0.037652645 -0.069199443 0.75227737
-0.038126215 -0.071100205 0.75536734
-0.03861168 -0.073049098 0.75853497
-0.039109841 -0.075048596 0.76178545
-0.039441258 0.077786922 0.77109653
-0.039318562 0.076452821 0.77027369
-0.039196625 0.075126886 0.76945597
-0.039075263 0.073808849 0.76864213
-0.038954832 0.072499275 0.76783442
-0.038835138 0.071197778 0.76703179
-0.038716175 0.069904238 0.76623398
-0.038597766 0.068618268 0.76543993
-0.038480256 0.067340493 0.76465189
-0.038363457 0.066070408 0.76386857
-0.03824719 0.064807773 0.76308888
-0.0381318 0.063553035 0.76231515
-0.038017102 0.062305838 0.7615459
-0.037903093 0.061066151 0.76078135
-0.037789598 0.059833556 0.7600202
-0.037676949 0.058608621 0.75926483
-0.037564967 0.057390958 0.75851381
-0.037453488 0.056180269 0.75776619
-0.037342828 0.05497694 0.75702417
-0.037232824 0.053780764 0.75628638
-0.03712346 0.052591622 0.75555295
-0.037014578 0.051409125 0.75482291
-0.036906496 0.050233841 0.754098
-0.036799043 0.049065411 0.75337738
-0.036692053 0.047903538 0.75265992
-0.036585841 0.046748579 0.7519477
-0.036480244 0.045600325 0.75123948
-0.036375254 0.044458658 0.75053543
-0.036270712 0.043323368 0.74983436
-0.036166921 0.042194754 0.7491383
-0.036063723 0.041072577 0.74844635
-0.035960961 0.039956629 0.74775708
-0.035858937 0.038847208 0.74707288
-0.03575749 0.037744015 0.74639255
-0.035656612 0.036647081 0.74571609
-0.035556152 0.035556167 0.74504244
-0.035456408 0.034471542 0.7443735
-0.035357218 0.033392966 0.74370831
-0.035258438 0.032320231 0.74304593
-0.035160352 0.031253666 0.74238813
-0.035062812 0.030193001 0.74173403
-0.034965813 0.029138207 0.7410835
-0.034869205 0.028089076 0.74043566
-0.034773268 0.027045906 0.73979229
-0.034677863 0.026008427 0.73915249
-0.034582835 0.024976522 0.73851526
-0.034488466 0.023950309 0.73788238
-0.034394614 0.022929758 0.73725295
-0.034301132 0.021914631 0.73662609
-0.034208294 0.020905077 0.73600346
-0.034115959 0.019901007 0.73538423
-0.034024119 0.018902302 0.73476833
-0.033932637 0.017908931 0.73415488
-0.033841781 0.016920924 0.73354554
-0.03375141 0.015938222 0.73293954
-0.033661384 0.014960617 0.73233587
-0.033571973 0.013988346 0.73173618
-0.033483036 0.013021201 0.73113978
-0.033394568 0.012059182 0.73054647
-0.033306438 0.01110214 0.72995549
-0.033218898 0.010150224 0.72936845
-0.033131819 0.009203285 0.72878444
-0.033045065 0.0082612634 0.7282027
-0.032958895 0.0073242188 0.72762477
-0.032873172 0.0063920319 0.72704995
-0.032787893 0.0054646432 0.72647804
-0.03270293 0.0045421124 0.72590822
-0.03261853 0.0036242902 0.72534227
-0.032534566 0.0027112067 0.72477925
-0.032450911 0.0018028617 0.72421819
-0.032367807 0.00089910626 0.72366095
-0.032285124 2.9802322e-08 0.72310638
-0.032202866 -0.00089451671 0.72255474
-0.032120906 -0.0017845035 0.72200513
-0.032039478 -0.0026699007 0.72145903
-0.031958468 -0.0035509467 0.72091579
-0.031877741 -0.004427433 0.72037446
-0.031797543 -0.0052995682 0.71983659
-0.031717747 -0.0061673224 0.71930152
-0.03163835 -0.0070307255 0.71876901
-0.031559236 -0.0078897774 0.71823847
-0.031480625 -0.0087445974 0.71771133
-0.031402413 -0.0095951855 0.71718681
-0.031324472 -0.010441452 0.71666408
-0.031247029 -0.011283636 0.7161448
-0.031169968 -0.012121648 0.71562803
-0.031093173 -0.012955487 0.71511298
-0.031016869 -0.013785273 0.71460128
-0.030940937 -0.014610976 0.71409208
-0.030865379 -0.015432656 0.71358538
-0.030790076 -0.016250312 0.71308041
-0.030715249 -0.017063975 0.71257859
-0.030640787 -0.017873764 0.71207923
-0.030566577 -0.018679559 0.71158159
-0.030492829 -0.01948151 0.71108699
-0.030419441 -0.020279586 0.71059483
-0.030346403 -0.021073878 0.71010506
-0.030273609 -0.021864265 0.7096169
-0.030201269 -0.022650927 0.70913172
-0.030129274 -0.023433864 0.70864892
-0.030057518 -0.024212956 0.70816773
-0.029986205 -0.024988502 0.70768952
-0.02991523 -0.025760293 0.70721358
-0.029844591 -0.026528507 0.70673978
-0.029774182 -0.027292967 0.70626765
-0.029704208 -0.028053939 0.70579839
-0.02963456 -0.028811336 0.70533133
-0.029565137 -0.029565096 0.70486581
-0.029496141 -0.030315489 0.70440304
-0.029427463 -0.031062335 0.70394254
-0.029359108 -0.031805664 0.70348412
-0.029290967 -0.032545507 0.70302713
-0.029223241 -0.033281982 0.70257294
-0.02915583 -0.034015119 0.7021209
-0.029088628 -0.03474471 0.70167023
-0.029021835 -0.035471112 0.7012223
-0.028955348 -0.036194175 0.7007764
-0.028889164 -0.036913961 0.70033264
-0.029056929 -0.037935466 0.70145768
-0.029345939 -0.039127916 0.70339584
-0.029640859 -0.040344477 0.70537359
-0.029941661 -0.041585654 0.70739079
-0.030248741 -0.042852342 0.70945013
-0.030562071 -0.044145197 0.71155137
-0.030882075 -0.045465261 0.71369731
-0.031208737 -0.046813101 0.71588796
-0.031542499 -0.048189878 0.71812624
-0.031883478 -0.049596518 0.72041291
-0.032231785 -0.051033616 0.72274876
-0.032587916 -0.052502722 0.725137
-0.032951873 -0.054004431 0.72757769
-0.033324182 -0.055540264 0.73007452
-0.033704869 -0.057110995 0.73262739
-0.03409449 -0.058718264 0.73524022
-0.034493081 -0.060362875 0.73791337
-0.03490125 -0.062046677 0.74065053
-0.035319194 -0.063770741 0.74345326
-0.035747118 -0.06553638 0.74632305
-0.036185693 -0.06734556 0.74926418
-0.036635004 -0.069199443 0.75227737
-0.037095778 -0.071100205 0.75536734
-0.037568122 -0.073049098 0.75853497
-0.03805282 -0.075048596 0.76178545
-0.038345668 0.077786922 0.77109653
-0.038226381 0.076452821 0.77027369
-0.038107831 0.075126886 0.76945597
-0.03798984 0.073808849 0.76864213
-0.037872754 0.072499275 0.76783442
-0.037756383 0.071197778 0.76703179
-0.037640728 0.069904238 0.76623398
-0.037525605 0.068618268 0.76543993
-0.037411358 0.067340493 0.76465189
-0.037297804 0.066070408 0.76386857
-0.037184771 0.064807773 0.76308888
-0.037072584 0.063553035 0.76231515
-0.036961075 0.062305838 0.7615459
-0.036850229 0.061066151 0.76078135
-0.036739886 0.059833556 0.7600202
-0.036630366 0.058608621 0.75926483
-0.036521498 0.057390958 0.75851381
-0.036413111 0.056180269 0.75776619
-0.036305528 0.05497694 0.75702417
-0.036198575 0.053780764 0.75628638
-0.036092252 0.052591622 0.75555295
-0.035986397 0.051409125 0.75482291
-0.035881314 0.050233841 0.754098
-0.035776846 0.049065411 0.75337738
-0.035672829 0.047903538 0.75265992
-0.035569567 0.046748579 0.7519477
-0.035466906 0.045600325 0.75123948
-0.035364829 0.044458658 0.75053543
-0.035263192 0.043323368 0.74983436
-0.035162285 0.042194754 0.7491383
-0.035061955 0.041072577 0.74844635
-0.034962047 0.039956629 0.74775708
-0.034862854 0.038847208 0.74707288
-0.034764223 0.037744015 0.74639255
-0.034666147 0.036647081 0.74571609
-0.034568481 0.035556167 0.74504244
-0.034471504 0.034471542 0.7443735
-0.034375075 0.033392966 0.74370831
-0.034279037 0.032320231 0.74304593
-0.034183674 0.031253666 0.74238813
-0.034088846 0.030193001 0.74173403
-0.033994541 0.029138207 0.7410835
-0.033900615 0.028089076 0.74043566
-0.033807345 0.027045906 0.73979229
-0.033714589 0.026008427 0.73915249
-0.033622202 0.024976522 0.73851526
-0.033530455 0.023950309 0.73788238
-0.033439208 0.022929758 0.73725295
-0.033348322 0.021914631 0.73662609
-0.033258066 0.020905077 0.73600346
-0.033168294 0.019901007 0.73538423
-0.033079002 0.018902302 0.73476833
-0.032990064 0.017908931 0.73415488
-0.03290173 0.016920924 0.73354554
-0.032813869 0.015938222 0.73293954
-0.032726347 0.014960617 0.73233587
-0.032639422 0.013988346 0.73173618
-0.032552954 0.013021201 0.73113978
-0.032466944 0.012059182 0.73054647
-0.032381259 0.01110214 0.72995549
-0.032296151 0.010150224 0.72936845
-0.03221149 0.009203285 0.72878444
-0.032127146 0.0082612634 0.7282027
-0.032043368 0.0073242188 0.72762477
-0.031960025 0.0063920319 0.72704995
-0.031877119 0.0054646432 0.72647804
-0.031794515 0.0045421124 0.72590822
-0.031712461 0.0036242902 0.72534227
-0.031630829 0.0027112067 0.72477925
-0.031549498 0.0018028617 0.72421819
-0.031468701 0.00089910626 0.72366095
-0.031388316 2.9802322e-08 0.72310638
-0.031308342 -0.00089451671 0.72255474
-0.031228658 -0.0017845035 0.72200513
-0.031149495 -0.0026699007 0.72145903
-0.03107073 -0.0035509467 0.72091579
-0.030992249 -0.004427433 0.72037446
-0.030914277 -0.0052995682 0.71983659
-0.030836698 -0.0061673224 0.71930152
-0.030759506 -0.0070307255 0.71876901
-0.030682588 -0.0078897774 0.71823847
-0.030606167 -0.0087445974 0.71771133
-0.030530123 -0.0095951855 0.71718681
-0.030454345 -0.010441452 0.71666408
-0.030379057 -0.011283636 0.7161448
-0.030304134 -0.012121648 0.71562803
-0.030229473 -0.012955487 0.71511298
-0.030155288 -0.013785273 0.71460128
-0.03008147 -0.014610976 0.71409208
-0.030008007 -0.015432656 0.71358538
-0.029934797 -0.016250312 0.71308041
-0.029862048 -0.017063975 0.71257859
-0.029789655 -0.017873764 0.71207923
-0.029717503 -0.018679559 0.71158159
-0.029645806 -0.01948151 0.71108699
-0.029574458 -0.020279586 0.71059483
-0.029503448 -0.021073878 0.71010506
-0.029432677 -0.021864265 0.7096169
-0.029362345 -0.022650927 0.70913172
-0.029292351 -0.023433864 0.70864892
-0.029222585 -0.024212956 0.70816773
-0.029153254 -0.024988502 0.70768952
-0.029084252 -0.025760293 0.70721358
-0.029015575 -0.026528507 0.70673978
-0.028947121 -0.027292967 0.70626765
-0.028879091 -0.028053939 0.70579839
-0.028811378 -0.028811336 0.70533133
-0.028743882 -0.029565096 0.70486581
-0.028676802 -0.030315489 0.70440304
-0.028610036 -0.031062335 0.70394254
-0.028543577 -0.031805664 0.70348412
-0.02847733 -0.032545507 0.70302713
-0.028411485 -0.033281982 0.70257294
-0.028345944 -0.034015119 0.7021209
-0.02828061 -0.03474471 0.70167023
-0.028215673 -0.035471112 0.7012223
-0.028151033 -0.036194175 0.7007764
-0.028086687 -0.036913961 0.70033264
-0.028249793 -0.037935466 0.70145768
-0.028530775 -0.039127916 0.70339584
-0.028817503 -0.040344477 0.70537359
-0.029109949 -0.041585654 0.70739079
-0.029408498 -0.042852342 0.70945013
-0.029713126 -0.044145197 0.71155137
-0.030024242 -0.045465261 0.71369731
-0.030341828 -0.046813101 0.71588796
-0.030666318 -0.048189878 0.71812624
-0.030997826 -0.049596518 0.72041291
-0.03133646 -0.051033616 0.72274876
-0.031682696 -0.052502722 0.725137
-0.032036543 -0.054004431 0.72757769
-0.032398511 -0.055540264 0.73007452
-0.032768622 -0.057110995 0.73262739
-0.033147421 -0.058718264 0.73524022
-0.03353494 -0.060362875 0.73791337
-0.033931773 -0.062046677 0.74065053
-0.034338105 -0.063770741 0.74345326
-0.034754142 -0.06553638 0.74632305
-0.035180535 -0.06734556 0.74926418
-0.035617363 -0.069199443 0.75227737
-0.036065336 -0.071100205 0.75536734
-0.03652456 -0.073049098 0.75853497
-0.036995795 -0.075048596 0.76178545
-0.037250079 0.077786922 0.77109653
-0.037134197 0.076452821 0.77027369
-0.037019037 0.075126886 0.76945597
-0.036904417 0.073808849 0.76864213
-0.036790673 0.072499275 0.76783442
-0.036677629 0.071197778 0.76703179
-0.036565278 0.069904238 0.76623398
-0.036453448 0.068618268 0.76543993
-0.036342464 0.067340493 0.76465189
-0.036232155 0.066070408 0.76386857
-0.036122348 0.064807773 0.76308888
-0.036013365 0.063553035 0.76231515
-0.035905041 0.062305838 0.7615459
-0.035797369 0.061066151 0.76078135
-0.035690177 0.059833556 0.7600202
-0.035583783 0.058608621 0.75926483
-0.035478026 0.057390958 0.75851381
-0.035372734 0.056180269 0.75776619
-0.035268225 0.05497694 0.75702417
-0.03516433 0.053780764 0.75628638
-0.035061046 0.052591622 0.75555295
-0.034958214 0.051409125 0.75482291
-0.034856137 0.050233841 0.754098
-0.034754649 0.049065411 0.75337738
-0.034653608 0.047903538 0.75265992
-0.034553293 0.046748579 0.7519477
-0.034453563 0.045600325 0.75123948
-0.034354404 0.044458658 0.75053543
-0.034255672 0.043323368 0.74983436
-0.034157649 0.042194754 0.7491383
-0.034060184 0.041072577 0.74844635
-0.033963133 0.039956629 0.74775708
-0.033866771 0.038847208 0.74707288
-0.03377096 0.037744015 0.74639255
-0.033675686 0.036647081 0.74571609
-0.03358081 0.035556167 0.74504244
-0.033486605 0.034471542 0.7443735
-0.033392929 0.033392966 0.74370831
-0.033299636 0.032320231 0.74304593
-0.033206999 0.031253666 0.74238813
-0.03311488 0.030193001 0.74173403
-0.033023264 0.029138207 0.7410835
-0.032932024 0.028089076 0.74043566
-0.032841422 0.027045906 0.73979229
-0.032751314 0.026008427 0.73915249
-0.032661565 0.024976522 0.73851526
-0.032572445 0.023950309 0.73788238
-0.032483805 0.022929758 0.73725295
-0.032395516 0.021914631 0.73662609
-0.032307833 0.020905077 0.73600346
-0.032220628 0.019901007 0.73538423
-0.032133892 0.018902302 0.73476833
-0.032047492 0.017908931 0.73415488
-0.031961679 0.016920924 0.73354554
-0.031876329 0.015938222 0.73293954
-0.031791307 0.014960617 0.73233587
-0.031706866 0.013988346 0.73173618
-0.031622868 0.013021201 0.73113978
-0.031539317 0.012059182 0.73054647
-0.031456079 0.01110214 0.72995549
-0.031373404 0.010150224 0.72936845
-0.031291161 0.009203285 0.72878444
-0.03120923 0.0082612634 0.7282027
-0.031127846 0.0073242188 0.72762477
-0.031046886 0.0063920319 0.72704995
-0.030966341 0.0054646432 0.72647804
-0.030886101 0.0045421124 0.72590822
-0.030806391 0.0036242902 0.72534227
-0.030727092 0.0027112067 0.72477925
-0.030648082 0.0018028617 0.72421819
-0.030569592 0.00089910626 0.72366095
-0.030491507 2.9802322e-08 0.72310638
-0.030413819 -0.00089451671 0.72255474
-0.03033641 -0.0017845035 0.72200513
-0.030259509 -0.0026699007 0.72145903
-0.030182997 -0.0035509467 0.72091579
-0.030106757 -0.004427433 0.72037446
-0.030031012 -0.0052995682 0.71983659
-0.02995565 -0.0061673224 0.71930152
-0.029880665 -0.0070307255 0.71876901
-0.029805943 -0.0078897774 0.71823847
-0.029731706 -0.0087445974 0.71771133
-0.029657835 -0.0095951855 0.71718681
-0.029584222 -0.010441452 0.71666408
-0.029511081 -0.011283636 0.7161448
-0.029438302 -0.012121648 0.71562803
-0.029365774 -0.012955487 0.71511298
-0.02929371 -0.013785273 0.71460128
-0.029221999 -0.014610976 0.71409208
-0.029150635 -0.015432656 0.71358538
-0.029079515 -0.016250312 0.71308041
-0.029008847 -0.017063975 0.71257859
-0.028938521 -0.017873764 0.71207923
-0.028868431 -0.018679559 0.71158159
-0.028798785 -0.01948151 0.71108699
-0.02872947 -0.020279586 0.71059483
-0.028660491 -0.021073878 0.71010506
-0.028591741 -0.021864265 0.7096169
-0.028523421 -0.022650927 0.70913172
-0.028455427 -0.023433864 0.70864892
-0.028387655 -0.024212956 0.70816773
-0.028320303 -0.024988502 0.70768952
-0.028253272 -0.025760293 0.70721358
-0.028186558 -0.026528507 0.70673978
-0.028120061 -0.027292967 0.70626765
-0.028053973 -0.028053939 0.70579839
-0.027988197 -0.028811336 0.70533133
-0.02792263 -0.029565096 0.70486581
-0.027857466 -0.030315489 0.70440304
-0.027792607 -0.031062335 0.70394254
-0.027728045 -0.031805664 0.70348412
-0.027663691 -0.032545507 0.70302713
-0.027599728 -0.033281982 0.70257294
-0.027536061 -0.034015119 0.7021209
-0.027472595 -0.03474471 0.70167023
-0.027409511 -0.035471112 0.7012223
-0.027346717 -0.036194175 0.7007764
-0.027284211 -0.036913961 0.70033264
-0.027442656 -0.037935466 0.70145768
-0.027715608 -0.039127916 0.70339584
-0.027994145 -0.040344477 0.70537359
-0.028278237 -0.041585654 0.70739079
-0.028568255 -0.042852342 0.70945013
-0.028864179 -0.044145197 0.71155137
-0.029166404 -0.045465261 0.71369731
-0.029474918 -0.046813101 0.71588796
-0.029790139 -0.048189878 0.71812624
-0.030112173 -0.049596518 0.72041291
-0.030441131 -0.051033616 0.72274876
-0.030777475 -0.052502722 0.725137
-0.031121211 -0.054004431 0.72757769
-0.031472839 -0.055540264 0.73007452
-0.031832378 -0.057110995 0.73262739
-0.032200351 -0.058718264 0.73524022
-0.032576803 -0.060362875 0.73791337
-0.032962292 -0.062046677 0.74065053
-0.033357017 -0.063770741 0.74345326
-0.033761166 -0.06553638 0.74632305
-0.034175377 -0.06734556 0.74926418
-0.034599725 -0.069199443 0.75227737
-0.035034902 -0.071100205 0.75536734
-0.035481002 -0.073049098 0.75853497
-0.035938773 -0.075048596 0.76178545
-0.036154486 0.077786922 0.77109653
-0.036042012 0.076452821 0.77027369
-0.035930242 0.075126886 0.76945597
-0.035818994 0.073808849 0.76864213
-0.035708595 0.072499275 0.76783442
-0.035598878 0.071197778 0.76703179
-0.035489827 0.069904238 0.76623398
-0.035381287 0.068618268 0.76543993
-0.035273567 0.067340493 0.76465189
-0.035166502 0.066070408 0.76386857
-0.035059925 0.064807773 0.76308888
-0.034954149 0.063553035 0.76231515
-0.03484901 0.062305838 0.7615459
-0.034744501 0.061066151 0.76078135
-0.034640465 0.059833556 0.7600202
-0.034537204 0.058608621 0.75926483
-0.034434553 0.057390958 0.75851381
-0.034332361 0.056180269 0.75776619
-0.034230925 0.05497694 0.75702417
-0.034130085 0.053780764 0.75628638
-0.034029838 0.052591622 0.75555295
-0.03393003 0.051409125 0.75482291
-0.033830956 0.050233841 0.754098
-0.033732455 0.049065411 0.75337738
-0.033634383 0.047903538 0.75265992
-0.033537023 0.046748579 0.7519477
-0.033440221 0.045600325 0.75123948
-0.033343982 0.044458658 0.75053543
-0.033248153 0.043323368 0.74983436
-0.033153012 0.042194754 0.7491383
-0.033058412 0.041072577 0.74844635
-0.032964218 0.039956629 0.74775708
-0.032870691 0.038847208 0.74707288
-0.032777697 0.037744015 0.74639255
-0.032685224 0.036647081 0.74571609
-0.032593139 0.035556167 0.74504244
-0.032501705 0.034471542 0.7443735
-0.032410786 0.033392966 0.74370831
-0.032320235 0.032320231 0.74304593
-0.032230325 0.031253666 0.74238813
-0.032140914 0.030193001 0.74173403
-0.032051995 0.029138207 0.7410835
-0.031963438 0.028089076 0.74043566
-0.031875499 0.027045906 0.73979229
-0.03178804 0.026008427 0.73915249
-0.031700931 0.024976522 0.73851526
-0.03161443 0.023950309 0.73788238
-0.031528398 0.022929758 0.73725295
-0.031442706 0.021914631 0.73662609
-0.031357605 0.020905077 0.73600346
-0.031272963 0.019901007 0.73538423
-0.031188775 0.018902302 0.73476833
-0.031104919 0.017908931 0.73415488
-0.031021632 0.016920924 0.73354554
-0.030938791 0.015938222 0.73293954
-0.03085627 0.014960617 0.73233587
-0.03077431 0.013988346 0.73173618
-0.030692784 0.013021201 0.73113978
-0.030611686 0.012059182 0.73054647
-0.030530902 0.01110214 0.72995549
-0.030450657 0.010150224 0.72936845
-0.030370833 0.009203285 0.72878444
-0.030291311 0.0082612634 0.7282027
-0.03021232 0.0073242188 0.72762477
-0.030133741 0.0063920319 0.72704995
-0.030055569 0.0054646432 0.72647804
-0.029977687 0.0045421124 0.72590822
-0.02990032 0.0036242902 0.72534227
-0.029823354 0.0027112067 0.72477925
-0.029746668 0.0018028617 0.72421819
-0.029670488 0.00089910626 0.72366095
-0.029594697 2.9802322e-08 0.72310638
-0.029519293 -0.00089451671 0.72255474
-0.029444162 -0.0017845035 0.72200513
-0.029369524 -0.0026699007 0.72145903
-0.02929526 -0.0035509467 0.72091579
-0.029221263 -0.004427433 0.72037446
-0.029147748 -0.0052995682 0.71983659
-0.029074602 -0.0061673224 0.71930152
-0.029001823 -0.0070307255 0.71876901
-0.028929297 -0.0078897774 0.71823847
-0.028857242 -0.0087445974 0.71771133
-0.028785545 -0.0095951855 0.71718681
-0.028714096 -0.010441452 0.71666408
-0.028643109 -0.011283636 0.7161448
-0.02857247 -0.012121648 0.71562803
-0.028502075 -0.012955487 0.71511298
-0.028432129 -0.013785273 0.71460128
-0.028362527 -0.014610976 0.71409208
-0.028293265 -0.015432656 0.71358538
-0.028224235 -0.016250312 0.71308041
-0.028155645 -0.017063975 0.71257859
-0.028087389 -0.017873764 0.71207923
-0.028019359 -0.018679559 0.71158159
-0.027951762 -0.01948151 0.71108699
-0.027884487 -0.020279586 0.71059483
-0.027817538 -0.021073878 0.71010506
-0.027750809 -0.021864265 0.7096169
-0.027684497 -0.022650927 0.70913172
-0.027618501 -0.023433864 0.70864892
-0.027552724 -0.024212956 0.70816773
-0.027487356 -0.024988502 0.70768952
-0.027422296 -0.025760293 0.70721358
-0.027357545 -0.026528507 0.70673978
-0.027293 -0.027292967 0.70626765
-0.027228858 -0.028053939 0.70579839
-0.027165014 -0.028811336 0.70533133
-0.027101375 -0.029565096 0.70486581
-0.027038129 -0.030315489 0.70440304
-0.026975175 -0.031062335 0.70394254
-0.026912514 -0.031805664 0.70348412
-0.026850054 -0.032545507 0.70302713
-0.026787972 -0.033281982 0.70257294
-0.026726177 -0.034015119 0.7021209
-0.026664576 -0.03474471 0.70167023
-0.026603349 -0.035471112 0.7012223
-0.026542403 -0.036194175 0.7007764
-0.026481735 -0.036913961 0.70033264
-0.02663552 -0.037935466 0.70145768
-0.026900444 -0.039127916 0.70339584
-0.027170787 -0.040344477 0.70537359
-0.027446523 -0.041585654 0.70739079
-0.027728012 -0.042852342 0.70945013
-0.028015234 -0.044145197 0.71155137
-0.02830857 -0.045465261 0.71369731
-0.028608009 -0.046813101 0.71588796
-0.028913958 -0.048189878 0.71812624
-0.029226523 -0.049596518 0.72041291
-0.029545804 -0.051033616 0.72274876
-0.029872254 -0.052502722 0.725137
-0.030205885 -0.054004431 0.72757769
-0.030547166 -0.055540264 0.73007452
-0.030896129 -0.057110995 0.73262739
-0.031253282 -0.058718264 0.73524022
-0.031618662 -0.060362875 0.73791337
-0.031992815 -0.062046677 0.74065053
-0.032375928 -0.063770741 0.74345326
-0.03276819 -0.06553638 0.74632305
-0.033170216 -0.06734556 0.74926418
-0.033582088 -0.069199443 0.75227737
-0.034004461 -0.071100205 0.75536734
-0.034437444 -0.073049098 0.75853497
-0.034881752 -0.075048596 0.76178545
-0.035058897 0.077786922 0.77109653
-0.034949832 0.076452821 0.77027369
-0.034841444 0.075126886 0.76945597
-0.034733567 0.073808849 0.76864213
-0.034626517 0.072499275 0.76783442
-0.034520123 0.071197778 0.76703179
-0.034414377 0.069904238 0.76623398
-0.034309126 0.068618268 0.76543993
-0.034204669 0.067340493 0.76465189
-0.034100849 0.066070408 0.76386857
-0.033997502 0.064807773 0.76308888
-0.033894934 0.063553035 0.76231515
-0.03379298 0.062305838 0.7615459
-0.033691641 0.061066151 0.76078135
-0.033590756 0.059833556 0.7600202
-0.033490621 0.058608621 0.75926483
-0.033391085 0.057390958 0.75851381
-0.033291988 0.056180269 0.75776619
-0.033193622 0.05497694 0.75702417
-0.03309584 0.053780764 0.75628638
-0.032998629 0.052591622 0.75555295
-0.03290185 0.051409125 0.75482291
-0.032805774 0.050233841 0.754098
-0.032710258 0.049065411 0.75337738
-0.032615159 0.047903538 0.75265992
-0.032520749 0.046748579 0.7519477
-0.032426883 0.045600325 0.75123948
-0.032333557 0.044458658 0.75053543
-0.032240633 0.043323368 0.74983436
-0.032148376 0.042194754 0.7491383
-0.032056645 0.041072577 0.74844635
-0.0319653 0.039956629 0.74775708
-0.031874612 0.038847208 0.74707288
-0.031784434 0.037744015 0.74639255
-0.031694762 0.036647081 0.74571609
-0.031605467 0.035556167 0.74504244
-0.031516805 0.034471542 0.7443735
-0.031428639 0.033392966 0.74370831
-0.031340834 0.032320231 0.74304593
-0.031253647 0.031253666 0.74238813
-0.031166945 0.030193001 0.74173403
-0.031080721 0.029138207 0.7410835
-0.030994846 0.028089076 0.74043566
-0.030909574 0.027045906 0.73979229
-0.030824764 0.026008427 0.73915249
-0.030740298 0.024976522 0.73851526
-0.030656416 0.023950309 0.73788238
-0.03057299 0.022929758 0.73725295
-0.030489895 0.021914631 0.73662609
-0.030407375 0.020905077 0.73600346
-0.030325297 0.019901007 0.73538423
-0.030243661 0.018902302 0.73476833
-0.030162344 0.017908931 0.73415488
-0.030081583 0.016920924 0.73354554
-0.030001253 0.015938222 0.73293954
-0.029921232 0.014960617 0.73233587
-0.029841755 0.013988346 0.73173618
-0.029762698 0.013021201 0.73113978
-0.029684061 0.012059182 0.73054647
-0.029605722 0.01110214 0.72995549
-0.02952791 0.010150224 0.72936845
-0.029450504 0.009203285 0.72878444
-0.029373392 0.0082612634 0.7282027
-0.029296795 0.0073242188 0.72762477
-0.029220598 0.0063920319 0.72704995
-0.029144794 0.0054646432 0.72647804
-0.029069271 0.0045421124 0.72590822
-0.028994251 0.0036242902 0.72534227
-0.028919615 0.0027112067 0.72477925
-0.028845252 0.0018028617 0.72421819
-0.028771382 0.00089910626 0.72366095
-0.028697889 2.9802322e-08 0.72310638
-0.028624771 -0.00089451671 0.72255474
-0.028551916 -0.0017845035 0.72200513
-0.028479539 -0.0026699007 0.72145903
-0.028407527 -0.0035509467 0.72091579
-0.028335771 -0.004427433 0.72037446
-0.028264482 -0.0052995682 0.71983659
-0.028193552 -0.0061673224 0.71930152
-0.028122978 -0.0070307255 0.71876901
-0.028052654 -0.0078897774 0.71823847
-0.027982781 -0.0087445974 0.71771133
-0.027913257 -0.0095951855 0.71718681
-0.027843975 -0.010441452 0.71666408
-0.027775137 -0.011283636 0.7161448
-0.02770664 -0.012121648 0.71562803
-0.027638378 -0.012955487 0.71511298
-0.027570551 -0.013785273 0.71460128
-0.027503056 -0.014610976 0.71409208
-0.027435891 -0.015432656 0.71358538
-0.027368957 -0.016250312 0.71308041
-0.027302444 -0.017063975 0.71257859
-0.027236255 -0.017873764 0.71207923
-0.027170287 -0.018679559 0.71158159
-0.027104739 -0.01948151 0.71108699
-0.027039504 -0.020279586 0.71059483
-0.026974581 -0.021073878 0.71010506
-0.026909875 -0.021864265 0.7096169
-0.026845573 -0.022650927 0.70913172
-0.026781579 -0.023433864 0.70864892
-0.026717793 -0.024212956 0.70816773
-0.026654406 -0.024988502 0.70768952
-0.026591318 -0.025760293 0.70721358
-0.026528528 -0.026528507 0.70673978
-0.026465939 -0.027292967 0.70626765
-0.02640374 -0.028053939 0.70579839
-0.026341831 -0.028811336 0.70533133
-0.026280122 -0.029565096 0.70486581
-0.026218791 -0.030315489 0.70440304
-0.026157746 -0.031062335 0.70394254
-0.026096985 -0.031805664 0.70348412
-0.026036415 -0.032545507 0.70302713
-0.025976215 -0.033281982 0.70257294
-0.025916295 -0.034015119 0.7021209
-0.025856558 -0.03474471 0.70167023
-0.025797186 -0.035471112 0.7012223
-0.025738087 -0.036194175 0.7007764
-0.025679259 -0.036913961 0.70033264
-0.025828382 -0.037935466 0.70145768
-0.026085278 -0.039127916 0.70339584
-0.026347432 -0.040344477 0.70537359
-0.026614811 -0.041585654 0.70739079
-0.026887767 -0.042852342 0.70945013
-0.027166285 -0.044145197 0.71155137
-0.027450733 -0.045465261 0.71369731
-0.027741099 -0.046813101 0.71588796
-0.028037775 -0.048189878 0.71812624
-0.028340869 -0.049596518 0.72041291
-0.028650478 -0.051033616 0.72274876
-0.028967034 -0.052502722 0.725137
-0.029290553 -0.054004431 0.72757769
-0.029621495 -0.055540264 0.73007452
-0.029959884 -0.057110995 0.73262739
-0.030306214 -0.058718264 0.73524022
-0.030660519 -0.060362875 0.73791337
-0.031023335 -0.062046677 0.74065053
-0.031394839 -0.063770741 0.74345326
-0.031775214 -0.06553638 0.74632305
-0.032165058 -0.06734556 0.74926418
-0.032564446 -0.069199443 0.75227737
-0.032974023 -0.071100205 0.75536734
-0.033393886 -0.073049098 0.75853497
-0.033824727 -0.075048596 0.76178545
-0.033963304 0.077786922 0.77109653
-0.033857651 0.076452821 0.77027369
-0.03375265 0.075126886 0.76945597
-0.033648144 0.073808849 0.76864213
-0.03354444 0.072499275 0.76783442
-0.033441368 0.071197778 0.76703179
-0.03333893 0.069904238 0.76623398
-0.033236966 0.068618268 0.76543993
-0.033135775 0.067340493 0.76465189
-0.033035196 0.066070408 0.76386857
-0.032935079 0.064807773 0.76308888
-0.032835715 0.063553035 0.76231515
-0.03273695 0.062305838 0.7615459
-0.032638773 0.061066151 0.76078135
-0.032541044 0.059833556 0.7600202
-0.032444041 0.058608621 0.75926483
-0.032347612 0.057390958 0.75851381
-0.032251615 0.056180269 0.75776619
-0.032156326 0.05497694 0.75702417
-0.032061595 0.053780764 0.75628638
-0.031967424 0.052591622 0.75555295
-0.031873666 0.051409125 0.75482291
-0.031780593 0.050233841 0.754098
-0.031688064 0.049065411 0.75337738
-0.031595934 0.047903538 0.75265992
-0.031504475 0.046748579 0.7519477
-0.031413544 0.045600325 0.75123948
-0.031323135 0.044458658 0.75053543
-0.031233113 0.043323368 0.74983436
-0.031143738 0.042194754 0.7491383
-0.031054875 0.041072577 0.74844635
-0.030966386 0.039956629 0.74775708
-0.030878529 0.038847208 0.74707288
-0.030791169 0.037744015 0.74639255
-0.030704303 0.036647081 0.74571609
-0.030617798 0.035556167 0.74504244
-0.030531904 0.034471542 0.7443735
-0.030446492 0.033392966 0.74370831
-0.030361433 0.032320231 0.74304593
-0.030276971 0.031253666 0.74238813
-0.030192977 0.030193001 0.74173403
-0.030109448 0.029138207 0.7410835
-0.030026257 0.028089076 0.74043566
-0.029943647 0.027045906 0.73979229
-0.029861491 0.026008427 0.73915249
-0.029779663 0.024976522 0.73851526
-0.029698404 0.023950309 0.73788238
-0.029617585 0.022929758 0.73725295
-0.029537087 0.021914631 0.73662609
-0.029457143 0.020905077 0.73600346
-0.02937763 0.019901007 0.73538423
-0.029298546 0.018902302 0.73476833
-0.029219771 0.017908931 0.73415488
-0.029141534 0.016920924 0.73354554
-0.029063713 0.015938222 0.73293954
-0.028986193 0.014960617 0.73233587
-0.028909201 0.013988346 0.73173618
-0.028832614 0.013021201 0.73113978
-0.028756434 0.012059182 0.73054647
-0.028680542 0.01110214 0.72995549
-0.028605161 0.010150224 0.72936845
-0.028530177 0.009203285 0.72878444
-0.028455475 0.0082612634 0.7282027
-0.028381269 0.0073242188 0.72762477
-0.028307453 0.0063920319 0.72704995
-0.028234018 0.0054646432 0.72647804
-0.028160857 0.0045421124 0.72590822
-0.028088178 0.0036242902 0.72534227
-0.028015876 0.0027112067 0.72477925
-0.02794384 0.0018028617 0.72421819
-0.027872277 0.00089910626 0.72366095
-0.02780108 2.9802322e-08 0.72310638
-0.027730245 -0.00089451671 0.72255474
-0.02765967 -0.0017845035 0.72200513
-0.027589552 -0.0026699007 0.72145903
-0.02751979 -0.0035509467 0.72091579
-0.027450277 -0.004427433 0.72037446
-0.027381217 -0.0052995682 0.71983659
-0.027312504 -0.0061673224 0.71930152
-0.027244136 -0.0070307255 0.71876901
-0.027176008 -0.0078897774 0.71823847
-0.027108319 -0.0087445974 0.71771133
-0.027040966 -0.0095951855 0.71718681
-0.026973849 -0.010441452 0.71666408
-0.026907163 -0.011283636 0.7161448
-0.026840804 -0.012121648 0.71562803
-0.026774677 -0.012955487 0.71511298
-0.02670897 -0.013785273 0.71460128
-0.026643585 -0.014610976 0.71409208
-0.026578519 -0.015432656 0.71358538
-0.026513675 -0.016250312 0.71308041
-0.026449244 -0.017063975 0.71257859
-0.026385123 -0.017873764 0.71207923
-0.026321217 -0.018679559 0.71158159
-0.026257716 -0.01948151 0.71108699
-0.026194518 -0.020279586 0.71059483
-0.026131626 -0.021073878 0.71010506
-0.026068939 -0.021864265 0.7096169
-0.026006648 -0.022650927 0.70913172
-0.025944654 -0.023433864 0.70864892
-0.025882861 -0.024212956 0.70816773
-0.025821455 -0.024988502 0.70768952
-0.025760338 -0.025760293 0.70721358
-0.025699511 -0.026528507 0.70673978
-0.025638878 -0.027292967 0.70626765
-0.025578624 -0.028053939 0.70579839
-0.025518648 -0.028811336 0.70533133
-0.025458867 -0.029565096 0.70486581
-0.025399454 -0.030315489 0.70440304
-0.025340317 -0.031062335 0.70394254
-0.025281455 -0.031805664 0.70348412
-0.025222776 -0.032545507 0.70302713
-0.025164459 -0.033281982 0.70257294
-0.025106408 -0.034015119 0.7021209
-0.025048539 -0.03474471 0.70167023
-0.024991024 -0.035471112 0.7012223
-0.02493377 -0.036194175 0.7007764
-0.024876781 -0.036913961 0.70033264
-0.025021244 -0.037935466 0.70145768
-0.025270114 -0.039127916 0.70339584
-0.025524074 -0.040344477 0.70537359
-0.025783099 -0.041585654 0.70739079
-0.026047526 -0.042852342 0.70945013
-0.026317339 -0.044145197 0.71155137
-0.026592899 -0.045465261 0.71369731
-0.02687419 -0.046813101 0.71588796
-0.027161596 -0.048189878 0.71812624
-0.027455216 -0.049596518 0.72041291
-0.027755151 -0.051033616 0.72274876
-0.028061816 -0.052502722 0.725137
-0.028375223 -0.054004431 0.72757769
-0.028695825 -0.055540264 0.73007452
-0.029023636 -0.057110995 0.73262739
-0.029359143 -0.058718264 0.73524022
-0.029702378 -0.060362875 0.73791337
-0.030053854 -0.062046677 0.74065053
-0.030413751 -0.063770741 0.74345326
-0.03078224 -0.06553638 0.74632305
-0.031159902 -0.06734556 0.74926418
-0.031546809 -0.069199443 0.75227737
-0.031943586 -0.071100205 0.75536734
-0.032350324 -0.073049098 0.75853497
-0.032767706 -0.075048596 0.76178545
-0.032867715 0.077786922 0.77109653
-0.032765467 0.076452821 0.77027369
-0.032663856 0.075126886 0.76945597
-0.032562722 0.073808849 0.76864213
-0.032462358 0.072499275 0.76783442
-0.032362614 0.071197778 0.76703179
-0.03226348 0.069904238 0.76623398
-0.032164805 0.068618268 0.76543993
-0.032066882 0.067340493 0.76465189
-0.031969547 0.066070408 0.76386857
-0.03187266 0.064807773 0.76308888
-0.031776499 0.063553035 0.76231515
-0.031680919 0.062305838 0.7615459
-0.031585913 0.061066151 0.76078135
-0.031491332 0.059833556 0.7600202
-0.031397458 0.058608621 0.75926483
-0.03130414 0.057390958 0.75851381
-0.031211238 0.056180269 0.75776619
-0.031119023 0.05497694 0.75702417
-0.031027349 0.053780764 0.75628638
-0.030936217 0.052591622 0.75555295
-0.030845484 0.051409125 0.75482291
-0.030755414 0.050233841 0.754098
-0.030665867 0.049065411 0.75337738
-0.030576712 0.047903538 0.75265992
-0.0304882 0.046748579 0.7519477
-0.030400204 0.045600325 0.75123948
-0.030312711 0.044458658 0.75053543
-0.030225592 0.043323368 0.74983436
-0.030139102 0.042194754 0.7491383
-0.030053105 0.041072577 0.74844635
-0.02996747 0.039956629 0.74775708
-0.029882446 0.038847208 0.74707288
-0.029797904 0.037744015 0.74639255
-0.029713841 0.036647081 0.74571609
-0.029630126 0.035556167 0.74504244
-0.029547004 0.034471542 0.7443735
-0.029464349 0.033392966 0.74370831
-0.029382033 0.032320231 0.74304593
-0.029300295 0.031253666 0.74238813
-0.029219011 0.030193001 0.74173403
-0.029138178 0.029138207 0.7410835
-0.029057669 0.028089076 0.74043566
-0.028977724 0.027045906 0.73979229
-0.028898217 0.026008427 0.73915249
-0.02881903 0.024976522 0.73851526
-0.028740391 0.023950309 0.73788238
-0.028662179 0.022929758 0.73725295
-0.028584277 0.021914631 0.73662609
-0.028506912 0.020905077 0.73600346
